ply
format ascii 1.0
element vertex 1937
property float x
property float y
property float z
end_header
-115.049 124.959 539.164
-114.957 125.341 538.731
-114.68 125.522 537.436
-114.314 125.601 535.719
-116.438 52.8145 547.974
-116.438 53.3058 547.974
-116.438 53.7971 547.974
-116.438 54.2884 547.974
-116.153 54.6458 546.634
-116.153 55.1359 546.634
-116.153 55.626 546.634
-116.153 56.1161 546.634
-116.153 56.6062 546.634
-116.153 57.0963 546.634
-116.058 57.5395 546.189
-116.058 58.0292 546.189
-116.153 58.5666 546.634
-116.058 59.0086 546.189
-116.153 59.5468 546.634
-116.153 60.0369 546.634
-116.153 61.0171 546.634
-116.248 62.5383 547.08
-116.153 62.9774 546.634
-116.153 63.4675 546.634
-116.248 64.0098 547.08
-116.438 64.6057 547.974
-116.248 65.4813 547.08
-115.964 65.8108 545.745
-115.964 66.3001 545.745
-115.964 66.7894 545.745
-115.776 67.1693 544.858
-115.682 67.6029 544.416
-115.776 68.1464 544.858
-115.682 68.5792 544.416
-115.682 69.0673 544.416
-115.588 69.4989 543.974
-115.588 69.9867 543.974
-115.401 70.3602 543.093
-115.682 71.0197 544.416
-115.682 71.5078 544.416
-115.682 71.9959 544.416
-115.682 72.484 544.416
-115.307 72.736 542.654
-115.307 74.1955 542.654
-116.058 108.958 546.189
-116.153 109.537 546.634
-116.058 109.937 546.189
-116.058 110.427 546.189
-115.964 110.826 545.745
-115.964 111.316 545.745
-115.964 111.805 545.745
-115.87 112.203 545.301
-115.588 112.418 543.974
-115.401 112.722 543.093
-115.028 117.697 541.34
-115.121 118.278 541.777
-115.214 118.86 542.215
-115.307 119.443 542.654
-115.307 119.929 542.654
-115.214 120.318 542.215
-115.307 120.902 542.654
-115.401 121.487 543.093
-115.401 121.974 543.093
-115.307 122.362 542.654
-115.307 122.848 542.654
-115.401 123.435 543.093
-115.401 123.922 543.093
-115.307 124.308 542.654
-115.121 124.593 541.777
-114.658 124.575 539.598
-114.658 125.059 539.598
-114.566 125.442 539.164
-114.198 125.522 537.436
-113.925 125.702 536.147
-115.946 51.8319 547.974
-115.946 52.3232 547.974
-115.946 52.8145 547.974
-115.946 53.3058 547.974
-116.231 53.9293 549.321
-116.231 54.4218 549.321
-116.136 54.8694 548.871
-115.946 55.271 547.974
-115.757 55.6714 547.08
-115.663 56.1161 546.634
-115.663 56.6062 546.634
-115.663 57.0963 546.634
-115.663 57.5864 546.634
-115.663 58.0765 546.634
-115.663 58.5666 546.634
-115.663 59.0567 546.634
-115.663 59.5468 546.634
-116.136 60.2825 548.871
-116.136 60.7746 548.871
-115.946 61.1666 547.974
-115.946 61.6579 547.974
-116.136 62.2509 548.871
-115.946 62.6405 547.974
-115.946 63.1318 547.974
-115.946 63.6231 547.974
-116.136 64.2193 548.871
-116.136 64.7114 548.871
-115.946 65.097 547.974
-115.569 65.3746 546.189
-115.475 65.8108 545.745
-115.475 66.3001 545.745
-115.475 66.7894 545.745
-115.193 67.1148 544.416
-115.193 67.6029 544.416
-115.287 68.1464 544.858
-115.193 68.5792 544.416
-115.193 69.0673 544.416
-115.1 69.4989 543.974
-115.1 69.9867 543.974
-114.914 70.3602 543.093
-115.193 71.0197 544.416
-115.381 71.6241 545.301
-115.193 71.9959 544.416
-115.193 72.484 544.416
-114.821 72.736 542.654
-114.821 73.2225 542.654
-114.821 73.709 542.654
-114.821 74.1955 542.654
-115.569 108.958 546.189
-115.946 109.805 547.974
-115.569 109.937 546.189
-115.475 110.337 545.745
-115.475 110.826 545.745
-115.475 111.316 545.745
-115.381 111.714 545.301
-115.381 112.203 545.301
-115.193 112.509 544.416
-115.193 112.997 544.416
-114.728 118.374 542.215
-114.821 118.956 542.654
-114.821 119.443 542.654
-114.821 119.929 542.654
-114.821 120.416 542.654
-114.821 120.902 542.654
-115.007 121.586 543.534
-115.1 122.172 543.974
-115.007 122.56 543.534
-114.914 122.948 543.093
-114.914 123.435 543.093
-115.1 124.123 543.974
-114.821 124.308 542.654
-114.174 124.092 539.598
-113.899 124.276 538.299
-113.991 124.858 538.731
-113.991 125.341 538.731
-113.808 125.623 537.867
-113.626 125.903 537.006
-115.455 51.3406 547.974
-115.455 51.8319 547.974
-115.834 52.4948 549.771
-115.834 52.9877 549.771
-115.929 53.5245 550.222
-115.834 53.9735 549.771
-115.739 54.4218 549.321
-115.739 54.9143 549.321
-115.455 55.271 547.974
-115.267 55.6714 547.08
-115.267 56.1619 547.08
-115.173 56.6062 546.634
-115.173 57.0963 546.634
-115.079 57.5395 546.189
-115.173 58.0765 546.634
-115.079 58.5189 546.189
-115.173 59.0567 546.634
-115.173 59.5468 546.634
-115.644 60.2825 548.871
-115.644 60.7746 548.871
-115.644 61.2667 548.871
-115.455 61.6579 547.974
-115.644 62.2509 548.871
-115.644 62.743 548.871
-115.644 63.2351 548.871
-115.455 63.6231 547.974
-115.644 64.2193 548.871
-115.644 64.7114 548.871
-115.644 65.2035 548.871
-115.173 65.4279 546.634
-114.985 65.8108 545.745
-114.985 66.3001 545.745
-114.985 66.7894 545.745
-114.799 67.1693 544.858
-114.612 67.5481 543.974
-114.799 68.1464 544.858
-114.799 68.6349 544.858
-114.705 69.0673 544.416
-114.612 69.4989 543.974
-114.519 69.93 543.534
-114.427 70.3602 543.093
-114.705 71.0197 544.416
-114.705 71.5078 544.416
-114.705 71.9959 544.416
-114.519 72.3665 543.534
-114.705 72.9721 544.416
-114.705 73.4602 544.416
-114.334 73.709 542.654
-114.334 74.1955 542.654
-114.985 108.869 545.745
-115.455 109.805 547.974
-115.455 110.296 547.974
-114.985 110.337 545.745
-114.985 110.826 545.745
-114.892 111.225 545.301
-114.892 111.714 545.301
-115.079 112.386 546.189
-114.799 112.6 544.858
-114.057 118.183 541.34
-114.334 118.956 542.654
-114.334 119.443 542.654
-114.334 119.929 542.654
-114.334 120.416 542.654
-114.334 120.902 542.654
-114.427 121.487 543.093
-114.427 121.974 543.093
-114.334 122.362 542.654
-114.334 122.848 542.654
-114.334 123.335 542.654
-114.334 123.821 542.654
-114.149 124.107 541.777
-113.69 124.092 539.598
-113.508 124.375 538.731
-113.599 124.959 539.164
-113.599 125.442 539.164
-113.599 125.926 539.164
-113.599 126.409 539.164
-115.152 42.5668 548.871
-115.152 43.0589 548.871
-114.964 50.3581 547.974
-115.341 51.0161 549.771
-115.341 51.509 549.771
-115.435 52.0445 550.222
-115.435 52.5379 550.222
-115.53 53.0747 550.674
-115.435 53.5245 550.222
-115.435 54.0178 550.222
-115.341 54.4664 549.771
-115.341 54.9593 549.771
-115.152 55.3615 548.871
-115.152 55.8536 548.871
-114.964 56.2536 547.974
-114.776 56.6524 547.08
-114.87 57.1895 547.527
-114.776 57.6333 547.08
-114.87 58.1713 547.527
-114.87 58.6622 547.527
-114.964 59.2014 547.974
-114.776 59.5953 547.08
-115.152 60.2825 548.871
-115.246 60.8244 549.321
-115.152 61.2667 548.871
-115.152 61.7588 548.871
-115.152 62.2509 548.871
-115.152 62.743 548.871
-114.776 63.0288 547.08
-114.683 63.4675 546.634
-114.776 64.0098 547.08
-114.776 64.5003 547.08
-114.776 64.9908 547.08
-114.589 65.3746 546.189
-114.496 65.8108 545.745
-114.496 66.3001 545.745
-114.496 66.7894 545.745
-114.125 67.0604 543.974
-114.125 67.5481 543.974
-114.217 68.091 544.416
-114.217 68.5792 544.416
-114.125 69.0112 543.974
-114.125 69.4989 543.974
-114.032 69.93 543.534
-113.94 70.3602 543.093
-114.125 70.9621 543.974
-114.217 71.5078 544.416
-114.032 71.8792 543.534
-114.217 72.484 544.416
-114.217 72.9721 544.416
-114.589 73.6995 546.189
-114.217 73.9483 544.416
-114.964 109.805 547.974
-114.964 110.296 547.974
-114.964 110.788 547.974
-114.496 110.826 545.745
-114.403 111.225 545.301
-113.572 118.183 541.34
-113.756 118.86 542.215
-113.848 119.443 542.654
-113.848 119.929 542.654
-113.94 120.513 543.093
-113.94 121 543.093
-113.94 121.487 543.093
-113.94 121.974 543.093
-113.848 122.362 542.654
-113.756 122.749 542.215
-113.756 123.235 542.215
-113.94 123.922 543.093
-113.848 124.308 542.654
-113.572 124.492 541.34
-113.206 124.575 539.598
-113.298 125.16 540.033
-113.298 125.644 540.033
-113.206 126.027 539.598
-113.115 126.409 539.164
-113.115 126.892 539.164
-115.226 41.7878 551.579
-115.226 42.2823 551.579
-115.226 42.7769 551.579
-114.942 43.1649 550.222
-115.226 43.7659 551.579
-115.226 44.2605 551.579
-115.226 44.755 551.579
-115.226 45.2495 551.579
-115.226 45.744 551.579
-114.848 50.5232 549.771
-114.848 51.0161 549.771
-114.848 51.509 549.771
-115.036 52.0873 550.674
-114.942 52.5379 550.222
-115.036 53.0747 550.674
-114.942 53.5245 550.222
-114.848 53.9735 549.771
-114.754 54.4218 549.321
-114.754 54.9143 549.321
-114.66 55.3615 548.871
-114.566 55.8079 548.422
-114.472 56.2536 547.974
-114.472 56.7449 547.974
-114.379 57.1895 547.527
-114.472 57.7275 547.974
-114.472 58.2188 547.974
-114.472 58.7101 547.974
-114.472 59.2014 547.974
-114.472 59.6927 547.974
-114.472 60.184 547.974
-114.66 60.7746 548.871
-114.472 61.1666 547.974
-114.472 61.6579 547.974
-114.566 62.2 548.422
-114.379 62.5894 547.527
-114.193 62.9774 546.634
-114.193 63.4675 546.634
-114.193 63.9576 546.634
-114.193 64.4477 546.634
-114.193 64.9378 546.634
-114.1 65.3746 546.189
-114.007 65.8108 545.745
-114.007 66.3001 545.745
-113.914 66.7351 545.301
-113.637 67.0604 543.974
-113.545 67.4934 543.534
-113.545 67.9807 543.534
-113.637 68.5235 543.974
-113.545 68.9553 543.534
-113.545 69.4426 543.534
-113.453 69.8733 543.093
-113.361 70.3033 542.654
-113.545 70.9046 543.534
-113.545 71.3919 543.534
-113.545 71.8792 543.534
-113.729 72.484 544.416
-113.729 72.9721 544.416
-114.1 73.6995 546.189
-113.729 73.9483 544.416
-113.729 74.4364 544.416
-114.754 111.06 549.321
-114.472 111.279 547.974
-114.472 111.77 547.974
-114.472 112.262 547.974
-113.178 118.278 541.777
-113.269 118.86 542.215
-113.361 119.443 542.654
-113.361 119.929 542.654
-113.453 120.513 543.093
-113.453 121 543.093
-113.545 121.586 543.534
-113.453 121.974 543.093
-113.361 122.362 542.654
-113.269 122.749 542.215
-113.361 123.335 542.654
-113.453 123.922 543.093
-113.453 124.409 543.093
-113.361 124.794 542.654
-113.269 125.18 542.215
-113.269 125.666 542.215
-113.269 126.152 542.215
-113.178 126.536 541.777
-112.995 126.817 540.904
-113.178 127.507 541.777
-114.92 41.8567 552.488
-114.92 42.352 552.488
-114.825 42.8121 552.033
-114.637 43.2358 551.126
-114.825 43.802 552.033
-114.825 44.2969 552.033
-115.015 44.8657 552.943
-115.015 45.3614 552.943
-115.015 45.8572 552.943
-114.355 50.5232 549.771
-114.543 51.0998 550.674
-114.543 51.5936 550.674
-114.543 52.0873 550.674
-114.449 52.5379 550.222
-114.543 53.0747 550.674
-114.449 53.5245 550.222
-114.355 53.9735 549.771
-114.355 54.4664 549.771
-114.261 54.9143 549.321
-114.261 55.4068 549.321
-114.074 55.8079 548.422
-113.888 56.2077 547.527
-113.795 56.6524 547.08
-113.795 57.1429 547.08
-113.888 57.6804 547.527
-113.888 58.1713 547.527
-113.795 58.6143 547.08
-113.795 59.1048 547.08
-113.702 59.5468 546.634
-113.702 60.0369 546.634
-113.702 60.527 546.634
-113.795 61.0668 547.08
-113.795 61.5573 547.08
-113.888 62.0985 547.527
-113.702 62.4873 546.634
-113.61 62.9262 546.189
-113.61 63.4159 546.189
-113.702 63.9576 546.634
-113.61 64.3953 546.189
-113.702 64.9378 546.634
-113.61 65.3746 546.189
-113.517 65.8108 545.745
-113.517 66.3001 545.745
-113.425 66.7351 545.301
-113.149 67.0604 543.974
-113.057 67.4934 543.534
-113.057 67.9807 543.534
-113.057 68.468 543.534
-113.057 68.9553 543.534
-113.057 69.4426 543.534
-112.966 69.8733 543.093
-112.875 70.3033 542.654
-112.966 70.8472 543.093
-112.875 71.2764 542.654
-112.875 71.7629 542.654
-113.241 72.484 544.416
-113.61 73.2098 546.189
-113.61 73.6995 546.189
-113.61 74.1892 546.189
-113.61 74.6789 546.189
-112.601 118.183 541.34
-112.783 118.86 542.215
-112.783 119.346 542.215
-112.875 119.929 542.654
-112.875 120.416 542.654
-112.966 121 543.093
-113.149 121.684 543.974
-113.057 122.073 543.534
-112.966 122.461 543.093
-112.966 122.948 543.093
-112.966 123.435 543.093
-113.241 124.223 544.416
-113.333 124.813 544.858
-113.241 125.2 544.416
-113.241 125.688 544.416
-113.149 126.074 543.974
-113.149 126.561 543.974
-112.966 126.843 543.093
-112.875 127.227 542.654
-112.966 127.817 543.093
-115.856 26.8325 559.4
-115.76 27.3113 558.934
-115.76 27.8124 558.934
-114.614 41.9257 553.4
-114.614 42.4219 553.4
-114.519 42.8827 552.943
-114.519 43.3784 552.943
-114.614 43.9104 553.4
-114.614 44.4065 553.4
-114.614 44.9027 553.4
-114.614 45.3989 553.4
-114.614 45.895 553.4
-114.614 46.3912 553.4
-113.49 49.8668 547.974
-113.862 50.5232 549.771
-113.862 51.0161 549.771
-113.955 51.5512 550.222
-113.955 52.0445 550.222
-114.049 52.581 550.674
-113.955 53.0312 550.222
-113.955 53.5245 550.222
-113.769 53.9293 549.321
-113.862 54.4664 549.771
-113.769 54.9143 549.321
-113.676 55.3615 548.871
-113.676 55.8536 548.871
-113.49 56.2536 547.974
-113.305 56.6524 547.08
-113.305 57.1429 547.08
-113.397 57.6804 547.527
-113.397 58.1713 547.527
-113.305 58.6143 547.08
-113.305 59.1048 547.08
-113.212 59.5468 546.634
-113.212 60.0369 546.634
-113.212 60.527 546.634
-113.305 61.0668 547.08
-113.305 61.5573 547.08
-113.305 62.0478 547.08
-113.305 62.5383 547.08
-113.12 62.9262 546.189
-113.12 63.4159 546.189
-113.212 63.9576 546.634
-113.212 64.4477 546.634
-113.212 64.9378 546.634
-113.212 65.4279 546.634
-113.028 65.8108 545.745
-113.028 66.3001 545.745
-112.936 66.7351 545.301
-112.661 67.0604 543.974
-112.57 67.4934 543.534
-112.57 67.9807 543.534
-112.661 68.5235 543.974
-112.57 68.9553 543.534
-112.57 69.4426 543.534
-112.479 69.8733 543.093
-112.479 70.3602 543.093
-112.479 70.8472 543.093
-112.479 71.3341 543.093
-112.388 71.7629 542.654
-112.753 72.484 544.416
-112.753 72.9721 544.416
-113.12 73.6995 546.189
-113.12 74.1892 546.189
-113.12 74.6789 546.189
-112.206 118.278 541.777
-112.297 118.86 542.215
-112.297 119.346 542.215
-112.388 119.929 542.654
-112.388 120.416 542.654
-112.57 121.098 543.534
-112.845 121.882 544.858
-112.845 122.37 544.858
-112.845 122.859 544.858
-112.753 123.247 544.416
-112.936 123.937 545.301
-113.028 124.527 545.745
-113.212 125.22 546.634
-113.12 125.607 546.189
-113.212 126.2 546.634
-113.212 126.69 546.634
-113.12 127.077 546.189
-112.753 127.152 544.416
-112.388 127.227 542.654
-112.388 127.714 542.654
-112.297 128.097 542.215
-115.644 26.397 560.803
-115.644 26.8998 560.803
-115.644 27.4026 560.803
-115.644 27.9054 560.803
-115.644 28.4082 560.803
-114.117 41.9257 553.4
-114.117 42.4219 553.4
-114.117 42.918 553.4
-114.117 43.4142 553.4
-114.212 43.9466 553.857
-114.212 44.4432 553.857
-114.306 44.9769 554.314
-114.306 45.4739 554.314
-114.212 45.9329 553.857
-114.212 46.4295 553.857
-112.63 47.7455 546.189
-112.265 48.0786 544.416
-112.265 48.5667 544.416
-112.999 49.8668 547.974
-113.369 50.5232 549.771
-113.462 51.0579 550.222
-113.462 51.5512 550.222
-113.555 52.0873 550.674
-113.555 52.581 550.674
-113.462 53.0312 550.222
-113.462 53.5245 550.222
-113.369 53.9735 549.771
-113.369 54.4664 549.771
-113.369 54.9593 549.771
-113.276 55.4068 549.321
-113.183 55.8536 548.871
-113.091 56.2996 548.422
-112.906 56.6986 547.527
-112.906 57.1895 547.527
-112.999 57.7275 547.974
-112.999 58.2188 547.974
-112.906 58.6622 547.527
-112.906 59.1531 547.527
-112.814 59.5953 547.08
-112.814 60.0858 547.08
-112.814 60.5763 547.08
-112.906 61.1167 547.527
-112.906 61.6076 547.527
-113.091 62.2 548.422
-112.906 62.5894 547.527
-112.722 62.9774 546.634
-112.63 63.4159 546.189
-112.63 63.9056 546.189
-112.722 64.4477 546.634
-112.722 64.9378 546.634
-112.722 65.4279 546.634
-112.63 65.8643 546.189
-112.539 66.3001 545.745
-112.447 66.7351 545.301
-112.083 67.0061 543.534
-111.992 67.4387 543.093
-112.083 67.9807 543.534
-112.083 68.468 543.534
-112.174 69.0112 543.974
-112.083 69.4426 543.534
-111.992 69.8733 543.093
-111.901 70.3033 542.654
-111.992 70.8472 543.093
-111.901 71.2764 542.654
-111.992 71.821 543.093
-112.083 72.3665 543.534
-112.63 73.2098 546.189
-112.63 73.6995 546.189
-112.63 74.1892 546.189
-112.999 74.923 547.974
-111.992 119.052 543.093
-111.992 119.539 543.093
-112.083 120.124 543.534
-112.174 120.709 543.974
-112.447 121.492 545.301
-112.539 122.08 545.745
-112.539 122.569 545.745
-112.63 123.159 546.189
-112.63 123.649 546.189
-112.63 124.138 546.189
-112.722 124.73 546.634
-112.999 125.527 547.974
-112.999 126.018 547.974
-112.999 126.509 547.974
-112.999 127.001 547.974
-112.63 127.077 546.189
-112.63 127.566 546.189
-112.63 128.056 546.189
-112.265 128.128 544.416
-115.238 25.4127 561.272
-115.238 25.9159 561.272
-115.334 26.4412 561.742
-115.238 26.9223 561.272
-115.238 27.4255 561.272
-115.238 27.9288 561.272
-115.334 28.4558 561.742
-115.334 28.9594 561.742
-115.722 33.0995 563.631
-115.334 33.4922 561.742
-115.238 33.9674 561.272
-115.141 34.4418 560.803
-115.141 34.9446 560.803
-115.431 35.5365 562.213
-113.715 41.9603 553.857
-113.809 42.492 554.314
-113.809 42.989 554.314
-113.809 43.486 554.314
-113.809 43.983 554.314
-113.997 44.5536 555.232
-114.092 45.0887 555.692
-114.186 45.6247 556.153
-113.997 46.047 555.232
-113.715 46.4295 553.857
-112.141 47.7455 546.189
-111.958 48.1568 545.301
-112.507 48.8842 547.974
-112.507 49.8668 547.974
-112.876 50.5232 549.771
-112.969 51.0579 550.222
-112.969 51.5512 550.222
-113.061 52.0873 550.674
-113.061 52.581 550.674
-113.061 53.0747 550.674
-112.969 53.5245 550.222
-112.876 53.9735 549.771
-112.876 54.4664 549.771
-112.876 54.9593 549.771
-112.784 55.4068 549.321
-112.691 55.8536 548.871
-112.599 56.2996 548.422
-112.507 56.7449 547.974
-112.599 57.283 548.422
-112.599 57.7747 548.422
-112.599 58.2664 548.422
-112.599 58.7581 548.422
-112.415 59.1531 547.527
-112.324 59.5953 547.08
-112.324 60.0858 547.08
-112.415 60.6258 547.527
-112.599 61.2166 548.422
-112.599 61.7083 548.422
-112.691 62.2509 548.871
-112.507 62.6405 547.974
-112.324 63.0288 547.08
-112.232 63.4675 546.634
-112.232 63.9576 546.634
-112.232 64.4477 546.634
-112.324 64.9908 547.08
-112.232 65.4279 546.634
-112.141 65.8643 546.189
-111.958 66.2461 545.301
-111.777 66.6267 544.416
-111.505 66.9518 543.093
-111.505 67.4387 543.093
-111.505 67.9256 543.093
-111.596 68.468 543.534
-111.505 68.8995 543.093
-111.505 69.3864 543.093
-111.505 69.8733 543.093
-111.415 70.3033 542.654
-111.505 70.8472 543.093
-111.415 71.2764 542.654
-111.415 71.7629 542.654
-111.777 72.484 544.416
-112.141 73.2098 546.189
-112.141 73.6995 546.189
-112.141 74.1892 546.189
-112.141 74.6789 546.189
-112.507 75.9055 547.974
-111.415 118.956 542.654
-111.686 119.733 543.974
-111.777 120.319 544.416
-112.05 121.102 545.745
-112.141 121.69 546.189
-112.232 122.279 546.634
-112.232 122.769 546.634
-112.324 123.36 547.08
-112.415 123.951 547.527
-112.507 124.544 547.974
-112.507 125.035 547.974
-112.876 125.938 549.771
-112.876 126.431 549.771
-112.876 126.924 549.771
-112.876 127.417 549.771
-112.784 127.805 549.321
-112.784 128.298 549.321
-112.784 128.79 549.321
-112.507 128.966 547.974
-114.83 25.9376 561.742
-114.83 26.4412 561.742
-114.83 26.9449 561.742
-114.83 27.4485 561.742
-114.83 27.9521 561.742
-114.83 28.4558 561.742
-115.023 29.008 562.685
-114.83 29.4631 561.742
-114.83 29.9667 561.742
-115.023 30.5215 562.685
-115.023 31.026 562.685
-115.216 31.5834 563.631
-115.313 32.1158 564.105
-115.313 32.6215 564.105
-115.313 33.1273 564.105
-115.313 33.6331 564.105
-115.023 34.0529 562.685
-114.83 34.4995 561.742
-115.12 35.0913 563.157
-115.313 35.6561 564.105
-113.406 42.0298 554.773
-113.5 42.5624 555.232
-113.5 43.0602 555.232
-113.5 43.558 555.232
-113.5 44.0558 555.232
-113.5 44.5536 555.232
-113.5 45.0514 555.232
-113.782 45.6626 556.615
-113.5 46.047 555.232
-113.125 46.3912 553.4
-112.753 46.7331 551.579
-111.651 47.7455 546.189
-111.651 48.2352 546.189
-111.47 48.6457 545.301
-111.289 49.0548 544.416
-111.289 49.5429 544.416
-111.289 50.0311 544.416
-112.475 51.0579 550.222
-112.475 51.5512 550.222
-112.568 52.0873 550.674
-112.475 52.5379 550.222
-112.475 53.0312 550.222
-112.475 53.5245 550.222
-112.383 53.9735 549.771
-112.383 54.4664 549.771
-112.383 54.9593 549.771
-112.291 55.4068 549.321
-112.199 55.8536 548.871
-112.016 56.2536 547.974
-111.925 56.6986 547.527
-112.108 57.283 548.422
-112.199 57.822 548.871
-112.199 58.3141 548.871
-112.108 58.7581 548.422
-112.016 59.2014 547.974
-111.833 59.5953 547.08
-111.833 60.0858 547.08
-111.925 60.6258 547.527
-112.108 61.2166 548.422
-112.108 61.7083 548.422
-112.199 62.2509 548.871
-111.925 62.5894 547.527
-111.742 62.9774 546.634
-111.651 63.4159 546.189
-111.651 63.9056 546.189
-111.742 64.4477 546.634
-111.742 64.9378 546.634
-111.742 65.4279 546.634
-111.56 65.8108 545.745
-111.379 66.1923 544.858
-111.198 66.5727 543.974
-111.018 66.9518 543.093
-111.018 67.4387 543.093
-111.018 67.9256 543.093
-111.018 68.4126 543.093
-111.018 68.8995 543.093
-111.018 69.3864 543.093
-110.928 69.8168 542.654
-110.839 70.2465 542.215
-110.928 70.7898 542.654
-110.839 71.2188 542.215
-110.928 71.7629 542.654
-111.289 72.484 544.416
-111.651 73.2098 546.189
-111.742 73.7596 546.634
-111.651 74.1892 546.189
-112.016 74.923 547.974
-111.108 119.636 543.534
-111.198 120.221 543.974
-111.56 121.102 545.745
-111.56 121.591 545.745
-111.651 122.18 546.189
-111.651 122.669 546.189
-112.016 123.561 547.974
-112.016 124.053 547.974
-112.475 125.055 550.222
-112.66 125.755 551.126
-112.753 126.352 551.579
-113.125 127.762 553.4
-112.846 127.941 552.033
-112.846 128.436 552.033
-112.753 128.825 551.579
-112.846 129.426 552.033
-114.423 25.4553 562.213
-114.423 25.9593 562.213
-114.615 26.5078 563.157
-114.519 26.9901 562.685
-114.423 27.4715 562.213
-114.519 27.999 562.685
-114.711 28.5514 563.631
-114.711 29.0568 563.631
-114.519 29.5125 562.685
-114.327 29.9667 561.742
-114.711 30.5728 563.631
-114.904 31.1304 564.579
-115.001 31.6633 565.055
-115.001 32.1699 565.055
-114.904 32.649 564.579
-114.904 33.1552 564.579
-114.808 33.6331 564.105
-114.711 34.1101 563.631
-114.711 34.6155 563.631
-114.808 35.1503 564.105
-114.904 35.6861 564.579
-114.904 36.1923 564.579
-112.722 41.9603 553.857
-112.722 42.4569 553.857
-112.722 42.9535 553.857
-112.722 43.4501 553.857
-112.722 43.9466 553.857
-112.908 44.5167 554.773
-113.002 45.0514 555.232
-113.002 45.5492 555.232
-112.815 45.9709 554.314
-112.629 46.3912 553.4
-112.536 46.8487 552.943
-111.525 47.9016 547.974
-111.525 48.3929 547.974
-111.161 48.7249 546.189
-110.8 49.0548 544.416
-111.161 49.7043 546.189
-110.8 50.0311 544.416
-110.8 51.0073 544.416
-110.8 51.4954 544.416
-110.8 51.9835 544.416
-110.8 52.4716 544.416
-110.8 52.9597 544.416
-110.981 53.5347 545.301
-111.071 54.0676 545.745
-111.525 54.7797 547.974
-111.707 55.3615 548.871
-111.525 55.7623 547.974
-111.343 56.1619 547.08
-111.343 56.6524 547.08
-111.434 57.1895 547.527
-111.616 57.7747 548.422
-111.707 58.3141 548.871
-111.707 58.8062 548.871
-111.707 59.2983 548.871
-111.525 59.6927 547.974
-111.343 60.0858 547.08
-111.616 60.7249 548.422
-111.707 61.2667 548.871
-111.707 61.7588 548.871
-111.707 62.2509 548.871
-111.525 62.6405 547.974
-111.252 62.9774 546.634
-111.161 63.4159 546.189
-111.252 63.9576 546.634
-111.252 64.4477 546.634
-111.252 64.9378 546.634
-111.252 65.4279 546.634
-110.981 65.7573 545.301
-110.981 66.2461 545.301
-110.711 66.5727 543.974
-110.531 66.9518 543.093
-110.531 67.4387 543.093
-110.531 67.9256 543.093
-110.531 68.4126 543.093
-110.531 68.8995 543.093
-110.531 69.3864 543.093
-110.531 69.8733 543.093
-110.442 70.3033 542.654
-110.531 70.8472 543.093
-110.442 71.2764 542.654
-110.531 71.821 543.093
-110.8 72.484 544.416
-111.161 73.2098 546.189
-111.161 73.6995 546.189
-111.161 74.1892 546.189
-111.525 74.923 547.974
-110.981 120.025 545.301
-110.981 120.514 545.301
-111.071 121.102 545.745
-111.252 121.789 546.634
-111.525 122.579 547.974
-111.525 123.07 547.974
-111.525 123.561 547.974
-112.074 124.664 550.674
-112.258 125.363 551.579
-114.302 25.0351 564.105
-114.302 25.5409 564.105
-114.302 26.0466 564.105
-114.302 26.5524 564.105
-114.302 27.0582 564.105
-114.302 27.5639 564.105
-114.302 28.0697 564.105
-114.302 28.5755 564.105
-114.302 29.0812 564.105
-114.206 29.5621 563.631
-114.11 30.0422 563.157
-114.302 30.5985 564.105
-114.398 31.1304 564.579
-114.398 31.6366 564.579
-114.398 32.1428 564.579
-114.302 32.6215 564.105
-114.398 33.1552 564.579
-114.302 33.6331 564.105
-114.206 34.1101 563.631
-114.206 34.6155 563.631
-114.302 35.1503 564.105
-114.302 35.6561 564.105
-114.302 36.1619 564.105
-114.302 36.6676 564.105
-114.398 37.2047 564.579
-112.225 41.9603 553.857
-112.225 42.4569 553.857
-112.225 42.9535 553.857
-112.225 43.4501 553.857
-112.225 43.9466 553.857
-112.225 44.4432 553.857
-112.225 44.9398 553.857
-112.225 45.4363 553.857
-112.225 45.9329 553.857
-112.225 46.4295 553.857
-112.133 46.8873 553.4
-110.312 49.0548 544.416
-110.492 49.6235 545.301
-110.312 50.0311 544.416
-110.492 50.6013 545.301
-110.312 51.0073 544.416
-110.492 51.5791 545.301
-110.492 52.068 545.301
-110.492 52.5569 545.301
-110.492 53.0458 545.301
-110.582 53.5783 545.745
-110.762 54.1557 546.634
-111.033 54.7797 547.974
-111.033 55.271 547.974
-110.852 55.6714 547.08
-110.762 56.1161 546.634
-110.762 56.6062 546.634
-110.943 57.1895 547.527
-111.215 57.822 548.871
-111.215 58.3141 548.871
-111.306 58.8544 549.321
-111.215 59.2983 548.871
-111.124 59.7415 548.422
-111.215 60.2825 548.871
-111.215 60.7746 548.871
-111.306 61.3169 549.321
-111.306 61.8094 549.321
-111.306 62.3019 549.321
-111.124 62.6917 548.422
-110.852 63.0288 547.08
-110.762 63.4675 546.634
-110.762 63.9576 546.634
-110.762 64.4477 546.634
-110.762 64.9378 546.634
-110.672 65.3746 546.189
-110.312 65.6505 544.416
-110.312 66.1386 544.416
-110.044 66.4649 543.093
-109.601 66.6818 540.904
-109.601 67.1668 540.904
-109.601 67.6517 540.904
-109.601 68.1367 540.904
-109.601 68.6217 540.904
-109.778 69.2183 541.777
-109.955 69.8168 542.654
-110.044 70.3602 543.093
-109.955 70.7898 542.654
-109.955 71.2764 542.654
-110.134 71.8792 543.534
-110.312 72.484 544.416
-110.672 73.2098 546.189
-110.852 73.8197 547.08
-111.033 74.4316 547.974
-110.672 120.221 546.189
-110.762 120.809 546.634
-110.943 121.497 547.527
-111.033 122.088 547.974
-111.397 122.981 549.771
-111.489 123.575 550.222
-111.764 124.374 551.579
-111.764 124.869 551.579
-114.567 10.4383 567.926
-114.567 10.9475 567.926
-114.664 11.4664 568.407
-114.664 11.976 568.407
-114.761 12.4962 568.889
-114.761 13.0063 568.889
-114.084 25.0985 565.532
-113.892 25.5624 564.579
-113.892 26.0686 564.579
-113.988 26.5971 565.055
-113.892 27.0809 564.579
-113.892 27.5871 564.579
-113.988 28.117 565.055
-113.988 28.6236 565.055
-113.892 29.1057 564.579
-113.892 29.6119 564.579
-113.796 30.0927 564.105
-113.892 30.6242 564.579
-113.892 31.1304 564.579
-113.892 31.6366 564.579
-113.988 32.1699 565.055
-113.892 32.649 564.579
-113.892 33.1552 564.579
-113.796 33.6331 564.105
-113.605 34.0815 563.157
-113.605 34.5864 563.157
-113.7 35.1208 563.631
-113.796 35.6561 564.105
-113.796 36.1619 564.105
-113.796 36.6676 564.105
-113.796 37.1734 564.105
-111.729 41.9603 553.857
-111.729 42.4569 553.857
-111.729 42.9535 553.857
-111.729 43.4501 553.857
-111.729 43.9466 553.857
-111.729 44.4432 553.857
-111.729 44.9398 553.857
-111.729 45.4363 553.857
-111.729 45.9329 553.857
-111.729 46.4295 553.857
-111.821 46.9648 554.314
-110.003 50.1124 545.301
-110.182 50.6837 546.189
-110.003 51.0902 545.301
-110.003 51.5791 545.301
-110.092 52.1104 545.745
-110.182 52.6425 546.189
-110.182 53.1322 546.189
-110.272 53.6656 546.634
-110.362 54.1999 547.08
-110.542 54.7797 547.974
-110.452 55.2259 547.527
-110.452 55.7168 547.527
-110.452 56.2077 547.527
-110.452 56.6986 547.527
-110.542 57.2362 547.974
-110.723 57.822 548.871
-110.814 58.3619 549.321
-110.723 58.8062 548.871
-110.723 59.2983 548.871
-110.632 59.7415 548.422
-110.632 60.2332 548.422
-110.632 60.7249 548.422
-110.723 61.2667 548.871
-110.723 61.7588 548.871
-110.814 62.3019 549.321
-110.542 62.6405 547.974
-110.272 62.9774 546.634
-110.272 63.4675 546.634
-110.182 63.9056 546.189
-110.272 64.4477 546.634
-110.092 64.8322 545.745
-109.824 65.1624 544.416
-109.824 65.6505 544.416
-109.557 65.978 543.093
-109.469 66.4111 542.654
-109.292 66.7896 541.777
-109.292 67.2753 541.777
-109.38 67.8158 542.215
-109.38 68.302 542.215
-109.38 68.7881 542.215
-109.38 69.2742 542.215
-109.469 69.8168 542.654
-109.469 70.3033 542.654
-109.469 70.7898 542.654
-109.469 71.2764 542.654
-109.824 71.9959 544.416
-110.182 72.7201 546.189
-110.272 73.2695 546.634
-110.362 73.8197 547.08
-110.542 74.4316 547.974
-110.905 75.1686 549.771
-110.905 121.009 549.771
-110.905 121.502 549.771
-110.995 122.095 550.222
-111.178 122.79 551.126
-111.178 123.284 551.126
-111.269 123.88 551.579
-113.005 6.81058 562.685
-113.005 7.31507 562.685
-113.005 7.81955 562.685
-113.005 8.32404 562.685
-113.005 8.82853 562.685
-114.154 9.42793 568.407
-114.251 9.94597 568.889
-114.251 10.456 568.889
-114.154 10.9568 568.407
-114.154 11.4664 568.407
-114.154 11.976 568.407
-114.154 12.4856 568.407
-114.154 12.9953 568.407
-113.769 13.4592 566.487
-113.769 13.9671 566.487
-113.195 25.0141 563.631
-113.29 25.5409 564.105
-113.29 26.0466 564.105
-113.386 26.5748 564.579
-113.386 27.0809 564.579
-113.386 27.5871 564.579
-113.386 28.0933 564.579
-113.386 28.5995 564.579
-113.386 29.1057 564.579
-113.29 29.587 564.105
-113.29 30.0927 564.105
-113.481 30.65 565.055
-113.577 31.1829 565.532
-113.481 31.6633 565.055
-113.386 32.1428 564.579
-113.386 32.649 564.579
-113.386 33.1552 564.579
-113.29 33.6331 564.105
-113.1 34.0815 563.157
-113.1 34.5864 563.157
-113.29 35.1503 564.105
-113.29 35.6561 564.105
-113.29 36.1619 564.105
-113.195 36.6368 563.631
-113.29 37.1734 564.105
-113.195 37.6475 563.631
-111.232 41.4638 553.857
-111.232 41.9603 553.857
-111.232 42.4569 553.857
-111.232 42.9535 553.857
-111.232 43.4501 553.857
-111.232 43.9466 553.857
-111.232 44.4432 553.857
-111.14 44.9027 553.4
-111.232 45.4363 553.857
-111.14 45.895 553.4
-111.232 46.4295 553.857
-111.324 46.9648 554.314
-109.159 49.4626 543.534
-109.336 50.0311 544.416
-109.336 50.5192 544.416
-109.336 51.0073 544.416
-109.514 51.5791 545.301
-109.514 52.068 545.301
-109.603 52.5997 545.745
-109.692 53.1322 546.189
-109.871 53.7094 547.08
-110.051 54.2884 547.974
-110.231 54.8694 548.871
-110.231 55.3615 548.871
-110.231 55.8536 548.871
-109.961 56.2077 547.527
-109.961 56.6986 547.527
-110.141 57.283 548.422
-110.231 57.822 548.871
-110.321 58.3619 549.321
-110.321 58.8544 549.321
-110.141 59.2498 548.422
-110.141 59.7415 548.422
-110.051 60.184 547.974
-110.051 60.6753 547.974
-110.141 61.2166 548.422
-110.141 61.7083 548.422
-110.141 62.2 548.422
-109.961 62.5894 547.527
-109.782 62.9774 546.634
-109.692 63.4159 546.189
-109.692 63.9056 546.189
-109.782 64.4477 546.634
-109.603 64.8322 545.745
-109.514 65.2683 545.301
-109.336 65.6505 544.416
-109.247 66.085 543.974
-109.071 66.4649 543.093
-109.071 66.9518 543.093
-108.982 67.3841 542.654
-109.071 67.9256 543.093
-109.071 68.4126 543.093
-109.071 68.8995 543.093
-109.159 69.4426 543.534
-109.071 69.8733 543.093
-109.071 70.3602 543.093
-109.071 70.8472 543.093
-109.336 71.5078 544.416
-109.514 72.113 545.301
-109.692 72.7201 546.189
-109.871 73.3292 547.08
-110.051 73.9404 547.974
-110.231 74.5535 548.871
-110.412 75.1686 549.771
-112.501 3.78365 562.685
-112.124 4.2738 560.803
-112.218 4.7806 561.272
-112.501 5.29712 562.685
-112.501 5.8016 562.685
-112.501 6.30609 562.685
-112.69 6.82202 563.631
-112.785 7.33352 564.105
-112.879 7.84588 564.579
-112.879 8.35207 564.579
-113.261 8.88818 566.487
-113.452 9.41197 567.445
-113.645 9.93754 568.407
-113.741 10.456 568.889
-113.645 10.9568 568.407
-113.645 11.4664 568.407
-113.645 11.976 568.407
-113.549 12.4751 567.926
-113.549 12.9842 567.926
-113.549 13.4934 567.926
-113.452 13.9908 567.445
-112.69 25.0141 563.631
-112.69 25.5194 563.631
-112.69 26.0248 563.631
-112.879 26.5748 564.579
-112.879 27.0809 564.579
-112.879 27.5871 564.579
-112.879 28.0933 564.579
-112.879 28.5995 564.579
-112.785 29.0812 564.105
-112.69 29.5621 563.631
-112.501 30.017 562.685
-112.879 30.6242 564.579
-113.261 31.2356 566.487
-113.261 31.7435 566.487
-113.261 32.2514 566.487
-112.501 32.5394 562.685
-112.501 33.0439 562.685
-112.124 33.4362 560.803
-112.124 33.939 560.803
-112.124 34.4418 560.803
-112.312 35.0031 561.742
-112.69 35.6261 563.631
-112.406 36.0406 562.213
-112.312 36.5141 561.742
-112.406 37.0487 562.213
-112.312 37.5213 561.742
-112.312 38.025 561.742
-112.312 38.5286 561.742
-112.312 39.0323 561.742
-112.406 39.5691 562.213
-112.312 40.0396 561.742
-110.827 41.0011 554.314
-110.736 41.4638 553.857
-110.736 41.9603 553.857
-110.736 42.4569 553.857
-110.736 42.9535 553.857
-110.736 43.4501 553.857
-110.644 43.9104 553.4
-110.736 44.4432 553.857
-110.644 44.9027 553.4
-110.736 45.4363 553.857
-110.736 45.9329 553.857
-110.736 46.4295 553.857
-110.736 46.9261 553.857
-108.848 50.0311 544.416
-109.203 50.6837 546.189
-108.848 51.0073 544.416
-109.559 51.8319 547.974
-109.203 52.1528 546.189
-109.203 52.6425 546.189
-109.559 53.3058 547.974
-109.292 53.6656 546.634
-109.559 54.2884 547.974
-109.739 54.8694 548.871
-109.649 55.3162 548.422
-109.559 55.7623 547.974
-109.47 56.2077 547.527
-109.47 56.6986 547.527
-109.559 57.2362 547.974
-109.739 57.822 548.871
-109.739 58.3141 548.871
-109.739 58.8062 548.871
-109.829 59.3469 549.321
-109.559 59.6927 547.974
-109.381 60.0858 547.08
-109.381 60.5763 547.08
-109.739 61.2667 548.871
-109.739 61.7588 548.871
-109.739 62.2509 548.871
-109.381 62.5383 547.08
-109.292 62.9774 546.634
-109.203 63.4159 546.189
-109.292 63.9576 546.634
-109.292 64.4477 546.634
-109.203 64.8849 546.189
-109.203 65.3746 546.189
-109.203 65.8643 546.189
-108.672 67.4934 543.534
-108.848 68.091 544.416
-108.848 68.5792 544.416
-109.025 69.1796 545.301
-109.025 69.6685 545.301
-109.025 70.1574 545.301
-108.848 70.5316 544.416
-108.848 71.0197 544.416
-109.025 71.6241 545.301
-109.203 72.2304 546.189
-109.292 72.7794 546.634
-109.559 73.4491 547.974
-109.739 74.0614 548.871
-109.829 74.6145 549.321
-109.919 75.1686 549.771
-110.28 76.8995 551.579
-110.28 77.394 551.579
-110.28 77.8885 551.579
-110.644 78.6417 553.4
-110.644 79.1379 553.4
-111.996 3.78365 562.685
-111.996 4.28814 562.685
-111.996 4.79263 562.685
-112.373 5.31495 564.579
-112.468 5.82604 565.055
-112.563 6.33799 565.532
-112.468 6.83927 565.055
-112.563 7.35207 565.532
-112.753 7.87239 566.487
-112.753 8.38028 566.487
-112.944 8.90322 567.445
-113.135 9.42793 568.407
-113.231 9.94597 568.889
-113.135 10.4472 568.407
-113.135 10.9568 568.407
-113.135 11.4664 568.407
-113.039 11.9659 567.926
-113.039 12.4751 567.926
-113.039 12.9842 567.926
-113.039 13.4934 567.926
-113.039 14.0026 567.926
-112.944 14.4995 567.445
-111.528 15.825 560.335
-111.528 16.3274 560.335
-112.184 25.0141 563.631
-112.184 25.5194 563.631
-112.279 26.0466 564.105
-112.373 26.5748 564.579
-112.563 27.1266 565.532
-112.563 27.6337 565.532
-112.563 28.1407 565.532
-112.373 28.5995 564.579
-112.279 29.0812 564.105
-112.09 29.5373 563.157
-111.996 30.017 562.685
-111.809 30.4704 561.742
-111.622 30.9222 560.803
-111.528 31.3988 560.335
-111.528 31.9011 560.335
-111.528 32.4035 560.335
-111.528 32.9059 560.335
-111.528 33.4083 560.335
-111.435 33.8823 559.867
-111.528 34.413 560.335
-111.528 34.9154 560.335
-111.622 35.4474 560.803
-111.622 35.9502 560.803
-111.622 36.453 560.803
-111.715 36.9867 561.272
-111.622 37.4586 560.803
-111.715 37.9932 561.272
-111.622 38.4642 560.803
-111.715 38.9996 561.272
-111.715 39.5028 561.272
-111.715 40.0061 561.272
-110.88 40.2065 557.077
-110.604 40.6047 555.692
-110.239 40.9672 553.857
-110.239 41.4638 553.857
-110.239 41.9603 553.857
-110.239 42.4569 553.857
-110.239 42.9535 553.857
-110.239 43.4501 553.857
-110.148 43.9104 553.4
-110.148 44.4065 553.4
-110.148 44.9027 553.4
-110.148 45.3989 553.4
-110.239 45.9329 553.857
-110.239 46.4295 553.857
-110.239 46.9261 553.857
-108.536 50.1124 545.301
-109.068 50.8493 547.974
-109.068 51.3406 547.974
-109.068 51.8319 547.974
-109.068 52.3232 547.974
-109.068 52.8145 547.974
-109.068 53.3058 547.974
-109.068 53.7971 547.974
-109.336 54.4218 549.321
-109.336 54.9143 549.321
-109.247 55.3615 548.871
-109.247 55.8536 548.871
-109.157 56.2996 548.422
-108.979 56.6986 547.527
-109.068 57.2362 547.974
-109.157 57.7747 548.422
-109.247 58.3141 548.871
-109.247 58.8062 548.871
-109.068 59.2014 547.974
-108.713 59.4983 546.189
-108.624 59.9392 545.745
-108.624 60.4285 545.745
-108.89 61.0668 547.08
-109.068 61.6579 547.974
-109.426 62.353 549.771
-108.89 62.5383 547.08
-108.713 62.9262 546.189
-108.36 63.21 544.416
-108.536 63.8016 545.301
-108.801 64.4477 546.634
-108.89 64.9908 547.08
-108.89 65.4813 547.08
-108.801 65.918 546.634
-108.713 68.3128 546.189
-108.713 68.8025 546.189
-108.713 69.2922 546.189
-108.713 69.7819 546.189
-108.713 70.2716 546.189
-108.36 70.5316 544.416
-108.713 71.251 546.189
-108.713 71.7407 546.189
-108.713 72.2304 546.189
-108.89 72.8387 547.08
-109.068 73.4491 547.974
-109.336 74.122 549.321
-109.336 74.6145 549.321
-109.605 75.292 550.674
-109.786 75.9104 551.579
-109.786 76.4049 551.579
-109.786 76.8995 551.579
-109.786 77.394 551.579
-109.786 77.8885 551.579
-110.148 78.6417 553.4
-110.148 79.1379 553.4
-110.148 79.6341 553.4
-116.988 -41.0251 590.423
-111.867 4.30258 564.579
-111.867 4.80877 564.579
-112.056 5.32392 565.532
-112.245 5.8408 566.487
-112.245 6.8566 566.487
-112.435 7.37695 567.445
-112.626 7.89907 568.407
-112.626 8.40869 568.407
-112.721 8.92587 568.889
-112.817 9.44393 569.372
-112.817 9.95442 569.372
-112.817 10.4649 569.372
-112.721 10.9661 568.889
-112.721 11.4761 568.889
-112.721 11.9862 568.889
-112.721 12.4962 568.889
-112.721 13.0063 568.889
-112.721 13.5163 568.889
-112.626 14.0145 568.407
-112.626 14.5241 568.407
-111.867 14.9325 564.579
-111.026 15.3226 560.335
-111.026 15.825 560.335
-111.026 16.3274 560.335
-111.212 19.374 561.272
-111.026 24.8678 560.335
-111.119 25.3914 560.803
-111.119 25.8942 560.803
-111.492 26.4856 562.685
-111.492 26.9901 562.685
-111.679 27.5408 563.631
-111.773 28.0697 564.105
-111.679 28.5514 563.631
-111.398 28.9837 562.213
-111.212 29.4384 561.272
-111.119 29.9166 560.803
-111.119 30.4194 560.803
-111.119 30.9222 560.803
-110.933 31.3725 559.867
-110.933 31.8745 559.867
-110.933 32.3765 559.867
-111.026 32.9059 560.335
-111.026 33.4083 560.335
-110.933 33.8823 559.867
-110.933 34.3843 559.867
-111.026 34.9154 560.335
-111.026 35.4178 560.335
-111.026 35.9202 560.335
-111.026 36.4226 560.335
-111.119 36.9558 560.803
-111.119 37.4586 560.803
-111.119 37.9614 560.803
-111.026 38.4321 560.335
-111.119 38.967 560.803
-111.119 39.4698 560.803
-110.748 39.8394 558.934
-110.289 40.1731 556.615
-110.015 40.5711 555.232
-109.742 40.9672 553.857
-109.742 41.4638 553.857
-109.742 41.9603 553.857
-109.742 42.4569 553.857
-109.742 42.9535 553.857
-109.742 43.4501 553.857
-109.742 43.9466 553.857
-109.742 44.4432 553.857
-109.742 44.9398 553.857
-109.742 45.4363 553.857
-109.742 45.9329 553.857
-109.742 46.4295 553.857
-109.652 46.8873 553.4
-108.577 50.8493 547.974
-109.291 51.6784 551.579
-109.291 52.1729 551.579
-109.022 52.5379 550.222
-109.022 53.0312 550.222
-109.022 53.5245 550.222
-108.933 53.9735 549.771
-108.933 54.4664 549.771
-108.933 54.9593 549.771
-108.844 55.4068 549.321
-108.844 55.8993 549.321
-108.666 56.2996 548.422
-108.666 56.7913 548.422
-108.666 57.283 548.422
-108.666 57.7747 548.422
-108.666 58.2664 548.422
-108.488 58.6622 547.527
-108.311 59.0567 546.634
-108.135 59.4499 545.745
-108.047 59.8904 545.301
-108.135 60.4285 545.745
-108.135 60.9178 545.745
-108.135 61.4071 545.745
-108.135 61.8964 545.745
-108.135 62.3857 545.745
-107.959 62.7728 544.858
-107.872 63.21 544.416
-107.959 63.7498 544.858
-108.135 64.3429 545.745
-108.311 64.9378 546.634
-108.577 65.5883 547.974
-108.577 66.0796 547.974
-108.4 66.4623 547.08
-108.223 66.8437 546.189
-108.135 67.2787 545.745
-108.223 67.8231 546.189
-108.223 68.3128 546.189
-108.223 68.8025 546.189
-108.223 69.2922 546.189
-108.223 69.7819 546.189
-108.223 72.2304 546.189
-108.4 72.8387 547.08
-108.755 73.5693 548.871
-108.844 74.122 549.321
-108.933 74.6757 549.771
-109.291 75.4159 551.579
-109.291 75.9104 551.579
-109.652 76.6571 553.4
-109.652 77.1533 553.4
-109.652 77.6494 553.4
-109.471 78.0168 552.488
-109.291 78.383 551.579
-109.652 79.1379 553.4
-109.291 79.3721 551.579
-109.291 79.8666 551.579
-116.973 -41.7382 593.033
-116.87 -41.1701 592.509
-116.87 -40.6389 592.509
-116.767 -40.0722 591.986
-111.361 4.30258 564.579
-111.361 4.80877 564.579
-111.361 5.31495 564.579
-111.361 5.82114 564.579
-111.361 6.32732 564.579
-111.455 6.83927 565.055
-111.549 7.35207 565.532
-111.737 7.87239 566.487
-111.737 8.38028 566.487
-111.926 8.90322 567.445
-112.021 9.41994 567.926
-112.021 9.92913 567.926
-112.021 10.4383 567.926
-112.021 10.9475 567.926
-112.021 11.4567 567.926
-112.021 11.9659 567.926
-112.021 12.4751 567.926
-112.021 12.9842 567.926
-111.926 13.482 567.445
-111.926 13.9908 567.445
-111.737 14.475 566.487
-111.361 14.9325 564.579
-110.524 15.3226 560.335
-110.524 15.825 560.335
-110.524 16.3274 560.335
-110.524 16.8297 560.335
-110.709 18.3676 561.272
-110.709 18.8708 561.272
-110.709 19.374 561.272
-110.616 19.8606 560.803
-110.339 24.8263 559.4
-110.524 25.3702 560.335
-110.616 25.8942 560.803
-110.616 26.397 560.803
-110.616 26.8998 560.803
-110.616 27.4026 560.803
-110.709 27.9288 561.272
-110.709 28.432 561.272
-110.709 28.9352 561.272
-110.709 29.4384 561.272
-110.616 29.9166 560.803
-110.616 30.4194 560.803
-110.524 30.8964 560.335
-110.339 31.3464 559.4
-110.431 31.8745 559.867
-110.431 32.3765 559.867
-110.431 32.8784 559.867
-110.431 33.3804 559.867
-110.431 33.8823 559.867
-110.431 34.3843 559.867
-110.524 34.9154 560.335
-110.524 35.4178 560.335
-110.524 35.9202 560.335
-110.524 36.4226 560.335
-110.616 36.9558 560.803
-110.616 37.4586 560.803
-110.524 37.9297 560.335
-110.524 38.4321 560.335
-110.431 38.902 559.867
-110.524 39.4368 560.335
-110.247 39.8394 558.934
-109.79 40.1731 556.615
-109.517 40.5711 555.232
-109.336 41.0011 554.314
-109.246 41.4638 553.857
-109.246 41.9603 553.857
-109.246 42.4569 553.857
-109.246 42.9535 553.857
-109.246 43.4501 553.857
-109.246 43.9466 553.857
-109.246 44.4432 553.857
-109.246 44.9398 553.857
-109.246 45.4363 553.857
-109.246 45.9329 553.857
-109.246 46.4295 553.857
-109.156 46.8873 553.4
-108.44 51.0161 549.771
-109.156 51.849 553.4
-109.156 52.3451 553.4
-108.44 52.4948 549.771
-108.44 52.9877 549.771
-108.618 53.5684 550.674
-108.44 53.9735 549.771
-108.44 54.4664 549.771
-108.529 55.0044 550.222
-108.44 55.4523 549.771
-108.351 55.8993 549.321
-108.351 56.3918 549.321
-108.262 56.8378 548.871
-108.262 57.3299 548.871
-108.262 57.822 548.871
-108.262 58.3141 548.871
-108.174 58.7581 548.422
-107.821 59.0567 546.634
-107.734 59.4983 546.189
-107.734 59.988 546.189
-107.734 60.4777 546.189
-107.734 60.9674 546.189
-107.821 61.5072 546.634
-107.821 61.9972 546.634
-107.734 62.4365 546.189
-107.734 62.9262 546.189
-107.734 63.4159 546.189
-107.821 63.9576 546.634
-107.821 64.4477 546.634
-107.909 64.9908 547.08
-108.262 65.6956 548.871
-108.262 66.1877 548.871
-108.262 66.6798 548.871
-108.086 67.0622 547.974
-107.909 67.4433 547.08
-108.086 68.0448 547.974
-108.086 68.5361 547.974
-108.086 69.0274 547.974
-108.086 69.5187 547.974
-108.086 70.01 547.974
-108.086 70.5013 547.974
-108.086 71.4839 547.974
-107.734 71.7407 546.189
-108.086 72.4665 547.974
-108.086 72.9578 547.974
-108.262 73.5693 548.871
-108.351 74.122 549.321
-108.44 74.6757 549.771
-108.618 75.292 550.674
-108.797 75.9104 551.579
-109.156 76.6571 553.4
-109.156 77.1533 553.4
-108.797 77.394 551.579
-108.797 77.8885 551.579
-108.976 78.5122 552.488
-109.156 79.1379 553.4
-108.797 79.3721 551.579
-109.156 80.1302 553.4
-109.156 80.6264 553.4
-116.751 -41.8492 594.61
-116.751 -41.3161 594.61
-116.545 -40.7108 593.558
-116.442 -40.1431 593.033
-116.545 -39.6465 593.558
-116.545 -39.1143 593.558
-116.648 -38.6163 594.084
-110.855 4.30258 564.579
-110.855 5.31495 564.579
-110.855 5.82114 564.579
-110.855 6.32732 564.579
-110.948 6.83927 565.055
-110.948 7.34588 565.055
-111.042 7.85911 565.532
-111.042 8.36615 565.532
-111.135 8.88068 566.009
-111.229 9.39608 566.487
-111.417 9.92073 567.445
-111.417 10.4295 567.445
-111.417 10.9382 567.445
-111.417 11.447 567.445
-111.512 11.9659 567.926
-111.512 12.4751 567.926
-111.512 12.9842 567.926
-111.417 13.482 567.445
-111.229 13.9671 566.487
-111.042 14.4506 565.532
-110.855 14.9325 564.579
-110.021 15.3226 560.335
-110.021 15.825 560.335
-110.021 16.3274 560.335
-110.021 16.8297 560.335
-110.205 17.8643 561.272
-110.205 18.3676 561.272
-110.205 18.8708 561.272
-110.205 19.374 561.272
-110.113 19.8606 560.803
-110.113 20.3634 560.803
-109.838 24.8263 559.4
-110.021 25.3702 560.335
-110.021 25.8726 560.335
-110.113 26.397 560.803
-110.113 26.8998 560.803
-110.113 27.4026 560.803
-110.113 27.9054 560.803
-110.205 28.432 561.272
-110.205 28.9352 561.272
-110.113 29.4138 560.803
-110.113 29.9166 560.803
-110.021 30.394 560.335
-109.929 30.8706 559.867
-109.838 31.3464 559.4
-109.929 31.8745 559.867
-109.929 32.3765 559.867
-109.929 32.8784 559.867
-109.929 33.3804 559.867
-109.929 33.8823 559.867
-109.929 34.3843 559.867
-110.021 34.9154 560.335
-110.021 35.4178 560.335
-110.021 35.9202 560.335
-110.021 36.4226 560.335
-110.021 36.9249 560.335
-110.021 37.4273 560.335
-110.021 37.9297 560.335
-109.929 38.4 559.867
-109.838 38.8695 559.4
-109.838 39.371 559.4
-109.746 39.8394 558.934
-109.291 40.1731 556.615
-109.019 40.5711 555.232
-108.839 41.0011 554.314
-108.839 41.498 554.314
-108.749 41.9603 553.857
-108.839 42.492 554.314
-108.839 42.989 554.314
-108.839 43.486 554.314
-108.839 43.983 554.314
-108.839 44.4799 554.314
-108.839 44.9769 554.314
-108.839 45.4739 554.314
-108.839 45.9709 554.314
-108.839 46.4679 554.314
-107.859 57.8694 549.321
-107.859 58.3619 549.321
-107.77 58.8062 548.871
-107.594 59.2014 547.974
-107.594 59.6927 547.974
-107.594 60.184 547.974
-107.506 60.6258 547.527
-107.594 61.1666 547.974
-107.682 61.7083 548.422
-107.594 62.1492 547.974
-107.594 62.6405 547.974
-107.594 63.1318 547.974
-107.594 63.6231 547.974
-107.77 64.2193 548.871
-107.859 64.7644 549.321
-107.859 65.2569 549.321
-108.036 65.8573 550.222
-108.036 66.3506 550.222
-108.036 66.8439 550.222
-108.036 67.3372 550.222
-107.947 67.775 549.771
-107.947 68.2679 549.771
-107.947 68.7608 549.771
-107.947 69.2537 549.771
-107.947 69.7466 549.771
-107.947 70.2395 549.771
-107.77 70.6167 548.871
-107.594 70.9926 547.974
-107.594 71.4839 547.974
-107.594 71.9752 547.974
-107.947 72.7041 549.771
-107.594 72.9578 547.974
-107.947 73.6899 549.771
-107.947 74.1828 549.771
-108.124 74.7983 550.674
-107.947 75.1686 549.771
-107.947 75.6615 549.771
-107.947 76.1544 549.771
-107.947 76.6473 549.771
-107.947 77.1402 549.771
-108.302 77.8885 551.579
-108.124 78.2543 550.674
-108.481 79.0075 552.488
-108.302 79.3721 551.579
-108.302 79.8666 551.579
-116.218 -41.8492 594.61
-116.321 -41.3527 595.138
-116.115 -40.7468 594.084
-116.012 -40.1786 593.558
-116.115 -39.6816 594.084
-116.115 -39.1489 594.084
-116.012 -38.5821 593.558
-115.91 -38.0163 593.033
-110.349 5.82114 564.579
-110.349 6.32732 564.579
-110.441 6.83927 565.055
-110.441 7.34588 565.055
-110.535 7.85911 565.532
-110.535 8.36615 565.532
-110.628 8.88068 566.009
-110.721 9.39608 566.487
-110.909 9.92073 567.445
-110.909 10.4295 567.445
-110.909 10.9382 567.445
-110.909 11.447 567.445
-111.003 11.9659 567.926
-111.003 12.4751 567.926
-111.003 12.9842 567.926
-110.909 13.482 567.445
-110.909 13.9908 567.445
-110.721 14.475 566.487
-110.441 14.9451 565.055
-109.519 15.3226 560.335
-109.427 15.8118 559.867
-109.427 16.3137 559.867
-109.427 16.8157 559.867
-109.519 17.3321 560.335
-109.519 17.8345 560.335
-109.61 18.3522 560.803
-109.61 18.855 560.803
-109.61 19.3578 560.803
-109.519 19.844 560.335
-109.519 20.3464 560.335
-109.427 24.8471 559.867
-109.519 25.3702 560.335
-109.61 25.8942 560.803
-109.61 26.397 560.803
-109.61 26.8998 560.803
-109.61 27.4026 560.803
-109.61 27.9054 560.803
-109.61 28.4082 560.803
-109.61 28.911 560.803
-109.702 29.4384 561.272
-109.61 29.9166 560.803
-109.519 30.394 560.335
-109.427 30.8706 559.867
-109.245 31.3202 558.934
-109.336 31.8479 559.4
-109.427 32.3765 559.867
-109.427 32.8784 559.867
-109.427 33.3804 559.867
-109.336 33.8541 559.4
