ply
format ascii 1.0
element vertex 1914
property float x
property float y
property float z
end_header
-48.4232 191.722 628.015
-48.4232 192.285 628.015
-48.4232 193.974 628.015
-48.4686 196.974 628.604
-48.7887 200.544 632.755
-48.7427 202.622 632.159
-48.7427 203.189 632.159
-49.1597 205.499 637.567
-48.7887 204.515 632.755
-48.9735 206.998 635.152
-48.6053 206.007 630.376
-48.4232 205.799 628.015
-48.0632 204.827 623.346
-48.0632 205.945 623.346
-48.0632 206.504 623.346
-48.0632 207.063 623.346
-48.2425 208.397 625.672
-48.4232 209.74 628.015
-48.4232 210.303 628.015
-48.3327 210.472 626.842
-48.3327 211.034 626.842
-48.4686 212.191 628.604
-48.4232 212.555 628.015
-48.4232 213.118 628.015
-48.4686 213.882 628.604
-48.4232 214.245 628.015
-48.4686 215.009 628.604
-48.4686 215.573 628.604
-48.5141 216.339 629.194
-48.5141 216.903 629.194
-48.5141 217.467 629.194
-48.6053 218.441 630.376
-48.6968 219.985 631.564
-48.6968 220.551 631.564
-48.7887 221.535 632.755
-48.7887 222.102 632.755
-48.7887 222.669 632.755
-48.7887 223.237 632.755
-48.7887 223.804 632.755
-48.7427 224.16 632.159
-48.7427 224.726 632.159
-48.7887 225.506 632.755
-48.7887 226.073 632.755
-48.7427 226.427 632.159
-48.5141 231.57 629.194
-48.5141 232.134 629.194
-48.6053 233.136 630.376
-48.5141 233.262 629.194
-48.6968 236.406 631.564
-48.7887 237.419 632.755
-48.7427 237.762 632.159
-48.6053 240.483 630.376
-47.8154 -211.231 627.428
-47.8602 -210.866 628.015
-47.8602 -210.303 628.015
-47.905 -209.937 628.604
-47.8602 -209.177 628.015
-47.95 -209.005 629.194
-48.0853 -209.03 630.969
-48.1306 -208.66 631.564
-48.1759 -208.29 632.159
-48.1759 -207.723 632.159
-48.1759 -207.156 632.159
-48.1759 -206.59 632.159
-48.1759 -206.023 632.159
-48.6343 -203.406 638.174
-48.6806 -203.027 638.781
-48.6806 -202.454 638.781
-48.6806 -201.881 638.781
-48.6806 -201.309 638.781
-48.6806 -200.736 638.781
-48.6806 -200.163 638.781
-48.727 -199.781 639.39
-48.7735 -199.398 640
-48.8201 -199.014 640.612
-48.8201 -198.439 640.612
-48.8201 -197.865 640.612
-48.8201 -197.291 640.612
-48.8668 -196.904 641.224
-48.8668 -196.329 641.224
-48.9135 -195.942 641.838
-48.9135 -195.366 641.838
-48.9604 -194.978 642.452
-49.0073 -194.588 643.068
-49.0073 -194.011 643.068
-49.0073 -193.435 643.068
-49.0073 -192.858 643.068
-49.0544 -192.466 643.686
-49.0544 -191.889 643.686
-49.1015 -191.496 644.304
-49.1015 -190.918 644.304
-49.1487 -190.523 644.923
-49.196 -190.128 645.544
-49.1015 -189.185 644.304
-49.1487 -188.789 644.923
-49.196 -188.392 645.544
-49.196 -187.813 645.544
-49.1015 -186.874 644.304
-49.0544 -186.118 643.686
-49.0073 -185.363 643.068
-48.9604 -184.609 642.452
-48.9604 -184.033 642.452
-48.8668 -183.107 641.224
-48.9135 -182.706 641.838
-48.9135 -182.131 641.838
-48.8668 -181.382 641.224
-49.2909 -180.637 646.789
-49.3861 -180.405 648.039
-49.4339 -179.998 648.666
-49.5777 -179.938 650.553
-49.6259 -179.529 651.185
-49.6259 -178.945 651.185
-49.6259 -178.361 651.185
-49.6741 -177.95 651.818
-49.6741 -177.366 651.818
-49.6259 -176.61 651.185
-49.6741 -176.197 651.818
-49.6741 -175.613 651.818
-49.6741 -175.028 651.818
-49.6741 -174.444 651.818
-49.4339 -173.019 648.666
-49.6259 -173.107 651.185
-49.6741 -172.691 651.818
-49.7708 -172.441 653.087
-49.7708 -171.856 653.087
-49.7708 -171.27 653.087
-49.7708 -170.685 653.087
-49.7708 -170.099 653.087
-49.868 -169.844 654.361
-50.0633 -169.921 656.925
-50.0633 -169.332 656.925
-50.1124 -168.908 657.569
-50.1124 -168.319 657.569
-50.1124 -167.729 657.569
-50.1124 -167.14 657.569
-50.1124 -166.55 657.569
-50.1124 -165.96 657.569
-50.1124 -165.371 657.569
-50.1124 -164.781 657.569
-50.1124 -164.192 657.569
-50.0633 -163.442 656.925
-61.0689 25.5052 801.339
-60.7062 26.068 796.58
-60.5624 26.7187 794.692
-60.4907 27.3987 793.752
-60.4192 28.0772 792.814
-60.4192 28.788 792.814
-60.2767 29.4292 790.944
-60.1349 30.0674 789.083
-60.1349 30.7749 789.083
-59.9937 31.4085 787.231
-59.9234 32.0766 786.308
-59.8532 32.7432 785.387
-59.8532 33.4474 785.387
-59.7832 34.1116 784.468
-59.6437 34.7337 782.638
-59.5048 35.3529 780.815
-59.4356 36.011 779.907
-59.4356 36.7102 779.907
-59.3666 37.366 779.002
-59.2977 38.0203 778.098
-59.229 38.6731 777.196
-59.1605 39.3243 776.297
-59.0921 39.9741 775.399
-58.9558 40.5754 773.611
-58.8878 41.2215 772.719
-58.8201 41.8661 771.83
-58.8201 42.5581 771.83
-58.7525 43.2003 770.943
-58.6177 43.7909 769.175
-58.5506 44.4296 768.294
-58.4167 45.0153 766.538
-58.4167 45.7025 766.538
-58.3501 46.3368 765.663
-58.3501 47.0233 765.663
-58.2171 47.6011 763.918
-58.0848 48.1762 762.182
-58.0848 48.8596 762.182
-58.0848 49.5429 762.182
-58.0848 50.2263 762.182
-58.0848 50.9096 762.182
-58.0848 51.593 762.182
-58.0848 52.2763 762.182
-57.822 52.7201 758.734
-55.9241 60.2007 733.83
-55.5594 63.7299 729.044
-55.5594 64.3835 729.044
-55.3189 64.7556 725.888
-55.0804 65.1245 722.759
-55.0804 65.7725 722.759
-54.962 66.2777 721.205
-55.0804 67.0685 722.759
-55.0804 67.7165 722.759
-54.962 68.2175 721.205
-54.903 68.7902 720.43
-54.903 69.4361 720.43
-54.844 70.0068 719.657
-53.9184 72.6313 707.511
-54.1469 73.576 710.509
-54.2618 76.2858 712.017
-54.2618 76.9241 712.017
-54.2618 77.5625 712.017
-54.2618 78.2009 712.017
-50.3097 102.691 660.158
-50.1124 102.878 657.569
-50.2109 105.443 658.861
-50.1124 105.826 657.569
-49.9167 105.999 655
-50.0143 106.795 656.282
-49.9167 107.174 655
-49.9167 107.761 655
-50.0143 108.561 656.282
-50.1124 110.542 657.569
-50.1124 111.132 657.569
-48.404 116.454 635.152
-48.5881 117.469 637.567
-48.5881 119.184 637.567
-48.5881 120.327 637.567
-48.9604 121.825 642.452
-49.1487 124.028 644.923
-49.1487 124.606 644.923
-49.1487 125.185 644.923
-49.1487 125.763 644.923
-47.8602 128.659 628.015
-47.7707 128.981 626.842
-47.7707 129.543 626.842
-47.6816 129.862 625.672
-47.6371 130.302 625.089
-47.7261 131.106 626.256
-47.7261 131.668 626.256
-47.7261 132.229 626.256
-47.7261 132.791 626.256
-47.7707 133.477 626.842
-47.6816 133.789 625.672
-47.5928 134.1 624.507
-47.5928 134.66 624.507
-47.5928 141.379 624.507
-47.5928 141.938 624.507
-47.5485 142.366 623.926
-47.5043 142.792 623.346
-47.5043 143.351 623.346
-47.4162 143.643 622.19
-47.4162 144.201 622.19
-47.5043 145.028 623.346
-47.3284 145.048 621.037
-47.3284 145.604 621.037
-47.1537 145.622 618.746
-47.1537 146.177 618.746
-47.1537 146.731 618.746
-47.3284 147.832 621.037
-47.3284 148.388 621.037
-47.5043 149.499 623.346
-47.5043 150.058 623.346
-47.5043 152.852 623.346
-47.5043 153.411 623.346
-47.3284 153.4 621.037
-47.5043 154.529 623.346
-47.5043 155.088 623.346
-47.5043 155.647 623.346
-47.5043 156.205 623.346
-47.6816 157.349 625.672
-47.8602 158.502 628.015
-47.6816 158.471 625.672
-47.8602 159.628 628.015
-47.7707 159.891 626.842
-47.8154 160.603 627.428
-47.8154 161.166 627.428
-47.8602 161.88 628.015
-47.905 162.595 628.604
-47.8602 163.006 628.015
-47.8602 163.569 628.015
-47.8602 164.132 628.015
-47.8602 164.695 628.015
-47.8154 165.104 627.428
-47.8602 165.821 628.015
-47.8602 166.384 628.015
-47.8602 166.947 628.015
-47.8154 167.354 627.428
-47.8154 167.916 627.428
-47.8154 168.479 627.428
-47.8154 169.041 627.428
-47.8154 169.604 627.428
-47.8154 170.167 627.428
-47.8154 170.729 627.428
-47.8154 171.292 627.428
-47.8154 171.854 627.428
-47.8602 172.578 628.015
-47.8602 173.141 628.015
-47.905 173.867 628.604
-47.905 174.431 628.604
-47.905 174.994 628.604
-47.8602 175.393 628.015
-47.8602 175.956 628.015
-47.8602 176.52 628.015
-47.8602 177.083 628.015
-47.8602 177.646 628.015
-47.95 178.543 629.194
-47.8602 178.772 628.015
-47.7707 179 626.842
-47.7707 179.562 626.842
-47.8602 180.461 628.015
-47.95 181.364 629.194
-47.95 181.928 629.194
-47.95 182.492 629.194
-47.95 183.056 629.194
-48.0401 183.965 630.376
-47.95 184.184 629.194
-48.0401 185.096 630.376
-47.95 185.312 629.194
-47.95 185.877 629.194
-47.95 186.441 629.194
-47.8602 186.655 628.015
-47.8602 187.218 628.015
-47.8602 187.781 628.015
-47.8602 188.344 628.015
-47.8602 188.907 628.015
-47.8602 191.722 628.015
-47.8602 192.285 628.015
-47.8602 193.974 628.015
-47.8602 194.537 628.015
-47.8602 196.227 628.015
-47.905 196.974 628.604
-48.2214 202.813 632.755
-48.1759 203.189 632.159
-48.2214 204.515 632.755
-48.404 205.859 635.152
-48.2214 205.65 632.755
-48.2214 206.217 632.755
-48.0401 206.007 630.376
-47.8602 205.799 628.015
-47.5043 204.827 623.346
-47.6816 206.714 625.672
-47.3284 205.739 621.037
-47.5043 207.063 623.346
-47.5043 207.622 623.346
-47.6816 208.958 625.672
-47.6816 209.518 625.672
-47.8602 210.866 628.015
-47.8602 211.429 628.015
-47.8602 211.992 628.015
-47.8602 212.555 628.015
-47.905 213.318 628.604
-47.905 213.882 628.604
-47.8602 214.245 628.015
-47.905 215.009 628.604
-47.905 215.573 628.604
-47.95 216.339 629.194
-48.1306 217.72 631.564
-48.1306 218.286 631.564
-48.0401 218.441 630.376
-48.2214 220.4 632.755
-48.2214 220.967 632.755
-48.2214 221.535 632.755
-48.2214 222.102 632.755
-48.2214 222.669 632.755
-48.3125 223.659 633.951
-48.2214 223.804 632.755
-48.2214 224.371 632.755
-48.1759 224.726 632.159
-48.2214 225.506 632.755
-48.1759 225.86 632.159
-48.1759 226.427 632.159
-48.1306 233.009 631.564
-48.1306 233.575 631.564
-48.0853 233.921 630.969
-48.1759 234.928 632.159
-48.1759 236.062 632.159
-48.2214 236.852 632.755
-48.2214 237.419 632.755
-48.2214 237.987 632.755
-48.1759 238.329 632.159
-48.0853 240.709 630.969
-48.1306 241.502 631.564
-48.0853 241.841 630.969
-47.2971 -211.429 628.015
-47.2971 -210.866 628.015
-47.3414 -210.5 628.604
-47.3414 -209.937 628.604
-47.3414 -209.373 628.604
-47.3858 -209.005 629.194
-47.5196 -209.03 630.969
-47.5196 -208.464 630.969
-47.5643 -208.094 631.564
-47.6091 -207.723 632.159
-47.6091 -207.156 632.159
-47.5643 -206.395 631.564
-48.1079 -203.027 638.781
-48.1538 -202.647 639.39
-48.1538 -202.074 639.39
-48.1538 -201.501 639.39
-48.1538 -200.927 639.39
-48.1997 -200.545 640
-48.2458 -200.162 640.612
-48.2919 -199.779 641.224
-48.3381 -199.395 641.838
-48.3381 -198.819 641.838
-48.2919 -198.054 641.224
-48.2919 -197.479 641.224
-48.3381 -197.093 641.838
-48.2919 -196.329 641.224
-48.3381 -195.942 641.838
-48.3381 -195.366 641.838
-48.3844 -194.978 642.452
-48.4308 -194.588 643.068
-48.4308 -194.011 643.068
-48.4308 -193.435 643.068
-48.4308 -192.858 643.068
-48.4308 -192.282 643.068
-48.4773 -191.889 643.686
-48.4773 -191.312 643.686
-48.4773 -190.735 643.686
-48.5238 -190.34 644.304
-48.5705 -189.945 644.923
-48.5238 -189.185 644.304
-48.5238 -188.607 644.304
-48.5238 -188.03 644.304
-48.5238 -187.452 644.304
-48.5238 -186.874 644.304
-48.4773 -186.118 643.686
-48.4773 -185.541 643.686
-48.3844 -184.609 642.452
-48.3844 -184.033 642.452
-48.3381 -183.282 641.838
-48.3381 -182.706 641.838
-48.2919 -181.957 641.224
-48.0621 -180.519 638.174
-48.758 -180.811 647.414
-48.8523 -180.579 648.666
-48.9945 -180.521 650.553
-49.042 -180.113 651.185
-49.0897 -179.703 651.818
-49.0897 -179.119 651.818
-49.0897 -178.535 651.818
-49.0897 -177.95 651.818
-49.0897 -177.366 651.818
-49.0897 -176.781 651.818
-49.0897 -176.197 651.818
-49.0897 -175.613 651.818
-49.0897 -175.028 651.818
-49.042 -174.274 651.185
-48.8996 -173.186 649.294
-48.9945 -172.939 650.553
-49.042 -172.523 651.185
-49.1375 -172.274 652.452
-49.1375 -171.689 652.452
-49.1375 -171.104 652.452
-49.1375 -170.519 652.452
-49.1853 -170.099 653.087
-49.2813 -169.844 654.361
-49.4743 -169.921 656.925
-49.5229 -169.498 657.569
-49.5714 -169.074 658.214
-49.5714 -168.484 658.214
-49.5229 -167.729 657.569
-49.5229 -167.14 657.569
-49.5229 -166.55 657.569
-49.5229 -165.96 657.569
-49.5229 -165.371 657.569
-49.5229 -164.781 657.569
-49.4743 -164.031 656.925
-49.4743 -163.442 656.925
-49.5229 -163.013 657.569
-60.4226 25.5357 802.297
-60.1349 26.13 798.477
-59.8499 26.7187 794.692
-59.7791 27.3987 793.752
-59.7791 28.1104 793.752
-59.7084 28.788 792.814
-59.5676 29.4292 790.944
-59.4974 30.1029 790.012
-59.3576 30.7387 788.156
-59.2879 31.4085 787.231
-59.2184 32.0766 786.308
-59.1491 32.7432 785.387
-59.0799 33.4083 784.468
-59.0799 34.1116 784.468
-58.942 34.7337 782.638
-58.8048 35.3529 780.815
-58.7364 36.011 779.907
-58.7364 36.7102 779.907
-58.6682 37.366 779.002
-58.6001 38.0203 778.098
-58.5322 38.6731 777.196
-58.4645 39.3243 776.297
-58.4645 40.0203 776.297
-58.2622 40.5754 773.611
-58.195 41.2215 772.719
-58.1281 41.8661 771.83
-58.0613 42.5091 770.943
-57.9281 43.1013 769.175
-57.9281 43.7909 769.175
-57.9281 44.4805 769.175
-57.9281 45.1701 769.175
-57.7295 45.7025 766.538
-57.7295 46.3898 766.538
-57.6636 47.0233 765.663
-57.6636 47.7098 765.663
-57.6636 48.3962 765.663
-57.6636 49.0827 765.663
-57.2713 49.4306 760.454
-57.1417 49.999 758.734
-57.1417 50.6793 758.734
-57.1417 51.3595 758.734
-54.9058 53.2717 729.044
-54.9058 53.9253 729.044
-55.1455 54.8173 732.228
-54.9058 55.2326 729.044
-54.9058 55.8862 729.044
-54.9058 56.5399 729.044
-55.0254 57.3181 730.632
-55.0854 58.0364 731.429
-55.0854 58.6922 731.429
-55.0254 59.2833 730.632
-55.0854 60.0037 731.429
-55.0254 61.9036 730.632
-54.9058 62.4226 729.044
-55.0254 63.2137 730.632
-54.9058 63.7299 729.044
-54.4324 63.8285 722.759
-54.6681 64.7556 725.888
-54.1988 64.845 719.657
-54.4324 65.7725 722.759
-54.3154 66.2777 721.205
-54.4324 67.0685 722.759
-54.1988 67.4259 719.657
-54.3154 68.2175 721.205
-54.3154 68.8641 721.205
-54.3154 69.5107 721.205
-54.1988 70.0068 719.657
-53.5099 72.939 710.509
-53.6804 76.3668 712.774
-53.6804 77.0059 712.774
-53.7376 77.7275 713.532
-53.7376 78.3673 713.532
-49.7178 102.691 660.158
-49.3294 102.476 655
-49.9143 104.285 662.767
-49.9143 104.88 662.767
-49.7178 105.058 660.158
-49.5229 105.236 657.569
-49.5229 105.826 657.569
-49.4259 106.207 656.282
-49.3294 106.587 655
-49.2332 106.965 653.724
-49.3294 107.761 655
-48.0164 118.612 637.567
-48.0164 119.184 637.567
-48.0164 119.755 637.567
-48.0164 120.327 637.567
-48.3844 121.825 642.452
-48.3844 122.401 642.452
-48.3844 122.977 642.452
-48.3844 123.553 642.452
-48.3844 124.129 642.452
-48.758 125.668 647.414
-47.2971 129.222 628.015
-47.2971 129.785 628.015
-47.2529 130.227 627.428
-47.1646 130.545 626.256
-47.2529 131.352 627.428
-47.2529 131.914 627.428
-47.2529 132.477 627.428
-47.2971 133.164 628.015
-47.4749 134.23 630.376
-47.1206 142.203 625.672
-46.9454 142.234 623.346
-46.9454 142.792 623.346
-46.9454 143.351 623.346
-46.8583 143.643 622.19
-46.7716 143.934 621.037
-46.7716 144.491 621.037
-46.7716 145.048 621.037
-46.7716 145.604 621.037
-46.599 145.622 618.746
-46.7716 146.718 621.037
-46.7716 147.275 621.037
-46.7716 147.832 621.037
-46.7716 148.388 621.037
-46.7716 148.945 621.037
-46.9454 150.058 623.346
-46.9454 150.617 623.346
-47.0329 153.697 624.507
-46.9454 153.97 623.346
-46.9454 154.529 623.346
-47.0329 155.376 624.507
-47.0329 155.936 624.507
-47.0329 156.496 624.507
-47.1206 157.349 625.672
-47.2087 158.205 626.842
-47.1206 158.471 625.672
-47.2971 159.628 628.015
-47.1206 159.593 625.672
-47.2087 160.453 626.842
-47.2529 161.166 627.428
-47.2971 161.88 628.015
-47.2971 162.443 628.015
-47.3858 163.312 629.194
-47.3414 163.722 628.604
-47.2971 164.132 628.015
-47.2971 164.695 628.015
-47.2971 165.258 628.015
-47.2971 165.821 628.015
-47.2971 166.384 628.015
-47.2971 166.947 628.015
-47.2529 167.354 627.428
-47.2529 167.916 627.428
-47.2529 168.479 627.428
-47.2971 169.2 628.015
-47.2971 169.763 628.015
-47.2529 170.167 627.428
-47.2529 170.729 627.428
-47.2971 171.452 628.015
-47.2971 172.015 628.015
-47.2971 172.578 628.015
-47.3414 173.303 628.604
-47.2971 173.704 628.015
-47.3414 174.431 628.604
-47.2971 174.83 628.015
-47.2971 175.393 628.015
-47.3414 176.121 628.604
-47.3414 176.685 628.604
-47.3414 177.249 628.604
-47.3414 177.812 628.604
-47.2971 178.209 628.015
-47.2971 178.772 628.015
-47.2529 179.167 627.428
-47.2971 179.898 628.015
-47.2529 180.292 627.428
-47.3858 181.364 629.194
-47.3858 181.928 629.194
-47.4749 182.835 630.376
-47.4749 183.4 630.376
-47.4749 183.965 630.376
-47.4749 184.53 630.376
-47.4749 185.096 630.376
-47.4749 185.661 630.376
-47.3858 185.877 629.194
-47.3858 186.441 629.194
-47.3858 187.005 629.194
-47.2971 187.218 628.015
-47.2971 187.781 628.015
-47.2971 191.159 628.015
-47.3414 194.156 628.604
-47.2971 194.537 628.015
-47.2971 195.101 628.015
-47.3858 196.595 629.194
-47.3858 197.159 629.194
-47.6541 203.381 632.755
-47.7441 204.902 633.951
-47.8346 205.859 635.152
-47.7441 206.039 633.951
-47.6541 206.217 632.755
-47.6541 206.785 632.755
-47.2971 205.799 628.015
-46.9454 204.827 623.346
-46.9454 205.386 623.346
-47.0329 206.329 624.507
-47.1206 207.275 625.672
-46.9454 207.063 623.346
-47.0329 208.008 624.507
-47.1206 208.958 625.672
-47.2087 209.91 626.842
-47.2087 210.472 626.842
-47.2971 211.429 628.015
-47.2971 211.992 628.015
-47.2971 212.555 628.015
-47.2529 212.919 627.428
-47.2971 213.682 628.015
-47.2971 214.245 628.015
-47.2529 214.607 627.428
-47.2971 215.371 628.015
-47.3858 216.339 629.194
-47.4749 217.311 630.376
-47.4749 217.876 630.376
-47.6991 221.176 633.353
-47.6991 221.744 633.353
-47.6991 222.312 633.353
-47.7441 223.09 633.951
-47.7441 223.659 633.951
-47.7441 224.227 633.951
-47.5643 223.949 631.564
-47.6541 224.938 632.755
-47.6541 225.506 632.755
-47.6541 226.073 632.755
-47.6541 226.64 632.755
-47.6091 233.795 632.159
-47.6091 234.362 632.159
-47.6541 235.15 632.755
-47.6541 235.717 632.755
-47.7441 236.731 633.951
-47.8346 237.749 635.152
-47.9253 238.771 636.357
-47.8346 238.888 635.152
-47.8346 239.458 635.152
-47.6091 241.163 632.159
-47.6091 241.73 632.159
-47.5196 241.841 630.969
-46.734 -211.429 628.015
-46.7778 -211.064 628.604
-46.7778 -210.5 628.604
-46.8217 -210.134 629.194
-46.8217 -209.57 629.194
-46.9097 -209.398 630.376
-47.0424 -209.424 632.159
-47.0424 -208.857 632.159
-47.0424 -208.29 632.159
-47.0867 -207.919 632.755
-47.0867 -207.352 632.755
-47.0424 -206.59 632.159
-47.0424 -206.023 632.159
-46.9981 -205.263 631.564
-47.5352 -203.027 638.781
-47.5805 -202.647 639.39
-47.5805 -202.074 639.39
-47.5805 -201.501 639.39
-47.6259 -201.119 640
-47.6714 -200.737 640.612
-47.7626 -200.546 641.838
-47.7626 -199.97 641.838
-47.8084 -199.586 642.452
-47.7626 -198.819 641.838
-47.7626 -198.244 641.838
-47.7626 -197.668 641.838
-47.7626 -197.093 641.838
-47.7626 -196.517 641.838
-47.7626 -195.942 641.838
-47.7626 -195.366 641.838
-47.8084 -194.978 642.452
-47.8084 -194.402 642.452
-47.8084 -193.826 642.452
-47.8084 -193.25 642.452
-47.8542 -192.858 643.068
-47.8542 -192.282 643.068
-47.9001 -191.889 643.686
-47.9001 -191.312 643.686
-47.9001 -190.735 643.686
-47.9462 -190.34 644.304
-47.9462 -189.763 644.304
-47.9462 -189.185 644.304
-47.9462 -188.607 644.304
-47.9923 -188.211 644.923
-47.9462 -187.452 644.304
-47.9001 -186.695 643.686
-47.9001 -186.118 643.686
-47.9462 -185.719 644.304
-47.8542 -184.786 643.068
-47.8084 -184.033 642.452
-47.8084 -183.457 642.452
-47.7626 -182.706 641.838
-47.717 -181.957 641.224
-47.6259 -181.036 640
-47.7626 -179.254 641.838
-48.2707 -180.579 648.666
-48.4582 -180.697 651.185
-48.5053 -180.288 651.818
-48.5053 -179.703 651.818
-48.5053 -179.119 651.818
-48.5053 -178.535 651.818
-48.5525 -178.123 652.452
-48.5053 -177.366 651.818
-48.5053 -176.781 651.818
-48.5053 -176.197 651.818
-48.5525 -175.783 652.452
-48.5053 -175.028 651.818
-48.5053 -174.444 651.818
-48.3175 -173.186 649.294
-48.4112 -172.939 650.553
-48.5053 -172.691 651.818
-48.5525 -172.274 652.452
-48.5525 -171.689 652.452
-48.5525 -171.104 652.452
-48.5525 -170.519 652.452
-48.5525 -169.934 652.452
-48.6471 -169.679 653.724
-48.8854 -169.921 656.925
-48.9333 -169.498 657.569
-48.9813 -169.074 658.214
-48.9813 -168.484 658.214
-48.9813 -167.894 658.214
-48.9333 -167.14 657.569
-48.9333 -166.55 657.569
-48.9333 -165.96 657.569
-48.9333 -165.371 657.569
-48.9333 -164.781 657.569
-48.9333 -164.192 657.569
-48.8854 -163.442 656.925
-48.9333 -163.013 657.569
-58.5821 20.8214 787.231
-59.0674 22.4171 793.752
-59.1374 23.1562 794.692
-59.1374 23.8687 794.692
-59.1374 26.0062 794.692
-59.0674 26.6871 793.752
-59.0674 27.3987 793.752
-58.9976 28.0772 792.814
-58.9976 28.788 792.814
-58.8584 29.4292 790.944
-58.7891 30.1029 790.012
-58.7199 30.7749 789.083
-58.6509 31.4454 788.156
-58.5134 32.0766 786.308
-58.3766 32.7049 784.468
-58.3766 33.4083 784.468
-58.3766 34.1116 784.468
-58.1724 34.6932 781.725
-58.1047 35.3529 780.815
-58.1047 36.0529 780.815
-58.0372 36.7102 779.907
-58.0372 37.4095 779.907
-57.9697 38.0645 779.002
-57.9697 38.7629 779.002
-58.0372 39.5072 779.907
-57.9697 40.1598 779.002
-57.7685 40.7163 776.297
-54.728 51.1015 735.439
-54.728 51.7608 735.439
-54.728 52.4202 735.439
-54.489 54.1608 732.228
-54.489 54.8173 732.228
-54.3703 55.3529 730.632
-54.489 56.7868 732.228
-54.489 57.4433 732.228
-54.3703 57.9732 730.632
-54.3703 58.6282 730.632
-54.3703 59.2833 730.632
-54.489 60.0692 732.228
-54.489 60.7257 732.228
-54.2521 61.1153 729.044
-54.2521 61.769 729.044
-54.2521 62.4226 729.044
-54.3703 63.2137 730.632
-54.0173 63.454 725.888
-53.7844 63.8285 722.759
-53.7844 64.4765 722.759
-53.6688 64.9845 721.205
-53.6688 65.6311 721.205
-53.6688 66.2777 721.205
-53.6688 66.9243 721.205
-53.6688 67.5709 721.205
-53.5536 68.0711 719.657
-53.5536 68.7164 719.657
-53.5536 69.3616 719.657
-53.5536 70.0068 719.657
-53.3247 76.7748 716.582
-53.3247 77.4172 716.582
-53.3247 78.0597 716.582
-53.0978 78.3673 713.532
-49.1259 102.691 660.158
-48.7421 102.476 655
-49.3201 104.285 662.767
-49.3201 104.88 662.767
-48.9333 104.646 657.569
-48.9333 105.236 657.569
-48.8375 105.619 656.282
-48.8375 106.207 656.282
-48.8375 106.795 656.282
-48.7421 107.174 655
-48.7421 107.761 655
-47.4448 118.612 637.567
-47.4448 119.184 637.567
-47.4448 119.755 637.567
-47.4448 120.327 637.567
-47.6259 121.36 640
-47.6259 121.934 640
-47.8084 122.977 642.452
-47.8084 123.553 642.452
-47.8084 124.129 642.452
-48.1776 125.668 647.414
-46.734 129.222 628.015
-46.734 129.785 628.015
-46.734 130.349 628.015
-46.6467 130.667 626.842
-46.734 131.475 628.015
-46.734 132.038 628.015
-46.7778 132.725 628.604
-46.9097 133.664 630.376
-46.9539 134.356 630.969
-46.9539 134.922 630.969
-46.8657 135.233 629.784
-46.3866 142.234 623.346
-46.3435 142.66 622.767
-46.3866 143.351 623.346
-46.3005 143.643 622.19
-46.3005 144.201 622.19
-46.3005 144.759 622.19
-46.2148 145.048 621.037
-46.2148 145.604 621.037
-46.2148 146.161 621.037
-46.2148 146.718 621.037
-46.1293 147.003 619.889
-46.2148 147.832 621.037
-46.2148 148.388 621.037
-46.2148 148.945 621.037
-46.2148 149.502 621.037
-46.2148 150.059 621.037
-46.2148 150.616 621.037
-46.473 152.577 624.507
-46.5597 153.423 625.672
-46.5597 153.983 625.672
-46.5597 154.544 625.672
-46.5597 155.105 625.672
-46.5597 155.666 625.672
-46.6031 156.373 626.256
-46.6031 156.935 626.256
-46.6467 157.643 626.842
-46.6903 158.353 627.428
-46.6467 158.767 626.842
-46.6903 159.478 627.428
-46.6903 160.041 627.428
-46.6467 160.453 626.842
-46.6903 161.166 627.428
-46.6903 161.729 627.428
-46.734 162.443 628.015
-46.6903 162.854 627.428
-46.734 163.569 628.015
-46.734 164.132 628.015
-46.734 164.695 628.015
-46.734 165.258 628.015
-46.734 165.821 628.015
-46.7778 166.54 628.604
-46.7778 167.104 628.604
-46.7778 167.668 628.604
-46.734 168.074 628.015
-46.734 168.637 628.015
-46.7778 169.358 628.604
-46.734 169.763 628.015
-46.734 170.326 628.015
-46.734 170.889 628.015
-46.7778 171.613 628.604
-46.7778 172.176 628.604
-46.7778 172.74 628.604
-46.7778 173.303 628.604
-46.7778 173.867 628.604
-46.8217 174.594 629.194
-46.7778 174.994 628.604
-46.7778 175.558 628.604
-46.7778 176.121 628.604
-46.7778 176.685 628.604
-46.7778 177.249 628.604
-46.8217 177.979 629.194
-46.8217 178.543 629.194
-46.734 178.772 628.015
-46.734 179.335 628.015
-46.734 179.898 628.015
-46.734 180.461 628.015
-46.734 181.024 628.015
-46.7778 181.757 628.604
-46.8217 182.492 629.194
-46.7778 182.884 628.604
-46.7778 183.448 628.604
-46.8217 184.184 629.194
-46.7778 184.575 628.604
-46.7778 185.139 628.604
-46.7778 185.702 628.604
-46.7778 186.266 628.604
-46.3866 186.385 623.346
-46.3866 186.943 623.346
-46.3866 187.502 623.346
-46.734 191.159 628.015
-46.5597 191.007 625.672
-46.5597 191.568 625.672
-46.5597 192.129 625.672
-46.734 193.411 628.015
-46.734 193.974 628.015
-46.734 194.537 628.015
-46.7778 195.283 628.604
-46.734 195.664 628.015
-46.7778 196.411 628.604
-46.8217 197.159 629.194
-46.8217 197.723 629.194
-47.4448 206.071 637.567
-47.4448 206.642 637.567
-47.0867 206.217 632.755
-47.0867 206.785 632.755
-46.734 205.799 628.015
-46.3866 204.827 623.346
-46.473 206.329 624.507
-46.734 208.051 628.015
-46.5597 207.836 625.672
-46.734 209.177 628.015
-46.734 209.74 628.015
-46.734 210.303 628.015
-46.734 210.866 628.015
-46.734 211.429 628.015
-46.8217 212.39 629.194
-46.8217 212.954 629.194
-46.734 213.118 628.015
-46.7778 213.882 628.604
-46.734 214.245 628.015
-46.734 214.808 628.015
-46.8217 215.775 629.194
-46.8217 216.339 629.194
-46.9097 217.311 630.376
-46.9097 217.876 630.376
-47.0424 220.759 632.159
-47.1758 221.953 633.951
-47.0867 222.102 632.755
-47.2651 223.513 635.152
-47.0867 223.237 632.755
-47.1758 224.227 633.951
-47.0867 224.371 632.755
-47.0867 224.938 632.755
-47.0424 225.293 632.159
-47.0867 226.073 632.755
-47.0867 226.64 632.755
-47.0424 233.228 632.159
-47.0424 233.795 632.159
-47.0867 234.583 632.755
-47.2651 236.041 635.152
-47.3998 237.284 636.961
-47.3998 237.855 636.961
-47.3998 238.427 636.961
-47.3998 238.998 636.961
-47.3998 239.569 636.961
-47.3548 239.912 636.357
-47.0867 241.39 632.755
-47.0424 241.73 632.159
-46.9539 241.841 630.969
-46.9539 242.406 630.969
-46.2142 -211.627 628.604
-46.2142 -211.064 628.604
-46.2576 -210.698 629.194
-46.301 -210.331 629.784
-46.3882 -210.161 630.969
-46.4318 -209.793 631.564
-46.4756 -209.424 632.159
-46.5194 -209.054 632.755
-46.5194 -208.486 632.755
-46.5194 -207.919 632.755
-46.5194 -207.352 632.755
-46.5194 -206.785 632.755
-46.5194 -206.217 632.755
-46.5194 -205.65 632.755
-46.9625 -202.454 638.781
-46.9625 -201.881 638.781
-46.9625 -201.309 638.781
-47.0073 -200.927 639.39
-47.097 -200.737 640.612
-47.1872 -200.546 641.838
-47.1872 -199.97 641.838
-47.2324 -199.586 642.452
-47.2324 -199.01 642.452
-47.1872 -198.244 641.838
-47.1872 -197.668 641.838
-47.1872 -197.093 641.838
-47.1872 -196.517 641.838
-47.1872 -195.942 641.838
-47.1872 -195.366 641.838
-47.2324 -194.978 642.452
-47.2324 -194.402 642.452
-47.2324 -193.826 642.452
-47.2324 -193.25 642.452
-47.2324 -192.674 642.452
-47.2777 -192.282 643.068
-47.2777 -191.705 643.068
-47.2777 -191.129 643.068
-47.2777 -190.552 643.068
-47.323 -190.158 643.686
-47.323 -189.581 643.686
-47.323 -189.004 643.686
-47.3685 -188.607 644.304
-47.414 -188.211 644.923
-47.3685 -187.452 644.304
-47.3685 -186.874 644.304
-47.3685 -186.297 644.304
-47.4597 -186.077 645.544
-47.323 -184.964 643.686
-47.323 -184.387 643.686
-47.2777 -183.057 643.068
-47.2324 -182.305 642.452
-47.2324 -181.729 642.452
-47.1872 -180.98 641.838
-47.1421 -179.657 641.224
-47.2777 -179.597 643.068
-47.5512 -180.057 646.789
-47.6892 -179.998 648.666
-47.8279 -179.938 650.553
-47.9209 -179.703 651.818
-47.9209 -179.119 651.818
-47.9209 -178.535 651.818
-47.9209 -177.95 651.818
-47.9209 -177.366 651.818
-47.9209 -176.781 651.818
-47.9209 -176.197 651.818
-47.9675 -175.783 652.452
-47.9209 -175.028 651.818
-47.8279 -174.105 650.553
-47.6892 -173.019 648.666
-47.7353 -172.604 649.294
-47.7816 -172.189 649.923
-47.8744 -171.939 651.185
-47.8744 -171.355 651.185
-47.9209 -170.937 651.818
-47.9209 -170.353 651.818
-47.9209 -169.769 651.818
-47.9675 -169.349 652.452
-48.2491 -169.755 656.282
-48.3437 -169.498 657.569
-48.4387 -169.24 658.861
-48.4387 -168.649 658.861
-48.3912 -167.894 658.214
-48.3437 -167.14 657.569
-48.3437 -166.55 657.569
-48.3912 -166.123 658.214
-48.3912 -165.533 658.214
-48.3912 -164.943 658.214
-48.3437 -164.192 657.569
-48.3437 -163.602 657.569
-48.3437 -163.013 657.569
-58.1493 18.7922 790.944
-57.8763 19.4097 787.231
-57.9443 20.1392 788.156
-57.9443 20.8458 788.156
-58.0808 21.6032 790.012
-58.1493 22.3378 790.944
-58.2868 23.1015 792.814
-58.3557 23.8405 793.752
-58.5637 24.6396 796.58
-58.4249 25.2937 794.692
-58.3557 25.9754 793.752
-58.2868 26.6555 792.814
-58.3557 27.3987 793.752
-58.2868 28.0772 792.814
-58.2868 28.788 792.814
-58.2179 29.464 791.878
-58.0808 30.1029 790.012
-58.0125 30.7749 789.083
-57.9443 31.4454 788.156
-57.8084 32.0766 786.308
-57.6732 32.7049 784.468
-57.6732 33.4083 784.468
-57.6058 34.0718 783.552
-57.4716 34.6932 781.725
-57.4047 35.3529 780.815
-57.3379 36.011 779.907
-57.3379 36.7102 779.907
-57.3379 37.4095 779.907
-57.3379 38.1087 779.907
-57.2713 38.7629 779.002
-57.3379 39.5072 779.907
-57.3379 40.2065 779.907
-54.0686 49.7827 735.439
-54.0686 50.4421 735.439
-54.3068 51.3266 738.679
-54.1875 51.8746 737.055
-53.5985 53.9253 729.044
-53.5985 54.5789 729.044
-53.7153 55.3529 730.632
-53.4822 55.765 727.462
-53.5985 56.5399 729.044
-53.4822 57.0694 727.462
-53.5985 57.8471 729.044
-53.4822 58.3739 727.462
-53.5985 59.1544 729.044
-53.7153 59.9384 730.632
-53.7153 60.5934 730.632
-53.4822 60.9828 727.462
-53.4822 61.635 727.462
-53.4822 62.2872 727.462
-53.5985 63.0763 729.044
-53.3665 63.454 725.888
-52.9084 63.5546 719.657
-52.9084 64.1998 719.657
-53.0222 64.9845 721.205
-52.9084 65.4902 719.657
-52.9652 66.2065 720.43
-52.9084 66.7807 719.657
-52.9084 67.4259 719.657
-52.9084 68.0711 719.657
-52.9084 68.7164 719.657
-52.9084 69.3616 719.657
-48.5341 102.099 660.158
-48.3437 102.288 657.569
-48.5341 103.283 660.158
-48.5341 103.875 660.158
-48.7259 104.88 662.767
-48.3437 104.646 657.569
-48.3437 105.236 657.569
-48.3437 105.826 657.569
-48.3437 106.415 657.569
-48.2491 106.795 656.282
-48.3437 107.594 657.569
-48.3437 108.184 657.569
-46.7843 117.816 636.357
-46.8287 118.499 636.961
-46.8732 119.184 637.567
-46.7843 119.528 636.357
-46.8732 120.327 637.567
-47.2324 121.825 642.452
-47.2324 122.401 642.452
-47.0521 122.508 640
-47.2324 123.553 642.452
-47.2324 124.129 642.452
-47.2324 124.705 642.452
-46.3446 129.708 630.376
-46.171 129.785 628.015
-46.0847 130.105 626.842
-45.913 130.18 624.507
-46.0416 131.106 626.256
-46.171 132.038 628.015
-46.2576 132.85 629.194
-46.4318 133.916 631.564
-46.5194 134.736 632.755
-46.5194 135.303 632.755
-46.5194 135.871 632.755
-45.8703 142.366 623.926
-45.8277 142.792 623.346
-45.8277 143.351 623.346
-45.8277 143.91 623.346
-45.8277 144.469 623.346
-45.8277 145.028 623.346
-45.7427 145.317 622.19
-45.658 145.604 621.037
-45.4895 145.622 618.746
-45.4057 145.907 617.606
-45.4057 146.461 617.606
-45.4895 147.286 618.746
-45.4895 147.841 618.746
-45.4895 148.396 618.746
-45.658 149.502 621.037
-45.8277 150.617 623.346
-45.658 150.616 621.037
-45.9987 152.862 625.672
-45.913 153.137 624.507
-45.8277 153.411 623.346
-45.8703 154.113 623.926
-45.8703 154.673 623.926
-45.8703 155.232 623.926
-45.913 155.936 624.507
-45.9987 156.788 625.672
-45.9987 157.349 625.672
-45.9987 157.91 625.672
-45.9987 158.471 625.672
-46.0416 159.181 626.256
-46.0416 159.742 626.256
-46.0847 160.453 626.842
-46.0416 160.865 626.256
-46.0847 161.577 626.842
-46.0847 162.139 626.842
-46.1278 162.854 627.428
-46.1278 163.416 627.428
-46.0847 163.825 626.842
-46.0847 164.387 626.842
-46.1278 165.104 627.428
-46.171 165.821 628.015
-46.2142 166.54 628.604
-46.2142 167.104 628.604
-46.2142 167.668 628.604
-46.2142 168.231 628.604
-46.2142 168.795 628.604
-46.2142 169.358 628.604
-46.2142 169.922 628.604
-46.2142 170.485 628.604
-46.2142 171.049 628.604
-46.2142 171.613 628.604
-46.2576 172.338 629.194
-46.2576 172.902 629.194
-46.2576 173.466 629.194
-46.2576 174.03 629.194
-46.2576 174.594 629.194
-46.2576 175.158 629.194
-46.2576 175.722 629.194
-46.2576 176.287 629.194
-46.2142 176.685 628.604
-46.2576 177.415 629.194
-46.3446 178.313 630.376
-46.171 178.772 628.015
-46.171 179.335 628.015
-45.9987 179.227 625.672
-46.0847 180.124 626.842
-46.171 181.024 628.015
-46.2142 181.757 628.604
-46.171 182.15 628.015
-46.2142 182.884 628.604
-46.2576 183.62 629.194
-46.2142 184.012 628.604
-46.2142 184.575 628.604
-46.171 184.965 628.015
-46.171 185.529 628.015
-46.171 186.092 628.015
-45.9987 187.641 625.672
-45.9987 188.202 625.672
-45.8277 188.061 623.346
-45.8277 188.62 623.346
-46.171 190.596 628.015
-46.171 191.159 628.015
-46.171 191.722 628.015
-46.2142 192.465 628.604
-46.171 192.848 628.015
-46.171 193.411 628.015
-46.171 193.974 628.015
-46.2142 194.72 628.604
-46.171 195.101 628.015
-46.2142 195.847 628.604
-46.2576 196.595 629.194
-46.2576 197.159 629.194
-46.2576 197.723 629.194
-46.171 197.916 628.015
-46.3446 205.442 630.376
-46.5194 206.785 632.755
-45.9987 205.031 625.672
-45.9987 205.592 625.672
-45.9987 206.714 625.672
-45.9987 207.275 625.672
-45.9987 207.836 625.672
-46.0847 208.786 626.842
-46.171 209.74 628.015
-46.171 210.303 628.015
-46.171 210.866 628.015
-46.2142 211.627 628.604
-46.3446 212.789 630.376
-46.3882 213.555 630.969
-46.3446 213.92 630.376
-46.3882 214.687 630.969
-46.3446 215.05 630.376
-46.3882 215.818 630.969
-46.3882 216.384 630.969
-46.4318 217.154 631.564
-46.4756 217.925 632.159
-46.4756 218.492 632.159
-46.5634 221.176 633.353
-46.6956 222.374 635.152
-46.6956 222.943 635.152
-46.5194 222.669 632.755
-46.6956 224.652 635.152
-46.6074 224.795 633.951
-46.6074 225.364 633.951
-46.6074 225.932 633.951
-46.5634 226.287 633.353
-46.6074 227.069 633.951
-46.6074 227.637 633.951
-46.5194 233.448 632.755
-46.4756 233.795 632.159
-46.5194 234.583 632.755
-46.6956 236.041 635.152
-46.7843 237.059 636.357
-46.7399 237.405 635.754
-46.7399 237.975 635.754
-46.7399 238.545 635.754
-46.6956 238.888 635.152
-46.6515 239.231 634.551
-46.6515 239.8 634.551
-46.7399 240.825 635.754
-46.5194 240.823 632.755
-46.5194 241.39 632.755
-46.4756 241.73 632.159
-46.3882 241.841 630.969
-46.3446 242.179 630.376
-45.6507 -211.627 628.604
-45.6935 -211.262 629.194
-45.7364 -210.896 629.784
-45.7794 -210.529 630.376
-45.8224 -210.161 630.969
-45.9088 -209.99 632.159
-45.9521 -209.621 632.755
-45.9521 -209.054 632.755
-45.9955 -208.683 633.353
-45.9955 -208.116 633.353
-45.9955 -207.548 633.353
-45.9955 -206.98 633.353
-45.9955 -206.412 633.353
-45.9955 -205.844 633.353
-46.3456 -202.261 638.174
-46.3898 -201.881 638.781
-46.3898 -201.309 638.781
-46.3898 -200.736 638.781
-46.5227 -200.737 640.612
-46.6117 -200.546 641.838
-46.6117 -199.97 641.838
-46.6564 -199.586 642.452
-46.6564 -199.01 642.452
-46.6117 -198.244 641.838
-46.6117 -197.668 641.838
-46.6117 -197.093 641.838
-46.6117 -196.517 641.838
-46.6117 -195.942 641.838
-46.6117 -195.366 641.838
-46.6117 -194.791 641.838
-46.6117 -194.216 641.838
-46.6117 -193.64 641.838
-46.6564 -193.25 642.452
-46.6564 -192.674 642.452
-46.6564 -192.098 642.452
-46.7011 -191.705 643.068
-46.7011 -191.129 643.068
-46.7011 -190.552 643.068
-46.7459 -190.158 643.686
-46.7459 -189.581 643.686
-46.7459 -189.004 643.686
-46.7459 -188.426 643.686
-46.7908 -188.03 644.304
-46.7908 -187.452 644.304
-46.8358 -187.054 644.923
-46.7908 -186.297 644.304
-46.8809 -186.077 645.544
-46.8358 -185.32 644.923
-46.8358 -183.007 644.923
-46.7908 -182.253 644.304
-46.7459 -181.501 643.686
-46.7011 -180.751 643.068
-46.7011 -180.174 643.068
-46.8358 -180.116 644.923
-47.0621 -180.405 648.039
-47.1076 -179.998 648.666
-47.1532 -179.59 649.294
-47.2447 -179.355 650.553
-47.2447 -178.771 650.553
-47.2905 -178.361 651.185
-47.3365 -177.95 651.818
-47.3365 -177.366 651.818
-47.2905 -176.61 651.185
-47.3365 -176.197 651.818
-47.3365 -175.613 651.818
-47.3365 -175.028 651.818
-47.1532 -173.768 649.294
-47.0621 -172.851 648.039
-47.1076 -172.437 648.666
-47.1532 -172.022 649.294
-47.2447 -171.772 650.553
-47.2447 -171.189 650.553
-47.2905 -170.771 651.185
-47.3825 -170.519 652.452
-47.3365 -169.769 651.818
-47.3365 -169.184 651.818
-47.4287 -168.928 653.087
-47.7074 -169.332 656.925
-47.801 -169.074 658.214
-47.848 -168.649 658.861
-47.801 -167.894 658.214
-47.801 -167.304 658.214
-47.801 -166.713 658.214
-47.801 -166.123 658.214
-47.801 -165.533 658.214
-47.801 -164.943 658.214
-47.801 -164.353 658.214
-47.7542 -163.602 657.569
-47.801 -163.173 658.214
-47.7542 -162.423 657.569
-57.4402 15.9556 790.944
-57.4402 16.6647 790.944
-57.4402 17.3739 790.944
-57.6441 18.1472 793.752
-57.4402 18.7922 790.944
-57.305 19.4554 789.083
-57.305 20.1629 789.083
-57.2377 20.8458 788.156
-57.305 21.5778 789.083
-57.3725 22.3115 790.012
-57.576 23.1015 792.814
-57.576 23.8123 792.814
-57.7124 24.5812 794.692
-57.7124 25.2937 794.692
-57.6441 25.9754 793.752
-57.576 26.6555 792.814
-57.576 27.3663 792.814
-57.576 28.0772 792.814
-57.576 28.788 792.814
-57.4402 29.4292 790.944
-57.3725 30.1029 790.012
-57.305 30.7749 789.083
-57.2377 31.4454 788.156
-57.1705 32.1143 787.231
-56.9699 32.7049 784.468
-56.9033 33.3692 783.552
-56.7707 33.9923 781.725
-56.7707 34.6932 781.725
-56.6387 35.3118 779.907
-56.6387 36.011 779.907
-56.6387 36.7102 779.907
-56.7046 37.453 780.815
-56.7046 38.1531 780.815
-53.6446 50.002 738.679
-53.6446 50.6643 738.679
-53.7037 51.3832 739.493
-53.5267 51.8746 737.055
-53.4093 52.4202 735.439
-53.176 52.8478 732.228
-52.9448 53.2717 729.044
-53.176 54.1608 732.228
-53.176 54.8173 732.228
-53.0602 55.3529 730.632
-53.176 56.1303 732.228
-52.9448 56.5399 729.044
-53.0602 57.3181 730.632
-53.0602 57.9732 730.632
-52.9448 58.5008 729.044
-52.9448 59.1544 729.044
-53.1181 60.0037 731.429
-53.0602 60.5934 730.632
-52.83 60.9828 727.462
-52.7156 61.5016 725.888
-52.83 62.2872 727.462
-52.83 62.9394 727.462
-52.7156 63.454 725.888
-52.3755 63.6912 721.205
-52.3193 64.2688 720.43
-52.3193 64.9147 720.43
-52.3755 65.6311 721.205
-52.3755 66.2777 721.205
-52.3193 66.8524 720.43
-52.3193 67.4983 720.43
-52.3193 68.1443 720.43
-52.3755 68.8641 721.205
-52.3755 69.5107 721.205
-47.9422 102.099 660.158
-47.848 102.489 658.861
-47.9422 103.283 660.158
-47.9422 103.875 660.158
-47.9422 104.467 660.158
-47.9422 105.058 660.158
-47.7542 105.236 657.569
-47.7542 105.826 657.569
-47.7542 106.415 657.569
-47.7542 107.005 657.569
-46.3016 118.04 637.567
-46.3016 118.612 637.567
-46.3016 119.184 637.567
-46.3016 119.755 637.567
-46.3016 120.327 637.567
-46.6564 121.825 642.452
-46.6564 122.401 642.452
-46.4783 122.508 640
-46.6564 123.553 642.452
-46.6564 124.129 642.452
-46.4783 124.229 640
-46.6564 125.281 642.452
-45.6079 128.096 628.015
-45.2688 128.262 623.346
-45.5227 129.543 626.842
-45.4377 129.862 625.672
-45.2688 129.938 623.346
-45.3109 130.619 623.926
-45.4377 131.545 625.672
-45.6079 132.601 628.015
-45.7794 133.664 630.376
-45.9521 134.736 632.755
-45.9955 135.431 633.353
-45.2688 142.234 623.346
-45.3109 142.925 623.926
-45.2688 143.351 623.346
-45.3109 144.044 623.926
-45.3109 144.603 623.926
-45.2688 145.028 623.346
-45.2688 145.587 623.346
-45.1012 145.604 621.037
-44.9347 145.622 618.746
-44.9347 146.177 618.746
-44.9347 146.731 618.746
-44.9347 147.286 618.746
-44.9347 147.841 618.746
-44.9347 148.396 618.746
-45.0178 149.226 619.889
-45.0178 149.781 619.889
-45.1012 150.616 621.037
-45.2688 151.734 623.346
-45.2688 152.293 623.346
-45.2688 152.852 623.346
-45.2688 153.411 623.346
-45.2688 153.97 623.346
-45.3109 154.673 623.926
-45.3109 155.232 623.926
-45.3531 155.936 624.507
-45.3531 157.056 624.507
-45.3954 157.763 625.089
-45.3954 158.323 625.089
-45.4377 159.032 625.672
-45.4377 159.593 625.672
-45.4802 160.304 626.256
-45.4802 160.865 626.256
-45.5227 161.577 626.842
-45.5227 162.139 626.842
-45.5227 162.701 626.842
-45.5227 163.263 626.842
-45.5653 163.979 627.428
-45.5653 164.541 627.428
-45.6079 165.258 628.015
-45.6507 165.977 628.604
-45.6507 166.54 628.604
-45.6507 167.104 628.604
-45.6507 167.668 628.604
-45.6507 168.231 628.604
-45.6507 168.795 628.604
-45.6507 169.358 628.604
-45.6507 169.922 628.604
-45.6507 170.485 628.604
-45.6935 171.21 629.194
-45.6935 171.774 629.194
-45.6935 172.338 629.194
-45.7794 173.227 630.376
-45.6935 173.466 629.194
-45.8656 174.686 631.564
-45.7794 174.922 630.376
-45.7364 175.323 629.784
-45.6935 175.722 629.194
-45.6935 176.287 629.194
-45.6935 176.851 629.194
-45.7794 177.748 630.376
-45.6935 177.979 629.194
-45.6079 178.209 628.015
-45.6079 178.772 628.015
-45.5653 179.167 627.428
-45.5653 179.73 627.428
-45.5653 180.292 627.428
-45.6079 181.024 628.015
-45.6507 181.757 628.604
-45.6935 182.492 629.194
-45.6935 183.056 629.194
-45.6935 183.62 629.194
-45.6507 184.012 628.604
-45.6935 184.748 629.194
-45.6507 185.139 628.604
-45.6507 185.702 628.604
-45.6507 186.266 628.604
-45.2688 186.943 623.346
-45.2688 187.502 623.346
-45.2688 188.061 623.346
-45.6079 190.596 628.015
-45.6079 191.159 628.015
-45.6507 191.902 628.604
-45.6935 192.646 629.194
-45.6507 193.029 628.604
-45.6507 193.593 628.604
-45.6507 194.156 628.604
-45.6935 194.902 629.194
-45.6507 195.283 628.604
-45.6507 195.847 628.604
-45.6935 196.595 629.194
-45.6935 197.159 629.194
-45.6935 197.723 629.194
-45.7794 198.66 630.376
-45.8656 205.829 631.564
-45.7794 206.007 630.376
-45.4377 205.031 625.672
-45.6079 206.362 628.015
-45.6079 206.925 628.015
-45.4377 206.714 625.672
-45.2688 206.504 623.346
-45.6079 208.614 628.015
-45.6507 209.373 628.604
-45.6507 209.937 628.604
-45.6079 210.303 628.015
-45.6079 210.866 628.015
-45.6935 211.826 629.194
-45.7794 212.789 630.376
-45.9088 213.958 632.159
-45.8656 214.323 631.564
-45.8656 214.889 631.564
-45.8656 215.455 631.564
-45.9088 216.225 632.159
-45.9088 216.792 632.159
-45.9521 217.563 632.755
-45.9521 218.131 632.755
-45.9521 218.698 632.755
-45.9521 219.265 632.755
-45.9521 220.4 632.755
-46.0826 221.594 634.551
-46.1262 222.374 635.152
-46.0826 222.732 634.551
-46.039 223.09 633.951
-46.039 223.659 633.951
-46.039 224.227 633.951
-45.9955 224.583 633.353
-45.9955 225.151 633.353
-45.9955 225.719 633.353
-45.9955 226.287 633.353
-45.9955 226.854 633.353
-45.9955 227.422 633.353
-46.039 233.321 633.951
-45.9955 233.669 633.353
-45.9955 234.236 633.353
-45.9955 234.804 633.353
-46.2137 236.489 636.357
-46.2576 237.284 636.961
-46.2576 237.855 636.961
-46.2137 238.2 636.357
-46.2137 238.771 636.357
-46.2137 239.341 636.357
-46.1262 239.458 635.152
-46.2137 240.482 636.357
-46.2137 241.053 636.357
-46.2137 241.624 636.357
-46.1262 241.735 635.152
-46.039 241.847 633.951
-45.9521 241.958 632.755
-45.8224 241.841 630.969
-45.7794 242.179 630.376
-45.0871 -211.627 628.604
-45.1294 -211.262 629.194
-45.1717 -210.896 629.784
-45.2567 -210.727 630.969
-45.2994 -210.359 631.564
-45.342 -209.99 632.159
-45.3848 -209.621 632.755
-45.4277 -209.251 633.353
-45.4277 -208.683 633.353
-45.4706 -208.312 633.951
-45.4706 -207.744 633.951
-45.4706 -207.175 633.951
-45.5136 -206.803 634.551
-45.5136 -206.234 634.551
-45.5999 -206.055 635.754
-45.5999 -205.485 635.754
-45.8171 -202.454 638.781
-45.8171 -201.881 638.781
-45.8171 -201.309 638.781
-45.8171 -200.736 638.781
-45.9483 -200.737 640.612
-46.0363 -200.546 641.838
-46.0363 -199.97 641.838
-46.0804 -199.586 642.452
-46.0804 -199.01 642.452
-46.0363 -198.244 641.838
-46.0363 -197.668 641.838
-46.0804 -197.282 642.452
-46.0363 -196.517 641.838
-46.0363 -195.942 641.838
-46.0363 -195.366 641.838
-46.0363 -194.791 641.838
-46.0363 -194.216 641.838
-46.0363 -193.64 641.838
-46.0804 -193.25 642.452
-46.0804 -192.674 642.452
-46.1245 -192.282 643.068
-46.0804 -191.522 642.452
-46.1245 -191.129 643.068
-46.1245 -190.552 643.068
-46.1245 -189.975 643.068
-46.1245 -189.399 643.068
-46.1245 -188.822 643.068
-46.1245 -188.246 643.068
-46.1688 -187.849 643.686
-46.2132 -186.297 644.304
-46.3467 -186.256 646.166
-46.3467 -185.677 646.166
-46.6162 -181.512 649.923
-46.6162 -180.929 649.923
-46.6614 -180.521 650.553
-46.6614 -179.938 650.553
-46.7067 -179.529 651.185
-46.7067 -178.945 651.185
-46.7521 -178.535 651.818
-46.7521 -177.95 651.818
-46.7521 -177.366 651.818
-46.7067 -176.61 651.185
-46.7067 -176.026 651.185
-46.7067 -175.442 651.185
-46.6614 -174.689 650.553
-46.5711 -173.768 649.294
-46.4811 -172.851 648.039
-46.4811 -172.27 648.039
-46.526 -171.855 648.666
-46.5711 -171.44 649.294
-46.5711 -170.858 649.294
-46.6162 -170.44 649.923
-46.7067 -170.188 651.185
-46.7521 -169.769 651.818
-46.6614 -168.856 650.553
-46.7976 -168.764 652.452
-46.9804 -168.836 655
-47.2109 -169.074 658.214
-47.3037 -168.815 659.509
-47.2573 -168.059 658.861
-47.2109 -167.304 658.214
-47.2109 -166.713 658.214
-47.2109 -166.123 658.214
-47.2109 -165.533 658.214
-47.2109 -164.943 658.214
-47.2109 -164.353 658.214
-47.2109 -163.763 658.214
-47.2109 -163.173 658.214
-47.2109 -162.583 658.214
-47.2109 -161.992 658.214
-47.4437 -162.198 661.46
-56.8651 15.9933 792.814
-56.731 16.6647 790.944
-56.9999 17.4562 794.692
-56.9999 18.1687 794.692
-56.731 18.7922 790.944
-56.5975 19.4554 789.083
-56.5975 20.1629 789.083
-56.531 20.8458 788.156
-56.531 21.5525 788.156
-56.5975 22.2853 789.083
-56.6642 23.0198 790.012
-56.798 23.7842 791.878
-56.9324 24.5521 793.752
-56.9324 25.2638 793.752
-56.8651 25.9447 792.814
-56.731 26.5927 790.944
-56.798 27.334 791.878
-56.798 28.044 791.878
-56.798 28.754 791.878
-56.731 29.4292 790.944
-56.5975 30.0674 789.083
-56.5975 30.7749 789.083
-56.531 31.4454 788.156
-56.4647 32.1143 787.231
-56.2666 32.7049 784.468
-56.0698 33.2915 781.725
-56.0045 33.9528 780.815
-56.0045 34.6528 780.815
-55.8745 35.2707 779.002
-55.9394 36.011 779.907
-55.9394 36.7102 779.907
-52.7499 49.1233 735.439
-52.9823 50.002 738.679
-52.9823 50.6643 738.679
-53.0407 51.3832 739.493
-52.7499 51.7608 735.439
-52.8658 52.5354 737.055
-52.7499 53.0796 735.439
-52.5196 53.5043 732.228
-52.5196 54.1608 732.228
-52.4051 54.6978 730.632
-52.4051 55.3529 730.632
-52.2912 55.8862 729.044
-52.4051 56.663 730.632
-52.4051 57.3181 730.632
-52.4623 58.0364 731.429
-52.4051 58.6282 730.632
-52.4051 59.2833 730.632
-52.4623 60.0037 731.429
-52.4051 60.5934 730.632
-52.1778 60.9828 727.462
-52.1778 61.635 727.462
-52.1778 62.2872 727.462
-52.1778 62.9394 727.462
-52.0648 63.454 725.888
-52.0085 64.0355 725.103
-51.9524 64.6158 724.32
-51.8404 65.1245 722.759
-51.7289 65.6311 721.205
-51.7289 66.2777 721.205
-51.7289 66.9243 721.205
-51.7289 67.5709 721.205
-51.8404 68.3646 722.759
-51.9524 69.1616 724.32
-51.8404 69.6606 722.759
-47.4437 101.707 661.46
-47.3503 102.099 660.158
-47.3503 102.691 660.158
-47.3503 103.283 660.158
-47.3503 103.875 660.158
-47.5375 104.88 662.767
-47.3503 105.058 660.158
-47.3503 105.65 660.158
-47.1646 105.826 657.569
-45.7299 118.612 637.567
-45.7299 119.755 637.567
-45.7299 120.327 637.567
-46.0804 122.401 642.452
-46.0804 122.977 642.452
-46.0804 123.553 642.452
-45.7299 123.185 637.567
-45.6432 123.522 636.357
-45.3848 123.957 632.755
-45.3848 124.525 632.755
-45.3848 125.092 632.755
-44.9607 124.485 626.842
-45.0449 125.281 628.015
-44.9607 125.609 626.842
-44.9607 126.171 626.842
-44.7932 126.261 624.507
-44.7932 126.821 624.507
-44.8768 127.618 625.672
-44.71 127.703 623.346
-44.71 128.262 623.346
-44.71 128.821 623.346
-44.7515 129.5 623.926
-44.71 129.938 623.346
-44.71 130.497 623.346
-44.7932 131.3 624.507
-45.0027 132.477 627.428
-45.0871 133.289 628.604
-45.342 134.609 632.159
-45.3848 135.303 632.755
-45.3848 135.871 632.755
-44.7932 142.498 624.507
-44.7932 143.058 624.507
-44.8768 143.886 625.672
-44.7932 144.178 624.507
-44.7932 144.738 624.507
-44.71 145.028 623.346
-44.71 145.587 623.346
-44.71 146.146 623.346
-44.5444 146.161 621.037
-44.462 146.447 619.889
-44.462 147.003 619.889
-44.5444 147.832 621.037
-44.5444 148.388 621.037
-44.462 148.67 619.889
-44.5444 149.502 621.037
-44.5444 150.059 621.037
-44.627 150.895 622.19
-44.7932 152.017 624.507
-44.7932 152.577 624.507
-44.8768 153.423 625.672
-44.8768 153.983 625.672
-44.8768 154.544 625.672
-44.8768 155.105 625.672
-45.0449 156.249 628.015
-45.0449 156.812 628.015
-44.9607 157.643 626.842
-44.9607 158.205 626.842
-44.9607 158.767 626.842
-44.9187 159.181 626.256
-44.9607 159.891 626.842
-44.9607 160.453 626.842
-44.9607 161.015 626.842
-44.9607 161.577 626.842
-45.0027 162.291 627.428
-45.0027 162.854 627.428
-45.0027 163.416 627.428
-45.0449 164.132 628.015
