ply
format ascii 1.0
element vertex 2016
property float x
property float y
property float z
end_header
13.177 64.3875 668.048
13.177 64.9864 668.048
13.177 65.5854 668.048
13.177 66.1843 668.048
13.177 66.7833 668.048
13.1639 67.3152 667.384
13.1639 67.9135 667.384
13.1639 68.5119 667.384
13.1639 69.1102 667.384
13.1508 69.6393 666.72
13.1508 70.2371 666.72
13.1377 70.7645 666.058
13.1377 71.3617 666.058
13.1377 71.9588 666.058
13.1377 72.556 666.058
13.1508 73.2259 666.72
13.1639 73.8971 667.384
13.1639 74.4955 667.384
13.177 75.1686 668.048
13.1639 75.6922 667.384
13.1639 76.2905 667.384
13.1508 76.8124 666.72
13.1377 77.3333 666.058
13.1117 77.776 664.738
13.1247 78.4498 665.397
13.1377 79.1248 666.058
13.1508 79.8013 666.72
13.1508 80.399 666.72
13.1508 80.9968 666.72
13.1377 81.5135 666.058
13.1508 82.1923 666.72
13.1639 82.8725 667.384
13.177 83.554 668.048
13.177 84.1529 668.048
13.1901 84.8363 668.714
13.1901 85.4359 668.714
13.1901 86.0354 668.714
13.1901 86.635 668.714
13.177 87.1477 668.048
13.177 89.5435 668.048
13.1901 90.2323 668.714
13.1901 90.8318 668.714
13.1901 91.4314 668.714
13.2297 92.307 670.72
13.2562 93.0946 672.065
13.2695 93.7911 672.739
13.2695 94.3943 672.739
13.2828 95.0928 673.414
13.2695 95.6006 672.739
13.2695 96.2038 672.739
13.3095 97.0991 674.769
13.3364 98.5072 676.129
13.3095 98.914 674.769
13.2828 99.3192 673.414
13.2297 99.5232 670.72
14.3489 134.032 727.462
14.3178 134.392 725.888
14.3178 135.043 725.888
14.3178 135.694 725.888
14.3024 136.197 725.103
14.2869 136.7 724.32
14.1949 136.465 719.657
14.1949 137.11 719.657
14.1645 137.46 718.116
14.0891 137.369 714.292
14.0741 137.862 713.532
14.0741 138.502 713.532
14.4429 144.757 732.228
14.4271 145.255 731.429
14.3957 145.593 729.837
14.3957 146.248 729.837
14.3178 146.107 725.888
14.3489 147.076 727.462
14.3645 147.889 728.252
14.3489 148.381 727.462
14.3333 148.871 726.674
14.3178 149.361 725.888
14.2561 149.365 722.759
14.1797 149.209 718.886
14.1343 149.374 716.582
14.1343 150.016 716.582
14.0741 150.017 713.532
14.0741 150.657 713.532
14.0592 151.136 712.774
14.0592 151.775 712.774
13.6941 -34.2352 664.08
13.6941 -33.6398 664.08
13.6805 -33.0117 663.423
13.6805 -32.4169 663.423
13.667 -31.7907 662.767
13.667 -31.1965 662.767
13.6805 -30.6325 663.423
13.6805 -30.0377 663.423
13.667 -29.4138 662.767
13.667 -28.8196 662.767
13.6132 -28.1142 660.158
13.5465 -27.3876 656.925
13.5201 -26.7462 655.641
13.5069 -26.1328 655
13.4805 -25.4958 653.724
13.4805 -24.9097 653.724
13.4805 -24.3236 653.724
13.4674 -23.7143 653.087
13.4543 -23.1063 652.452
13.4543 -22.5213 652.452
13.4543 -21.9364 652.452
13.4674 -21.3722 653.087
13.4674 -20.7866 653.087
13.4674 -20.2011 653.087
13.4674 -19.03 653.087
13.4805 -18.4625 653.724
13.5333 -17.9463 656.282
13.5465 -17.3749 656.925
13.5598 -16.8024 657.569
13.5465 -16.197 656.925
13.5333 -15.5927 656.282
13.4674 -14.9312 653.087
13.4543 -14.3318 652.452
13.4282 -13.7201 651.185
13.7213 55.1833 665.397
13.7213 55.7799 665.397
13.7213 56.3764 665.397
13.7213 56.973 665.397
13.7213 57.5696 665.397
13.7485 58.2818 666.72
13.7622 58.9382 667.384
13.7622 59.5365 667.384
13.7622 60.1349 667.384
13.7622 60.7332 667.384
13.7759 61.3927 668.048
13.7759 61.9916 668.048
13.7759 62.5906 668.048
13.7759 63.1895 668.048
13.7759 63.7885 668.048
13.7759 64.3875 668.048
13.7759 64.9864 668.048
13.7759 65.5854 668.048
13.7759 66.1843 668.048
13.7759 66.7833 668.048
13.7759 67.3822 668.048
13.7759 67.9812 668.048
13.7622 68.5119 667.384
13.7622 69.1102 667.384
13.7622 69.7086 667.384
13.7622 70.307 667.384
13.7622 70.9053 667.384
13.7485 71.4326 666.72
13.7485 72.0303 666.72
13.7485 72.6281 666.72
13.7485 73.2259 666.72
13.7622 73.8971 667.384
13.7622 74.4955 667.384
13.7759 75.1686 668.048
13.7622 75.6922 667.384
13.7622 76.2905 667.384
13.7485 76.8124 666.72
13.7349 77.3333 666.058
13.7213 77.8532 665.397
13.7213 78.4498 665.397
13.7349 79.1248 666.058
13.7485 79.8013 666.72
13.7485 80.399 666.72
13.7485 80.9968 666.72
13.7485 81.5945 666.72
13.7485 82.1923 666.72
13.7622 82.8725 667.384
13.7759 83.554 668.048
13.7759 84.1529 668.048
13.7897 84.8363 668.714
13.7897 85.4359 668.714
13.7897 86.0354 668.714
13.7897 86.635 668.714
13.7759 87.1477 668.048
13.7759 89.5435 668.048
13.831 90.503 670.72
13.8034 90.9225 669.382
13.831 91.7057 670.72
13.8866 92.6778 673.414
13.9005 93.3753 674.091
13.8866 93.8853 673.414
13.8866 94.4891 673.414
13.8866 95.0928 673.414
13.8866 95.6966 673.414
13.8866 96.3003 673.414
13.9005 97.0015 674.091
13.9005 97.6059 674.091
13.9426 98.5072 676.129
13.9005 98.8146 674.091
13.8866 99.3192 673.414
13.8587 99.7227 672.065
15.1324 133.231 733.83
15.0665 133.306 730.632
14.9686 133.091 725.888
14.9686 133.742 725.888
14.9686 134.392 725.888
14.9686 135.043 725.888
14.9686 135.694 725.888
14.9525 136.197 725.103
14.8881 136.258 721.981
14.8242 136.319 718.886
14.8242 136.963 718.886
14.7452 136.874 715.054
14.7139 137.223 713.532
14.7139 137.862 713.532
14.7139 138.502 713.532
14.7139 139.142 713.532
14.7295 139.93 714.292
15.0337 143.474 729.044
15.0337 144.128 729.044
15.0337 144.781 729.044
15.0174 145.277 728.252
15.0174 145.93 728.252
15.0011 146.424 727.462
15.0011 147.076 727.462
15.0174 147.889 728.252
15.0174 148.542 728.252
14.9849 148.871 726.674
14.9686 149.361 725.888
14.8561 148.884 720.43
14.8242 149.209 718.886
14.8084 149.693 718.116
14.761 149.856 715.817
14.7452 150.337 715.054
14.7295 150.818 714.292
14.7139 151.297 713.532
14.6982 151.775 712.774
14.6982 152.414 712.774
14.667 152.729 711.262
14.5897 152.557 707.511
14.2753 -32.4169 663.423
14.2753 -31.8221 663.423
14.2612 -31.1965 662.767
14.2753 -30.6325 663.423
14.2612 -30.008 662.767
14.2472 -29.3848 662.113
14.2191 -28.7344 660.808
14.1494 -28.004 657.569
14.1079 -27.334 655.641
14.0804 -26.694 654.361
14.0666 -26.0819 653.724
14.0529 -25.471 653.087
14.0529 -24.8854 653.087
14.0529 -24.2999 653.087
14.0393 -23.6913 652.452
14.0393 -23.1063 652.452
14.0393 -22.5213 652.452
14.0256 -21.915 651.818
14.0256 -21.3306 651.818
14.0256 -20.7462 651.818
14.0256 -20.1618 651.818
14.012 -19.5584 651.185
14.012 -18.9746 651.185
14.012 -18.3908 651.185
14.0256 -17.8242 651.818
14.0393 -17.2566 652.452
14.0393 -16.6716 652.452
14.0256 -16.071 651.818
14.0393 -15.5017 652.452
14.012 -14.8878 651.185
14.012 -14.3039 651.185
13.9849 -13.6935 649.923
14.2612 34.1675 662.767
14.2472 34.7275 662.113
14.2612 35.356 662.767
14.2612 35.9502 662.767
14.3036 53.3407 664.738
14.2895 53.8832 664.08
14.2895 54.4786 664.08
14.2895 55.074 664.08
14.2895 55.6694 664.08
14.2895 56.2648 664.08
14.3036 56.9166 664.738
14.2895 57.4556 664.08
14.3036 58.1085 664.738
14.3463 58.8796 666.72
14.3463 59.4773 666.72
14.3606 60.1349 667.384
14.3606 60.7332 667.384
14.3749 61.3927 668.048
14.3892 62.0534 668.714
14.3892 62.653 668.714
14.3892 63.2525 668.714
14.3892 63.8521 668.714
14.3892 64.4516 668.714
14.3892 65.0512 668.714
14.3749 65.5854 668.048
14.3749 66.1843 668.048
14.3749 66.7833 668.048
14.3606 67.3152 667.384
14.3463 67.846 666.72
14.3463 68.4438 666.72
14.3463 69.0415 666.72
14.3463 69.6393 666.72
14.3463 70.2371 666.72
14.332 70.7645 666.058
14.332 71.3617 666.058
14.332 71.9588 666.058
14.332 72.556 666.058
14.332 73.1532 666.058
14.3606 73.8971 667.384
14.3606 74.4955 667.384
14.3749 75.1686 668.048
14.3606 75.6922 667.384
14.3606 76.2905 667.384
14.332 76.7362 666.058
14.3178 77.2566 665.397
14.3178 77.8532 665.397
14.3178 78.4498 665.397
14.332 79.1248 666.058
14.332 79.722 666.058
14.332 80.3192 666.058
14.332 80.9164 666.058
14.332 81.5135 666.058
14.332 82.1107 666.058
14.3606 82.8725 667.384
14.3749 83.554 668.048
14.3749 84.1529 668.048
14.3892 84.8363 668.714
14.3892 85.4359 668.714
14.3892 86.0354 668.714
14.3892 86.635 668.714
14.3892 87.2345 668.714
14.4036 89.7222 669.382
14.4613 90.6844 672.065
14.4324 91.1043 670.72
14.4036 91.5227 669.382
14.5049 92.7709 674.091
14.5049 93.3753 674.091
14.5049 93.9797 674.091
14.5049 94.584 674.091
14.5049 95.1884 674.091
14.4903 95.6966 673.414
14.4903 96.3003 673.414
14.5049 97.0015 674.091
14.5195 97.704 674.769
14.5488 98.5072 676.129
14.5195 98.914 674.769
14.5049 99.419 674.091
14.4903 99.9229 673.414
15.4192 122.39 716.582
15.3536 122.509 713.532
15.3373 123.018 712.774
15.2401 122.873 708.258
15.224 123.378 707.511
15.224 124.012 707.511
15.224 124.647 707.511
15.224 125.281 707.511
15.208 125.783 706.765
15.1601 126.018 704.538
15.1601 126.65 704.538
15.0808 126.616 700.857
15.7215 132.65 730.632
15.6703 132.871 728.252
15.6364 133.235 726.674
15.6194 133.742 725.888
15.6194 134.392 725.888
15.6194 135.043 725.888
15.5857 135.401 724.32
15.5187 135.465 721.205
15.4854 135.82 719.657
15.4522 136.173 718.116
15.4357 136.67 717.348
15.4192 137.167 716.582
15.3699 137.369 714.292
15.3536 137.862 713.532
15.3536 138.502 713.532
15.3536 139.142 713.532
15.3699 139.93 714.292
15.4027 140.871 715.817
15.4688 142.119 718.886
15.4854 142.917 719.657
15.6194 144.805 725.888
15.6364 145.614 726.674
15.6364 146.265 726.674
15.6533 147.076 727.462
15.7044 148.211 729.837
15.7044 148.865 729.837
15.6703 149.195 728.252
15.6364 149.523 726.674
15.5857 149.688 724.32
15.4854 149.369 719.657
15.4688 149.854 718.886
15.4357 150.176 717.348
15.4027 150.498 715.817
15.3699 150.818 714.292
15.3536 151.297 713.532
15.3373 151.775 712.774
15.321 152.252 712.017
15.2885 152.567 710.509
15.2401 152.718 708.258
15.224 153.192 707.511
14.8555 -31.7907 662.767
14.8555 -31.1965 662.767
14.8555 -30.6022 662.767
14.8408 -29.9784 662.113
14.6527 -26.668 653.724
14.6527 -26.0819 653.724
14.6385 -25.471 653.087
14.6385 -24.8854 653.087
14.6385 -24.2999 653.087
14.6385 -23.7143 653.087
14.6242 -23.1063 652.452
14.6385 -22.5433 653.087
14.6242 -21.9364 652.452
14.6242 -21.3514 652.452
14.6385 -20.7866 653.087
14.6242 -20.1815 652.452
14.6242 -19.5965 652.452
14.6242 -19.0115 652.452
14.6242 -18.4265 652.452
14.6242 -17.8416 652.452
14.6242 -17.2566 652.452
14.6242 -16.6716 652.452
14.61 -16.071 651.818
14.61 -15.4866 651.818
14.5958 -14.8878 651.185
14.5958 -14.3039 651.185
14.5394 -13.667 648.666
14.8996 28.3093 664.738
14.8701 28.8481 663.423
14.8555 29.4138 662.767
14.8555 30.008 662.767
14.8408 30.572 662.113
14.8408 31.1657 662.113
14.8555 31.7907 662.767
14.8555 32.3849 662.767
14.8555 32.9791 662.767
14.8701 33.6065 663.423
14.8555 34.1675 662.767
14.8555 34.7618 662.767
14.8555 35.356 662.767
14.8555 35.9502 662.767
14.8849 36.6168 664.08
14.8996 37.2491 664.738
14.8849 37.8076 664.08
14.8701 38.365 663.423
14.9441 51.7064 666.72
14.9441 52.3042 666.72
14.9144 52.797 665.397
14.8996 53.3407 664.738
14.8701 53.8299 663.423
14.8701 54.4247 663.423
14.8701 55.0195 663.423
14.8701 55.6144 663.423
14.8701 56.2092 663.423
14.8701 56.804 663.423
14.8555 57.3421 662.767
14.8555 57.9363 662.767
14.8555 58.5305 662.767
14.8701 59.1832 663.423
14.8555 59.7189 662.767
14.8555 60.3132 662.767
14.8849 62.2188 664.08
14.9144 62.9388 665.397
14.9441 63.6617 666.72
14.9441 64.2594 666.72
14.9589 64.9217 667.384
14.9441 65.455 666.72
14.9441 66.0527 666.72
14.9441 66.6505 666.72
14.9292 67.1815 666.058
14.9144 67.7114 665.397
14.9144 68.308 665.397
14.9144 68.9045 665.397
14.8996 69.4323 664.738
14.8996 70.0282 664.738
14.8996 70.6242 664.738
14.8996 71.2202 664.738
14.8996 71.8162 664.738
14.8996 72.4122 664.738
14.9144 73.0806 665.397
14.9589 73.8971 667.384
14.9589 74.4955 667.384
14.9738 75.1686 668.048
14.9589 75.6922 667.384
14.9589 76.2905 667.384
14.9292 76.7362 666.058
14.9144 77.2566 665.397
14.8996 77.776 664.738
14.8996 78.372 664.738
14.9144 79.0463 665.397
14.8996 79.564 664.738
14.8996 80.16 664.738
14.8996 80.756 664.738
14.8996 81.352 664.738
14.8996 81.9479 664.738
14.9292 82.7079 666.058
14.9589 83.4708 667.384
14.9589 84.0692 667.384
14.9738 84.7519 668.048
14.9888 85.4359 668.714
14.9888 86.0354 668.714
14.9888 86.635 668.714
14.9888 87.2345 668.714
14.9738 87.7466 668.048
15.0941 90.2627 673.414
15.079 90.7753 672.739
15.0638 91.2869 672.065
15.0337 91.7057 670.72
15.079 92.5848 672.739
15.079 93.188 672.739
15.079 93.7911 672.739
15.0941 94.4891 673.414
15.0941 95.0928 673.414
15.079 95.6006 672.739
15.079 96.2038 672.739
15.0941 96.9041 673.414
15.079 97.4101 672.739
15.1245 98.309 674.769
15.1093 98.8146 674.091
15.0941 99.3192 673.414
15.079 99.8227 672.739
16.0961 122.652 718.116
15.9763 122.379 712.774
15.9594 122.887 712.017
15.8584 122.744 707.511
15.8584 123.378 707.511
15.8584 124.012 707.511
15.8584 124.647 707.511
15.8584 125.281 707.511
15.8584 125.915 707.511
15.8416 126.416 706.765
15.8083 126.783 705.279
15.7586 127.014 703.061
15.7752 127.779 703.799
16.3056 132.727 727.462
16.2703 133.091 725.888
16.2527 133.597 725.103
16.2351 134.102 724.32
16.2527 134.897 725.103
16.1827 134.964 721.981
16.1479 135.32 720.43
16.1306 135.82 719.657
16.1133 136.319 718.886
16.1133 136.963 718.886
16.1133 137.608 718.886
16.0104 137.369 714.292
15.9933 137.862 713.532
15.9933 138.502 713.532
15.9933 139.142 713.532
16.0104 139.93 714.292
16.0274 140.721 715.054
16.0617 141.664 716.582
16.0961 142.611 718.116
16.1133 143.408 718.886
16.2879 145.614 726.674
16.2879 146.265 726.674
16.3056 147.076 727.462
16.3588 148.211 729.837
16.3766 149.027 730.632
16.3588 149.519 729.837
16.3056 149.685 727.462
16.2703 150.012 725.888
16.1306 149.369 719.657
16.0961 149.693 718.116
16.0445 149.856 715.817
16.0104 150.177 714.292
15.9933 150.657 713.532
15.9763 151.136 712.774
15.9594 151.614 712.017
15.9424 152.091 711.262
15.9087 152.405 709.757
15.8751 152.718 708.258
15.8584 153.192 707.511
15.8584 153.826 707.511
15.5951 153.768 695.768
15.5951 154.392 695.768
15.3586 -31.0126 658.861
15.4192 -30.5419 661.46
15.4192 -29.9488 661.46
15.2389 -26.668 653.724
15.224 -26.0565 653.087
15.224 -25.471 653.087
15.224 -24.8854 653.087
15.2389 -24.3236 653.724
15.224 -23.7143 653.087
15.224 -23.1288 653.087
15.224 -22.5433 653.087
15.2389 -21.9791 653.724
15.2389 -21.393 653.724
15.2537 -20.8272 654.361
15.2389 -20.2208 653.724
15.224 -19.6156 653.087
15.2389 -19.0486 653.724
15.2389 -18.4625 653.724
15.2389 -17.8764 653.724
15.224 -17.2734 653.087
15.2092 -16.6716 652.452
15.2092 -16.0867 652.452
15.2092 -15.5017 652.452
15.1944 -14.9022 651.818
15.1944 -14.3178 651.818
15.1503 -13.6935 649.923
15.5573 27.8236 667.384
15.5264 28.3655 666.058
15.4956 28.9053 664.738
15.465 29.4429 663.423
15.4497 30.008 662.767
15.4497 30.6022 662.767
15.4497 31.1965 662.767
15.4497 31.7907 662.767
15.465 32.4169 663.423
15.465 33.0117 663.423
15.465 33.6065 663.423
15.4497 34.1675 662.767
15.4344 34.7275 662.113
15.4344 35.3211 662.113
15.4497 35.9502 662.767
15.511 36.6894 665.397
15.4497 38.9213 662.767
15.4344 39.4765 662.113
15.4497 52.5883 662.767
15.4497 53.1825 662.767
15.4497 53.7768 662.767
15.4497 54.371 662.767
15.4497 54.9652 662.767
15.4497 55.5594 662.767
15.4497 56.1536 662.767
15.4497 56.7478 662.767
15.4497 57.3421 662.767
15.4497 57.9363 662.767
15.4497 58.5305 662.767
15.4497 59.1247 662.767
15.4497 59.7189 662.767
15.465 62.1572 663.423
15.465 62.752 663.423
15.4803 63.4095 664.08
15.4956 64.0684 664.738
15.511 64.7285 665.397
15.511 65.3251 665.397
15.511 65.9217 665.397
15.511 66.5182 665.397
15.511 67.1148 665.397
15.4956 67.6443 664.738
15.4956 68.2403 664.738
15.4956 68.8363 664.738
15.4956 69.4323 664.738
15.4956 70.0282 664.738
15.4956 70.6242 664.738
15.4803 71.1497 664.08
15.4803 71.7451 664.08
15.4803 72.3405 664.08
15.4956 73.0082 664.738
15.5264 73.7503 666.058
15.5573 74.4955 667.384
15.5573 75.0938 667.384
15.5573 75.6922 667.384
15.5418 76.2147 666.72
15.5264 76.7362 666.058
15.511 77.2566 665.397
15.4956 77.776 664.738
15.4956 78.372 664.738
15.4956 78.968 664.738
15.4956 79.564 664.738
15.4803 80.0806 664.08
15.4803 80.676 664.08
15.4803 81.2714 664.08
15.4803 81.8668 664.08
15.4956 82.5439 664.738
15.5264 83.305 666.058
15.5418 83.9856 666.72
15.5573 84.6675 667.384
15.5728 85.3508 668.048
15.5728 85.9498 668.048
15.5883 86.635 668.714
15.5728 87.1477 668.048
15.5418 87.5722 666.72
15.6979 90.8665 673.414
15.6821 91.3785 672.739
15.6664 91.8895 672.065
15.6664 92.492 672.065
15.6979 93.2815 673.414
15.6821 93.7911 672.739
15.6979 94.4891 673.414
15.6979 95.0928 673.414
15.6979 95.6966 673.414
15.6979 96.3003 673.414
15.7136 97.0015 674.091
15.6979 97.5079 673.414
15.7294 98.309 674.769
15.7294 98.914 674.769
15.7136 99.419 674.091
15.7136 100.023 674.091
16.5977 121.61 712.017
16.5626 121.99 710.509
16.5276 122.368 709.007
16.5101 122.873 708.258
16.5101 123.508 708.258
16.5101 124.143 708.258
16.5101 124.778 708.258
16.5101 125.413 708.258
16.5101 126.048 708.258
16.4927 126.55 707.511
16.4927 127.184 707.511
16.4753 127.684 706.765
16.4753 128.317 706.765
16.8481 131.869 722.759
16.8663 132.66 723.539
16.8481 133.165 722.759
16.8663 133.957 723.539
16.8845 134.751 724.32
16.8119 134.819 721.205
16.7938 135.32 720.43
16.7758 135.82 719.657
16.7578 136.319 718.886
16.7578 136.963 718.886
16.6863 137.02 715.817
16.6331 137.223 713.532
16.6154 137.716 712.774
16.6154 138.355 712.774
16.6331 139.142 713.532
16.6331 139.782 713.532
16.6508 140.571 714.292
16.6508 141.211 714.292
16.6508 141.852 714.292
16.6685 142.644 715.054
16.6508 143.133 714.292
16.9028 146.599 725.103
16.9394 147.568 726.674
16.9394 148.22 726.674
16.9394 148.871 726.674
16.9211 149.361 725.888
16.8119 149.044 721.205
16.7578 149.209 718.886
16.722 149.533 717.348
16.6508 149.537 714.292
16.6508 150.177 714.292
16.6331 150.657 713.532
16.6154 151.136 712.774
16.6154 151.775 712.774
16.5977 152.252 712.017
16.545 152.405 709.757
16.5101 152.718 708.258
16.4927 153.192 707.511
16.4927 153.826 707.511
16.4753 154.298 706.765
16.389 154.119 703.061
16.3547 154.426 701.59
16.3205 154.731 700.126
16.2865 155.035 698.667
15.965 -31.0431 659.509
16.0122 -30.5419 661.46
16.0122 -29.9488 661.46
15.825 -27.2541 653.724
15.8096 -26.642 653.087
15.8096 -26.0565 653.087
15.7942 -25.4462 652.452
15.8096 -24.8854 653.087
15.8096 -24.2999 653.087
15.8096 -23.7143 653.087
15.8096 -23.1288 653.087
15.8096 -22.5433 653.087
15.825 -21.9791 653.724
15.8559 -21.4348 655
15.8714 -20.8679 655.641
15.8869 -20.2999 656.282
15.8714 -19.6923 655.641
15.8869 -19.1231 656.282
15.8869 -18.5347 656.282
15.9025 -17.9639 656.925
15.8714 -17.3409 655.641
15.8559 -16.7368 655
15.8096 -16.1023 653.087
15.8096 -15.5168 653.087
15.7942 -14.9167 652.452
15.7942 -14.3318 652.452
15.7635 -13.7201 651.185
16.1717 27.8513 668.048
16.1556 28.422 667.384
16.1236 28.9627 666.058
16.0757 29.472 664.08
16.0598 30.0377 663.423
16.0439 30.6022 662.767
16.0439 31.1965 662.767
16.0439 31.7907 662.767
16.0439 32.3849 662.767
16.0281 32.9466 662.113
16.0281 33.5402 662.113
16.0122 34.1002 661.46
16.0122 34.6932 661.46
15.9965 35.2515 660.808
16.0122 35.8793 661.46
16.0122 36.4723 661.46
16.0122 37.0654 661.46
16.0122 37.6584 661.46
16.0122 38.2515 661.46
15.9965 38.8063 660.808
15.9965 39.3987 660.808
16.0281 52.5364 662.113
16.0281 53.13 662.113
16.0281 53.7237 662.113
16.0281 54.3173 662.113
16.0281 54.9109 662.113
16.0281 55.5046 662.113
16.0281 56.0982 662.113
16.0281 56.6918 662.113
16.0281 57.2855 662.113
16.0281 57.8791 662.113
16.0439 58.5305 662.767
16.0439 59.1247 662.767
16.0439 59.7189 662.767
16.0598 62.752 663.423
16.0757 63.4095 664.08
16.0916 64.0684 664.738
16.1076 64.7285 665.397
16.1076 65.3251 665.397
16.1076 65.9217 665.397
16.1236 66.5843 666.058
16.1076 67.1148 665.397
16.0916 67.6443 664.738
16.0916 68.2403 664.738
16.0757 68.7681 664.08
16.0757 69.3635 664.08
16.0757 69.9589 664.08
16.0757 70.5543 664.08
16.0757 71.1497 664.08
16.0757 71.7451 664.08
16.0757 72.3405 664.08
16.0757 72.9359 664.08
16.1076 73.6772 665.397
16.1556 74.4955 667.384
16.1556 75.0938 667.384
16.1556 75.6922 667.384
16.1396 76.2147 666.72
16.1076 76.66 665.397
16.0916 77.1801 664.738
16.0916 77.776 664.738
16.0916 78.372 664.738
16.0916 78.968 664.738
16.0916 79.564 664.738
16.0757 80.0806 664.08
16.0757 80.676 664.08
16.0757 81.2714 664.08
16.0598 81.7858 663.423
16.0757 82.4622 664.08
16.0916 83.1399 664.738
16.1076 83.819 665.397
16.1076 84.4155 665.397
16.1236 85.0965 666.058
16.1236 85.6937 666.058
16.1556 86.4626 667.384
16.1396 86.9744 666.72
16.1236 87.4852 666.058
15.9807 87.3021 660.158
16.204 90.3223 669.382
16.2364 91.1043 670.72
16.2364 91.7057 670.72
16.2364 92.307 670.72
16.269 93.0946 672.065
16.3016 93.8853 673.414
16.2853 94.3943 672.739
16.318 95.1884 674.091
16.3016 95.6966 673.414
16.3016 96.3003 673.414
16.318 97.0015 674.091
16.3509 97.8025 675.449
16.3344 98.309 674.769
16.3674 99.1134 676.129
16.3344 99.519 674.769
16.3674 100.326 676.129
17.1996 120.716 710.509
17.1814 121.224 709.757
17.1814 121.861 709.757
17.1632 122.368 709.007
17.1451 122.873 708.258
17.1451 123.508 708.258
17.1451 124.143 708.258
17.1632 124.91 709.007
17.1632 125.546 709.007
17.1632 126.182 709.007
17.1632 126.817 709.007
17.1451 127.318 708.258
17.127 127.818 707.511
17.1451 128.588 708.258
17.4211 131.303 719.657
17.4585 132.232 721.205
17.4773 133.022 721.981
17.4773 133.669 721.981
17.4773 134.316 721.981
17.4211 134.529 719.657
17.4024 135.03 718.886
17.4024 135.674 718.886
17.3837 136.173 718.116
17.3837 136.817 718.116
17.3652 137.313 717.348
17.2912 137.369 714.292
17.2728 137.862 713.532
17.2728 138.502 713.532
17.2728 139.142 713.532
17.2912 139.93 714.292
17.3281 140.871 715.817
17.3466 141.664 716.582
17.4211 142.917 719.657
17.4211 143.562 719.657
17.109 141.624 706.765
17.4961 146.125 722.759
17.5719 147.409 725.888
17.5719 148.059 725.888
17.5719 148.71 725.888
17.5719 149.361 725.888
17.4961 149.365 722.759
17.4211 149.369 719.657
17.4024 149.854 718.886
17.3652 150.176 717.348
17.3281 150.498 715.817
17.2912 150.818 714.292
17.2544 151.136 712.774
17.2178 151.453 711.262
17.1632 151.609 709.007
17.1451 152.083 708.258
17.127 152.557 707.511
17.109 153.03 706.765
17.109 153.664 706.765
17.0551 153.811 704.538
17.0015 153.958 702.325
17.0015 154.588 702.325
16.9837 155.055 701.59
16.9837 155.684 701.59
16.9837 156.313 701.59
16.9837 156.942 701.59
16.3792 -27.7861 652.452
16.3951 -27.2276 653.087
16.3951 -26.642 653.087
16.3792 -26.0311 652.452
16.3792 -25.4462 652.452
16.3951 -24.8854 653.087
16.3951 -24.2999 653.087
16.3951 -23.7143 653.087
16.3951 -23.1288 653.087
16.3951 -22.5433 653.087
16.4111 -21.9791 653.724
16.4431 -21.4348 655
16.4753 -20.8883 656.282
16.4914 -20.3198 656.925
16.4914 -19.7308 656.925
16.4914 -19.1419 656.925
16.5076 -18.5711 657.569
16.5076 -17.9815 657.569
16.5076 -17.392 657.569
16.4914 -16.7859 656.925
16.4753 -16.1811 656.282
16.4592 -15.5775 655.641
16.4111 -14.9458 653.724
16.4111 -14.3597 653.724
16.3473 -13.7201 651.185
16.7707 28.4503 668.048
16.754 29.0203 667.384
16.7041 29.5305 665.397
16.6711 30.0674 664.08
16.6546 30.6325 663.423
16.6381 31.1965 662.767
16.6381 31.7907 662.767
16.6381 32.3849 662.767
16.6217 32.9466 662.113
16.6217 33.5402 662.113
16.6053 34.1002 661.46
16.6053 34.6932 661.46
16.5889 35.2515 660.808
16.6053 35.8793 661.46
16.5889 36.4364 660.808
16.6053 37.0654 661.46
16.6053 37.6584 661.46
16.5889 38.2138 660.808
16.6217 52.5364 662.113
16.6217 53.13 662.113
16.6217 53.7237 662.113
16.6217 54.3173 662.113
16.6217 54.9109 662.113
16.6217 55.5046 662.113
16.6217 56.0982 662.113
16.6217 56.6918 662.113
16.6217 57.2855 662.113
16.6217 57.8791 662.113
16.6217 58.4727 662.113
16.6381 59.1247 662.767
16.6381 59.7189 662.767
16.6546 62.752 663.423
16.6711 63.4095 664.08
16.6876 64.0684 664.738
16.7041 64.7285 665.397
16.7041 65.3251 665.397
16.7207 65.9871 666.058
16.7207 66.5843 666.058
16.7041 67.1148 665.397
16.6876 67.6443 664.738
16.6876 68.2403 664.738
16.6711 68.7681 664.08
16.6711 69.3635 664.08
16.6711 69.9589 664.08
16.6711 70.5543 664.08
16.6711 71.1497 664.08
16.6546 71.6741 663.423
16.6546 72.2689 663.423
16.6711 72.9359 664.08
16.6876 73.6041 664.738
16.7373 74.4214 666.72
16.754 75.0938 667.384
16.754 75.6922 667.384
16.7373 76.2147 666.72
16.7041 76.66 665.397
16.6876 77.1801 664.738
16.6876 77.776 664.738
16.6876 78.372 664.738
16.6876 78.968 664.738
16.6711 79.4852 664.08
16.6711 80.0806 664.08
16.6711 80.676 664.08
16.6711 81.2714 664.08
16.6711 81.8668 664.08
16.6711 82.4622 664.08
16.6711 83.0576 664.08
16.6711 83.653 664.08
16.6711 84.2484 664.08
16.6876 84.9279 664.738
16.7041 85.6087 665.397
16.7373 86.3766 666.72
16.7041 86.8018 665.397
16.6876 87.3118 664.738
16.6381 87.6472 662.767
16.6053 88.0674 661.46
16.6711 89.0115 664.08
16.9054 90.8665 673.414
16.9054 91.4702 673.414
16.8715 91.8895 672.065
16.8378 92.307 670.72
16.7707 92.5382 668.048
16.8042 93.3231 669.382
16.8715 94.2997 672.065
16.8884 94.9974 672.739
16.8884 95.6006 672.739
16.9224 96.3971 674.091
16.9394 97.0991 674.769
16.9736 97.901 676.129
17.0423 98.9061 678.867
17.0423 99.5147 678.867
17.0078 99.9211 677.495
17.025 100.63 678.18
17.8555 120.844 711.262
17.8366 121.353 710.509
17.8177 121.861 709.757
17.8177 122.497 709.757
17.7801 122.873 708.258
17.7801 123.508 708.258
17.7801 124.143 708.258
17.7801 124.778 708.258
17.7801 125.413 708.258
17.7614 125.915 707.511
17.7426 126.416 706.765
17.7053 126.783 705.279
17.6312 126.881 702.325
17.6127 127.378 701.59
17.6127 128.007 701.59
18.1051 132.232 721.205
18.1441 133.165 722.759
18.1246 133.669 721.981
18.1246 134.316 721.981
18.0857 134.674 720.43
17.9891 134.597 716.582
17.9891 135.239 716.582
17.9316 135.448 714.292
18.0276 136.817 718.116
17.9125 136.583 713.532
17.8935 137.077 712.774
17.8555 137.424 711.262
17.8366 137.915 710.509
17.8555 138.699 711.262
17.8555 139.337 711.262
17.8555 139.975 711.262
17.7989 140.166 709.007
17.7801 140.653 708.258
17.7801 141.288 708.258
17.7614 141.774 707.511
17.7426 142.258 706.765
18.1441 146.125 722.759
18.2227 147.409 725.888
18.2424 148.22 726.674
18.2424 148.871 726.674
18.2424 149.523 726.674
18.1441 149.365 722.759
18.1051 149.691 721.205
18.0663 150.015 719.657
17.9316 149.537 714.292
17.9125 150.017 713.532
17.8935 150.497 712.774
17.8366 150.656 710.509
17.7801 150.813 708.258
17.7801 151.448 708.258
17.7614 151.923 707.511
17.7614 152.557 707.511
17.7426 153.03 706.765
17.7426 153.664 706.765
17.724 154.135 706.021
17.6682 154.281 703.799
17.6682 154.912 703.799
17.6497 155.38 703.061
17.6312 155.847 702.325
17.6682 156.805 703.799
17.6867 157.601 704.538
17.0138 -27.8674 654.361
16.9806 -27.2276 653.087
16.9806 -26.642 653.087
16.9641 -26.0311 652.452
16.9641 -25.4462 652.452
16.9806 -24.8854 653.087
16.9806 -24.2999 653.087
16.9806 -23.7143 653.087
16.9806 -23.1288 653.087
16.9806 -22.5433 653.087
16.9972 -21.9791 653.724
17.047 -21.4557 655.641
17.0804 -20.9088 656.925
17.0804 -20.3198 656.925
17.0972 -19.7502 657.569
17.0972 -19.1606 657.569
17.114 -18.5893 658.214
17.1308 -18.0168 658.861
17.0972 -17.392 657.569
17.0972 -16.8024 657.569
17.0972 -16.2128 657.569
17.0804 -15.608 656.925
17.0304 -14.975 655
16.9806 -14.3457 653.087
16.9312 -13.7201 651.185
17.3696 28.4503 668.048
17.3524 29.0203 667.384
17.3351 29.5892 666.72
17.2836 30.0972 664.738
17.2494 30.6325 663.423
17.2494 31.2273 663.423
17.2494 31.8221 663.423
17.2323 32.3849 662.767
17.2323 32.9791 662.767
17.2153 33.5402 662.113
17.1983 34.1002 661.46
17.1983 34.6932 661.46
17.1983 35.2863 661.46
17.1983 35.8793 661.46
17.1983 36.4723 661.46
17.1983 37.0654 661.46
17.2153 53.13 662.113
17.2153 53.7237 662.113
17.2153 54.3173 662.113
17.2153 54.9109 662.113
17.2153 55.5046 662.113
17.2153 56.0982 662.113
17.2153 56.6918 662.113
17.2153 57.2855 662.113
17.2153 57.8791 662.113
17.2153 58.4727 662.113
17.2323 59.1247 662.767
17.2323 59.7189 662.767
17.2665 63.4095 664.08
17.2836 64.0684 664.738
17.3007 64.7285 665.397
17.3007 65.3251 665.397
17.3179 65.9871 666.058
17.3179 66.5843 666.058
17.3007 67.1148 665.397
17.2836 67.6443 664.738
17.2665 68.1727 664.08
17.2665 68.7681 664.08
17.2494 69.2949 663.423
17.2494 69.8897 663.423
17.2494 70.4845 663.423
17.2494 71.0793 663.423
17.2494 71.6741 663.423
17.2494 72.2689 663.423
17.2494 72.8637 663.423
17.2665 73.5313 664.08
17.3179 74.3475 666.058
17.3524 75.0938 667.384
17.3351 75.6169 666.72
17.3179 76.139 666.058
17.3007 76.66 665.397
17.2836 77.1801 664.738
17.2836 77.776 664.738
17.2836 78.372 664.738
17.2836 78.968 664.738
17.2665 79.4852 664.08
17.2665 80.0806 664.08
17.2665 80.676 664.08
17.2665 81.2714 664.08
17.2494 81.7858 663.423
17.2494 82.3806 663.423
17.2665 83.0576 664.08
17.2665 83.653 664.08
17.2494 84.165 663.423
17.2323 84.6761 662.767
17.2494 85.3547 663.423
17.3351 86.3766 666.72
17.3007 86.8018 665.397
17.2494 87.1391 663.423
17.2153 87.5607 662.113
17.2153 88.1543 662.113
17.2323 88.8356 662.767
17.5092 91.4702 673.414
17.4391 91.7057 670.72
17.3007 92.171 665.397
17.3007 92.7676 665.397
17.4043 93.9232 669.382
17.4741 94.9023 672.065
17.4043 95.1235 669.382
17.5092 96.3003 673.414
17.5268 97.0015 674.091
17.5092 97.5079 673.414
17.5444 98.309 674.769
17.5444 98.914 674.769
17.5798 99.7196 676.129
17.6509 100.732 678.867
18.4932 120.844 711.262
18.4541 121.224 709.757
18.4346 121.732 709.007
18.4151 122.238 708.258
18.3957 122.744 707.511
18.3957 123.378 707.511
18.3957 124.012 707.511
18.3957 124.647 707.511
18.3763 125.149 706.765
18.3763 125.783 706.765
18.3377 126.15 705.279
18.2992 126.517 703.799
18.2609 126.881 702.325
18.2418 127.378 701.59
18.2418 128.007 701.59
18.2418 128.636 701.59
18.2418 129.265 701.59
18.2418 129.894 701.59
18.2609 130.66 702.325
18.357 131.98 706.021
18.3957 132.893 707.511
18.4346 133.81 709.007
18.4541 134.588 709.757
18.5129 135.655 712.017
18.5129 136.293 712.017
18.4932 136.786 711.262
18.4541 137.133 709.757
18.4346 137.624 709.007
18.4346 138.259 709.007
18.4346 138.895 709.007
18.4151 139.383 708.258
18.3763 139.723 706.765
18.3763 140.357 706.765
18.3184 140.546 704.538
18.2992 141.03 703.799
18.28 141.512 703.061
18.28 142.143 703.061
18.2992 142.923 703.799
18.894 148.22 726.674
18.894 148.871 726.674
18.9144 149.685 727.462
18.894 150.174 726.674
18.572 148.256 714.292
18.5522 148.738 713.532
18.5522 149.378 713.532
18.5325 149.858 712.774
18.5129 150.337 712.017
18.4541 150.496 709.757
18.4151 150.813 708.258
18.4151 151.448 708.258
18.3957 151.923 707.511
18.3957 152.557 707.511
18.3763 153.03 706.765
18.3957 153.826 707.511
18.3763 154.298 706.765
18.3184 154.443 704.538
18.3184 155.075 704.538
18.28 155.38 703.061
18.28 156.01 703.061
18.2992 156.805 703.799
18.3377 157.767 705.279
18.3377 158.399 705.279
18.2418 160.087 701.59
18.2418 160.716 701.59
17.6005 -27.8674 654.361
17.5662 -27.2276 653.087
17.5662 -26.642 653.087
17.5662 -26.0565 653.087
17.5662 -25.471 653.087
17.5662 -24.8854 653.087
17.5662 -24.2999 653.087
17.5662 -23.7143 653.087
17.5833 -23.1513 653.724
17.5833 -22.5652 653.724
17.6176 -22.0221 655
17.6521 -21.4767 656.282
17.6694 -20.9088 656.925
17.6867 -20.3397 657.569
17.6867 -19.7502 657.569
17.7041 -19.1794 658.214
17.7389 -18.6258 659.509
17.7564 -18.0523 660.158
17.6867 -17.392 657.569
17.7041 -16.8189 658.214
17.6867 -16.2128 657.569
17.6694 -15.608 656.925
17.6176 -14.975 655
17.5833 -14.3597 653.724
17.5491 -13.7468 652.452
18.0045 28.5071 669.382
17.9507 29.0203 667.384
17.9507 29.6187 667.384
17.9329 30.187 666.72
17.8795 30.6932 664.738
17.8618 31.2582 664.08
17.8442 31.8221 663.423
17.8265 32.3849 662.767
17.8265 32.9791 662.767
17.8089 33.5402 662.113
17.7914 34.1002 661.46
17.7914 34.6932 661.46
17.7914 35.2863 661.46
17.7914 35.8793 661.46
17.7914 36.4723 661.46
17.7914 37.0654 661.46
17.8089 53.13 662.113
17.8089 53.7237 662.113
17.8089 54.3173 662.113
17.8089 54.9109 662.113
17.8089 55.5046 662.113
17.8089 56.0982 662.113
17.8089 56.6918 662.113
17.8089 57.2855 662.113
17.8089 57.8791 662.113
17.8089 58.4727 662.113
17.8265 59.1247 662.767
17.8265 59.7189 662.767
17.8618 63.4095 664.08
17.8795 64.0684 664.738
17.8973 64.7285 665.397
17.8973 65.3251 665.397
17.8973 65.9217 665.397
17.8973 66.5182 665.397
17.8795 67.0483 664.738
17.8795 67.6443 664.738
17.8618 68.1727 664.08
17.8442 68.7001 663.423
17.8442 69.2949 663.423
17.8442 69.8897 663.423
17.8442 70.4845 663.423
17.8442 71.0793 663.423
17.8442 71.6741 663.423
17.8442 72.2689 663.423
17.8442 72.8637 663.423
17.8618 73.5313 664.08
17.8973 74.2737 665.397
17.9329 75.0192 666.72
17.9329 75.6169 666.72
17.9151 76.139 666.058
17.8973 76.66 665.397
17.8795 77.1801 664.738
17.8795 77.776 664.738
17.8795 78.372 664.738
17.8795 78.968 664.738
17.8618 79.4852 664.08
17.8618 80.0806 664.08
17.8618 80.676 664.08
17.8442 81.191 663.423
17.8442 81.7858 663.423
17.8442 82.3806 663.423
17.8442 82.9754 663.423
17.8442 83.5702 663.423
17.8442 84.165 663.423
17.8265 84.6761 662.767
17.8265 85.2703 662.767
17.8442 85.9495 663.423
17.8442 86.5443 663.423
17.8442 87.1391 663.423
17.8265 87.6472 662.767
17.8265 88.2414 662.767
17.8973 89.1881 665.397
17.9686 91.3403 668.048
17.9686 91.9393 668.048
17.8618 91.9885 664.08
17.8973 92.7676 665.397
18.0224 94.0171 670.05
18.0405 94.7124 670.72
18.0045 95.1235 669.382
18.0766 96.1074 672.065
18.0947 96.8069 672.739
18.0766 97.3125 672.065
18.0947 98.0132 672.739
18.0947 98.6164 672.739
18.0947 99.2195 672.739
18.0947 99.8227 672.739
19.1309 120.844 711.262
19.0904 121.224 709.757
19.0703 121.732 709.007
19.0501 122.238 708.258
19.0501 122.873 708.258
19.03 123.378 707.511
19.03 124.012 707.511
19.03 124.647 707.511
19.03 125.281 707.511
19.01 125.783 706.765
18.99 126.283 706.021
18.97 126.783 705.279
18.9103 127.014 703.061
18.8905 127.511 702.325
18.8708 128.007 701.59
18.8708 128.636 701.59
18.8708 129.265 701.59
18.8708 129.894 701.59
18.8708 130.523 701.59
18.9501 131.703 704.538
19.03 132.893 707.511
19.0501 133.668 708.258
19.0703 134.445 709.007
19.0904 135.224 709.757
19.1309 136.148 711.262
19.1309 136.786 711.262
19.0904 137.133 709.757
19.0904 137.769 709.757
19.0904 138.406 709.757
19.0703 138.895 709.007
19.0501 139.383 708.258
19.01 139.723 706.765
18.99 140.209 706.021
18.9501 140.546 704.538
18.9302 141.03 703.799
18.9103 141.512 703.061
18.8905 141.994 702.325
18.9103 142.773 703.061
18.97 143.856 705.279
18.99 144.64 706.021
19.01 145.426 706.765
19.192 147.458 713.532
19.1716 147.941 712.774
19.1716 148.58 712.774
19.1716 149.219 712.774
19.1716 149.858 712.774
19.1309 150.178 711.262
19.0904 150.496 709.757
19.0501 150.813 708.258
19.0501 151.448 708.258
19.0501 152.083 708.258
19.03 152.557 707.511
19.03 153.192 707.511
19.03 153.826 707.511
19.01 154.298 706.765
18.99 154.768 706.021
18.99 155.401 706.021
18.9501 155.706 704.538
18.97 156.502 705.279
18.97 157.135 705.279
18.99 157.933 706.021
18.99 158.566 706.021
19.01 159.367 706.765
19.01 160.001 706.765
18.97 160.296 705.279
18.9302 160.591 703.799
18.8905 160.884 702.325
18.8708 161.345 701.59
18.8708 161.974 701.59
18.7922 163.178 698.667
18.7726 163.634 697.94
18.7531 164.089 697.215
18.7142 164.373 695.768
18.2049 -27.8946 655
18.1694 -27.2541 653.724
18.1694 -26.668 653.724
18.1517 -26.0565 653.087
18.1517 -25.471 653.087
18.1517 -24.8854 653.087
18.1694 -24.3236 653.724
18.1694 -23.7375 653.724
18.1694 -23.1513 653.724
18.1871 -22.5872 654.361
18.2227 -22.0436 655.641
18.2584 -21.4978 656.925
18.2584 -20.9088 656.925
18.2763 -20.3397 657.569
18.2763 -19.7502 657.569
18.2942 -19.1794 658.214
18.3122 -18.6076 658.861
18.3122 -18.0168 658.861
18.2942 -17.409 658.214
18.2942 -16.8189 658.214
18.2763 -16.2128 657.569
18.2584 -15.608 656.925
18.1694 -14.9458 653.724
18.1341 -14.3318 652.452
17.994 -13.6406 647.414
18.6418 28.5641 670.72
18.5675 29.0492 668.048
18.5491 29.6187 667.384
18.5306 30.187 666.72
18.4755 30.6932 664.738
18.439 31.2273 663.423
18.439 31.8221 663.423
18.4208 32.3849 662.767
18.4208 32.9791 662.767
18.4026 33.5402 662.113
18.3844 34.1002 661.46
18.3844 34.6932 661.46
18.3663 35.2515 660.808
18.3663 35.8439 660.808
18.3844 36.4723 661.46
18.3663 37.0289 660.808
18.4026 53.13 662.113
18.4026 53.7237 662.113
18.4026 54.3173 662.113
18.4026 54.9109 662.113
18.4026 55.5046 662.113
18.4026 56.0982 662.113
18.4026 56.6918 662.113
18.4026 57.2855 662.113
18.4026 57.8791 662.113
18.4208 58.5305 662.767
18.4208 59.1247 662.767
18.4208 59.7189 662.767
18.4755 63.4724 664.738
18.4939 64.1319 665.397
18.5122 64.7928 666.058
18.5122 65.39 666.058
18.4939 65.9217 665.397
18.4939 66.5182 665.397
18.4755 67.0483 664.738
18.4572 67.5773 664.08
18.4572 68.1727 664.08
18.439 68.7001 663.423
18.439 69.2949 663.423
18.439 69.8897 663.423
18.439 70.4845 663.423
18.439 71.0793 663.423
18.439 71.6741 663.423
18.439 72.2689 663.423
18.439 72.8637 663.423
18.439 73.4585 663.423
18.4939 74.2737 665.397
18.5306 75.0192 666.72
18.5306 75.6169 666.72
18.5306 76.2147 666.72
18.4939 76.66 665.397
18.4939 77.2566 665.397
18.4755 77.776 664.738
18.4755 78.372 664.738
18.4755 78.968 664.738
18.4755 79.564 664.738
18.4572 80.0806 664.08
18.4572 80.676 664.08
18.439 81.191 663.423
18.439 81.7858 663.423
18.439 82.3806 663.423
18.439 82.9754 663.423
18.439 83.5702 663.423
18.439 84.165 663.423
18.439 84.7598 663.423
18.439 85.3547 663.423
18.439 85.9495 663.423
18.439 86.5443 663.423
18.439 87.1391 663.423
18.4208 87.6472 662.767
18.439 88.3287 663.423
18.4939 89.1881 665.397
18.4939 91.5744 665.397
18.439 91.8975 663.423
18.5306 92.952 666.72
18.6418 94.1111 670.72
18.6792 94.9023 672.065
18.6418 95.3138 670.72
18.6979 96.2038 672.739
18.7355 97.0015 674.091
18.7167 97.5079 673.414
18.6979 98.0132 672.739
18.7167 98.7154 673.414
18.7167 99.3192 673.414
18.7167 99.9229 673.414
19.7686 120.844 711.262
19.7268 121.224 709.757
19.7059 121.732 709.007
19.6851 122.238 708.258
19.6851 122.873 708.258
19.6644 123.378 707.511
19.6644 124.012 707.511
19.6644 124.647 707.511
19.6644 125.281 707.511
19.6436 125.783 706.765
19.6436 126.416 706.765
19.6023 126.783 705.279
19.5407 127.014 703.061
19.4998 127.378 701.59
19.4998 128.007 701.59
19.4998 128.636 701.59
19.4998 129.265 701.59
19.4794 129.758 700.857
19.4998 130.523 701.59
19.5407 131.427 703.061
19.6644 132.893 707.511
19.6851 133.668 708.258
19.6851 134.303 708.258
19.7268 135.224 709.757
19.7686 136.148 711.262
19.7686 136.786 711.262
19.7477 137.278 710.509
19.7477 137.915 710.509
19.7268 138.406 709.757
19.7268 139.042 709.757
19.6851 139.383 708.258
19.6644 139.871 707.511
19.623 140.209 706.021
19.6023 140.694 705.279
19.5612 141.03 703.799
19.5407 141.512 703.061
19.5407 142.143 703.061
19.5407 142.773 703.061
19.5817 143.705 704.538
19.623 144.64 706.021
19.6436 145.426 706.765
19.6644 146.214 707.511
19.7059 147.159 709.007
19.8106 148.58 712.774
19.8106 149.219 712.774
19.8106 149.858 712.774
19.7686 150.178 711.262
19.7268 150.496 709.757
19.6851 150.813 708.258
19.6851 151.448 708.258
19.6851 152.083 708.258
19.6851 152.718 708.258
19.6644 153.192 707.511
19.6644 153.826 707.511
19.6644 154.46 707.511
19.6436 154.931 706.765
19.6436 155.565 706.765
19.623 156.034 706.021
19.623 156.667 706.021
19.623 157.3 706.021
19.623 157.933 706.021
19.623 158.566 706.021
19.6436 159.367 706.765
19.6436 160.001 706.765
19.6023 160.296 705.279
19.5612 160.591 703.799
19.5202 160.884 702.325
19.4998 161.345 701.59
19.4794 161.805 700.857
19.4591 162.264 700.126
19.4388 162.722 699.396
19.3782 162.839 697.215
19.3782 163.464 697.215
19.3782 164.089 697.215
19.3983 164.886 697.94
18.7738 -27.8674 654.361
18.7738 -27.2807 654.361
18.7555 -26.668 653.724
18.7555 -26.0819 653.724
18.7373 -25.471 653.087
18.7373 -24.8854 653.087
18.7555 -24.3236 653.724
18.7555 -23.7375 653.724
18.7738 -23.1739 654.361
18.7922 -22.6093 655
18.8289 -22.0651 656.282
18.8474 -21.4978 656.925
18.8658 -20.9293 657.569
18.8844 -20.3597 658.214
18.8844 -19.7696 658.214
18.9029 -19.1983 658.861
18.9215 -18.6258 659.509
18.9029 -18.0168 658.861
18.8844 -17.409 658.214
18.8844 -16.8189 658.214
18.8474 -16.197 656.925
18.8105 -15.5775 655.641
18.7373 -14.9312 653.087
18.719 -14.3318 652.452
18.6104 -13.667 648.666
19.2432 28.5641 670.72
19.1474 29.0203 667.384
19.1284 29.5892 666.72
19.0904 30.1271 665.397
19.0338 30.6325 663.423
19.015 31.1965 662.767
19.015 31.7907 662.767
19.015 32.3849 662.767
18.9962 32.9466 662.113
18.9962 33.5402 662.113
18.9775 34.1002 661.46
18.9588 34.659 660.808
18.9588 35.2515 660.808
18.9588 35.8439 660.808
18.9775 36.4723 661.46
18.9775 37.0654 661.46
18.9962 53.13 662.113
18.9962 53.7237 662.113
18.9962 54.3173 662.113
18.9962 54.9109 662.113
18.9962 55.5046 662.113
18.9962 56.0982 662.113
19.015 56.7478 662.767
19.015 57.3421 662.767
19.015 57.9363 662.767
19.015 58.5305 662.767
19.1284 64.2594 666.72
19.1284 64.8572 666.72
19.1284 65.455 666.72
19.1094 65.9871 666.058
19.1094 66.5843 666.058
19.0904 67.1148 665.397
19.0526 67.5773 664.08
19.0526 68.1727 664.08
19.0338 68.7001 663.423
19.0338 69.2949 663.423
19.0338 69.8897 663.423
19.0338 70.4845 663.423
19.0338 71.0793 663.423
19.0338 71.6741 663.423
19.0338 72.2689 663.423
19.0338 72.8637 663.423
19.0338 73.4585 663.423
19.0904 74.2737 665.397
19.1474 75.0938 667.384
19.1474 75.6922 667.384
19.1284 76.2147 666.72
19.0904 76.66 665.397
19.0904 77.2566 665.397
19.0715 77.776 664.738
19.0715 78.372 664.738
19.0715 78.968 664.738
19.0715 79.564 664.738
19.0526 80.0806 664.08
19.0526 80.676 664.08
19.0526 81.2714 664.08
19.0338 81.7858 663.423
19.0338 82.3806 663.423
19.0338 82.9754 663.423
19.0338 83.5702 663.423
19.0338 84.165 663.423
19.0338 84.7598 663.423
19.0338 85.3547 663.423
19.0338 85.9495 663.423
19.0338 86.5443 663.423
19.0338 87.1391 663.423
19.0338 87.7339 663.423
19.0338 88.3287 663.423
19.0526 90.7977 664.08
19.0526 91.3931 664.08
19.0526 91.9885 664.08
19.1665 93.1372 668.048
19.2048 93.9232 669.382
19.2432 94.7124 670.72
19.2817 95.5048 672.065
19.3011 96.2038 672.739
19.3204 96.9041 673.414
19.3011 97.4101 672.739
19.3204 98.1116 673.414
19.3204 98.7154 673.414
19.3983 99.7196 676.129
19.3983 100.326 676.129
20.4063 120.206 711.262
20.3631 120.588 709.757
20.3416 121.096 709.007
20.3416 121.732 709.007
20.3201 122.238 708.258
20.3201 122.873 708.258
20.2987 123.378 707.511
20.2987 124.012 707.511
20.2987 124.647 707.511
20.2987 125.281 707.511
20.2773 125.783 706.765
20.2773 126.416 706.765
20.2347 126.783 705.279
20.171 127.014 703.061
20.1499 127.511 702.325
20.1499 128.141 702.325
20.1499 128.771 702.325
20.1288 129.265 701.59
20.1288 129.894 701.59
20.1288 130.523 701.59
20.171 131.427 703.061
20.2773 132.753 706.765
20.2987 133.527 707.511
20.3201 134.303 708.258
20.3631 135.224 709.757
20.4063 136.148 711.262
20.4063 136.786 711.262
20.3847 137.278 710.509
20.3847 137.915 710.509
20.3847 138.552 710.509
20.3631 139.042 709.757
20.3201 139.383 708.258
20.2987 139.871 707.511
20.2773 140.357 706.765
20.256 140.842 706.021
20.2347 141.326 705.279
20.1922 141.661 703.799
20.171 142.143 703.061
20.1922 142.923 703.799
20.2347 143.856 705.279
20.256 144.64 706.021
20.2773 145.426 706.765
20.2987 146.214 707.511
20.2987 146.848 707.511
20.428 148.422 712.017
20.4497 149.219 712.774
20.428 149.699 712.017
20.3631 149.86 709.757
20.3416 150.337 709.007
20.3201 150.813 708.258
20.3201 151.448 708.258
20.3201 152.083 708.258
20.3201 152.718 708.258
20.2987 153.192 707.511
20.3201 153.988 708.258
20.2987 154.46 707.511
20.2773 154.931 706.765
20.2773 155.565 706.765
20.2773 156.199 706.765
20.2773 156.832 706.765
20.2773 157.466 706.765
20.256 157.933 706.021
20.256 158.566 706.021
20.256 159.199 706.021
20.256 159.832 706.021
20.2134 160.128 704.538
20.171 160.423 703.061
20.1499 160.884 702.325
20.1288 161.345 701.59
20.1078 161.805 700.857
20.0868 162.264 700.126
20.045 162.552 698.667
20.0033 162.839 697.215
19.9825 163.295 696.491
19.9825 163.919 696.491
19.9825 164.544 696.491
19.9618 164.997 695.768
19.3605 -28.4541 654.361
19.3605 -27.8674 654.361
19.3605 -27.2807 654.361
19.3416 -26.668 653.724
19.3416 -26.0819 653.724
19.3228 -25.471 653.087
19.3416 -24.9097 653.724
19.3605 -24.3473 654.361
19.3605 -23.7606 654.361
19.3794 -23.1966 655
19.4173 -22.6536 656.282
19.4363 -22.0868 656.925
19.4554 -21.5189 657.569
19.4745 -20.9498 658.214
19.4936 -20.3797 658.861
19.5128 -19.8084 659.509
19.5128 -19.2171 659.509
19.5512 -18.6625 660.808
19.5128 -18.0346 659.509
19.4745 -17.409 658.214
19.4745 -16.8189 658.214
19.4554 -16.2128 657.569
19.4173 -15.5927 656.282
19.3416 -14.9458 653.724
19.3228 -14.3457 653.087
19.2665 -13.7201 651.185
19.8049 28.5071 669.382
19.7458 29.0203 667.384
19.687 29.5305 665.397
19.6286 30.0377 663.423
19.6092 30.6022 662.767
19.6092 31.1965 662.767
19.6092 31.7907 662.767
19.6092 32.3849 662.767
19.5898 32.9466 662.113
19.5898 33.5402 662.113
19.5705 34.1002 661.46
19.5512 34.659 660.808
19.5512 35.2515 660.808
19.5512 35.8439 660.808
19.5705 36.4723 661.46
19.6092 53.1825 662.767
19.5898 53.7237 662.113
19.5898 54.3173 662.113
19.5898 54.9109 662.113
19.5898 55.5046 662.113
19.6092 56.1536 662.767
19.6092 56.7478 662.767
19.6092 57.3421 662.767
19.6092 57.9363 662.767
19.6092 58.5305 662.767
19.7066 64.1956 666.058
19.7066 64.7928 666.058
19.7066 65.39 666.058
19.7066 65.9871 666.058
19.7066 66.5843 666.058
19.6675 67.0483 664.738
19.648 67.5773 664.08
19.648 68.1727 664.08
19.6286 68.7001 663.423
19.6286 69.2949 663.423
19.6286 69.8897 663.423
19.6286 70.4845 663.423
19.6286 71.0793 663.423
19.6286 71.6741 663.423
19.6286 72.2689 663.423
19.6286 72.8637 663.423
19.6286 73.4585 663.423
19.687 74.2737 665.397
19.7262 75.0192 666.72
19.7262 75.6169 666.72
19.7262 76.2147 666.72
19.687 76.66 665.397
19.6675 77.1801 664.738
19.6675 77.776 664.738
19.6675 78.372 664.738
19.6675 78.968 664.738
19.648 79.4852 664.08
19.648 80.0806 664.08
19.6286 80.5962 663.423
19.6286 81.191 663.423
19.6286 81.7858 663.423
19.6286 82.3806 663.423
19.6286 82.9754 663.423
19.6286 83.5702 663.423
19.6286 84.165 663.423
19.6286 84.7598 663.423
19.6092 85.2703 662.767
19.6286 85.9495 663.423
19.6286 86.5443 663.423
19.6286 87.1391 663.423
19.6286 87.7339 663.423
19.648 88.4161 664.08
19.687 91.5744 665.397
19.6286 91.8975 663.423
19.648 92.5839 664.08
19.7852 93.8296 668.714
19.7852 94.4291 668.714
19.8049 95.1235 669.382
19.9242 96.3003 673.414
20.9995 119.952 709.757
20.9995 120.588 709.757
20.9995 121.224 709.757
20.9773 121.732 709.007
20.9551 122.238 708.258
20.9551 122.873 708.258
20.9551 123.508 708.258
20.9551 124.143 708.258
20.933 124.647 707.511
20.933 125.281 707.511
20.933 125.915 707.511
20.911 126.416 706.765
20.867 126.783 705.279
20.8014 127.014 703.061
20.7796 127.511 702.325
20.7579 128.007 701.59
20.7579 128.636 701.59
20.7579 129.265 701.59
20.7362 129.758 700.857
20.7579 130.523 701.59
20.7796 131.289 702.325
20.911 132.753 706.765
20.933 133.527 707.511
20.9551 134.303 708.258
20.9773 135.081 709.007
21.0217 136.004 710.509
21.044 136.786 711.262
21.0217 137.278 710.509
20.9995 137.769 709.757
20.9995 138.406 709.757
20.9995 139.042 709.757
20.9551 139.383 708.258
20.911 139.723 706.765
20.889 140.209 706.021
20.867 140.694 705.279
20.8232 141.03 703.799
20.8014 141.512 703.061
20.7796 141.994 702.325
20.7796 142.624 702.325
20.7796 143.253 702.325
20.8014 144.034 703.061
20.867 145.12 705.279
20.911 146.06 706.765
20.911 146.694 706.765
20.9551 147.638 708.258
21.044 148.902 711.262
20.9995 149.224 709.757
20.9551 149.543 708.258
20.9551 150.178 708.258
20.933 150.654 707.511
20.9551 151.448 708.258
20.9551 152.083 708.258
20.9551 152.718 708.258
20.933 153.192 707.511
20.9551 153.988 708.258
20.933 154.46 707.511
20.911 154.931 706.765
20.911 155.565 706.765
20.889 156.034 706.021
20.911 156.832 706.765
20.911 157.466 706.765
20.889 157.933 706.021
20.889 158.566 706.021
20.889 159.199 706.021
20.867 159.664 705.279
20.8451 160.128 704.538
20.8232 160.591 703.799
20.8014 161.053 703.061
20.7579 161.345 701.59
20.7362 161.805 700.857
20.6929 162.095 699.396
20.6284 162.214 697.215
20.607 162.67 696.491
20.5856 163.125 695.768
20.5856 163.749 695.768
20.5856 164.373 695.768
20.4583 163.976 691.464
20.045 -28.5935 657.569
19.9862 -27.9219 655.641
19.9667 -27.3073 655
19.9667 -26.7201 655
19.9277 -26.0819 653.724
19.9277 -25.4958 653.724
19.9277 -24.9097 653.724
19.9472 -24.3473 654.361
19.9667 -23.7838 655
19.9862 -23.2192 655.641
20.0057 -22.6536 656.282
20.0253 -22.0868 656.925
20.045 -21.5189 657.569
