ply
format ascii 1.0
element vertex 1943
property float x
property float y
property float z
end_header
-239.924 278.758 857.699
-239.312 278.814 855.511
-239.312 279.581 855.511
-238.703 279.635 853.334
-238.4 280.044 852.25
-238.098 280.451 851.168
-238.098 281.215 851.168
-237.796 281.62 850.089
-237.194 281.668 847.94
-236.001 281.008 843.673
-235.409 281.057 841.556
-235.114 281.458 840.502
-234.233 281.155 837.354
-233.65 281.204 835.268
-233.069 281.252 833.193
-232.492 281.3 831.128
-231.917 281.348 829.073
-231.631 281.743 828.05
-231.345 282.137 827.029
-231.345 282.879 827.029
-229.927 281.882 821.961
-229.085 281.584 818.95
-228.806 281.974 817.952
-228.806 282.707 817.952
-228.806 283.441 817.952
-228.806 284.174 817.952
-228.806 284.907 817.952
-228.527 285.293 816.955
-228.527 286.025 816.955
-228.527 286.758 816.955
-228.527 287.49 816.955
-228.527 288.223 816.955
-226.869 286.859 811.028
-226.595 287.238 810.049
-226.322 287.617 809.072
-225.777 287.649 807.124
-219.44 280.981 784.468
-218.672 280.7 781.725
-218.418 281.073 780.815
-218.418 281.773 780.815
-218.418 282.473 780.815
-218.418 283.173 780.815
-218.418 283.873 780.815
-218.418 284.573 780.815
-218.164 284.941 779.907
-218.164 285.641 779.907
-217.658 285.676 778.098
-217.658 286.373 778.098
-216.402 285.415 773.611
-216.153 285.779 772.719
-215.656 285.814 770.943
-214.424 284.868 766.538
-214.179 285.229 765.663
-214.179 285.915 765.663
-213.935 286.275 764.79
-213.691 286.634 763.918
-212.722 286.016 760.454
-212.241 286.049 758.734
-212.241 286.729 758.734
-212.001 287.085 757.876
-211.762 287.439 757.021
-211.523 287.793 756.167
-211.047 287.822 754.466
-210.573 287.851 752.773
-210.573 288.526 752.773
-210.337 288.877 751.929
-207.775 288.021 742.769
-207.545 288.368 741.947
-207.545 289.033 741.947
-206.859 288.74 739.493
-206.631 289.085 738.679
-205.95 288.793 736.246
-204.826 287.873 732.228
-204.158 287.587 729.837
-204.603 288.87 731.429
-204.38 289.211 730.632
-204.603 290.182 731.429
-253.414 270.118 908.835
-253.414 270.933 908.835
-253.071 271.38 907.605
-253.071 272.194 907.605
-252.729 272.639 906.379
-252.729 273.451 906.379
-252.729 274.264 906.379
-252.388 274.705 905.156
-251.033 274.038 900.296
-250.361 274.109 897.885
-250.026 274.546 896.685
-249.359 274.616 894.294
-248.036 273.957 889.55
-247.38 274.027 887.196
-247.053 274.46 886.024
-246.728 274.891 884.855
-246.078 274.959 882.527
-245.432 275.026 880.211
-245.432 275.815 880.211
-245.432 276.605 880.211
-245.111 277.03 879.057
-244.79 277.455 877.906
-244.47 277.878 876.759
-243.832 277.938 874.472
-243.515 278.359 873.334
-242.567 278.056 869.936
-242.253 278.474 868.809
-241.94 278.892 867.685
-241.315 278.948 865.446
-240.076 278.288 861.002
-239.769 278.702 859.898
-239.155 278.758 857.699
-238.85 279.17 856.603
-238.545 279.581 855.511
-237.938 279.635 853.334
-237.636 280.044 852.25
-237.636 280.808 852.25
-237.636 281.572 852.25
-237.334 281.978 851.168
-236.734 282.025 849.013
-235.838 281.716 845.801
-234.949 281.41 842.614
-234.36 281.458 840.502
-232.901 280.455 835.268
-232.611 280.854 834.229
-231.747 280.555 831.128
-231.46 280.952 830.1
-231.174 281.348 829.073
-230.604 281.396 827.029
-230.604 282.137 827.029
-230.604 282.879 827.029
-230.32 283.271 826.01
-228.351 281.584 818.95
-227.795 281.63 816.955
-227.795 282.363 816.955
-227.795 283.095 816.955
-227.518 283.483 815.962
-227.241 283.869 814.97
-227.241 284.599 814.97
-227.241 285.33 814.97
-227.241 286.061 814.97
-227.241 286.792 814.97
-226.965 287.173 813.981
-226.142 286.859 811.028
-225.869 287.238 810.049
-225.869 287.965 810.049
-225.325 287.995 808.097
-218.992 281.31 785.387
-217.971 280.7 781.725
-217.718 281.073 780.815
-217.971 282.101 781.725
-217.971 282.802 781.725
-217.971 283.503 781.725
-217.971 284.204 781.725
-217.971 284.905 781.725
-217.718 285.273 780.815
-217.718 285.973 780.815
-217.465 286.34 779.907
-217.465 287.039 779.907
-216.709 286.738 777.196
-215.709 286.109 773.611
-214.965 285.814 770.943
-213.737 284.868 766.538
-213.493 285.229 765.663
-213.249 285.589 764.79
-213.249 286.275 764.79
-213.006 286.634 763.918
-212.04 286.016 760.454
-211.8 286.373 759.593
-211.561 286.729 758.734
-211.321 287.085 757.876
-211.321 287.764 757.876
-211.083 288.118 757.021
-210.608 288.146 755.316
-209.898 287.851 752.773
-209.898 288.526 752.773
-209.663 288.877 751.929
-206.651 287.385 741.128
-206.651 288.049 741.128
-206.651 288.714 741.128
-206.196 288.74 739.493
-205.969 289.085 738.679
-204.617 287.845 733.83
-203.947 287.559 731.429
-203.725 287.901 730.632
-203.947 288.87 731.429
-203.725 289.211 730.632
-203.947 290.182 731.429
-252.942 270.485 910.068
-252.599 270.933 908.835
-252.257 271.38 907.605
-252.257 272.194 907.605
-251.916 272.639 906.379
-251.916 273.451 906.379
-251.916 274.264 906.379
-251.576 274.705 905.156
-250.899 274.775 902.719
-249.556 274.109 897.885
-249.222 274.546 896.685
-248.889 274.983 895.488
-247.896 274.685 891.915
-246.911 274.39 888.371
-246.259 274.46 886.024
-245.934 274.891 884.855
-244.965 274.598 881.367
-244.965 275.388 881.367
-244.643 275.815 880.211
-244.323 276.242 879.057
-243.684 276.306 876.759
-243.684 277.092 876.759
-243.048 277.154 874.472
-242.416 277.215 872.198
-242.416 277.997 872.198
-241.787 278.056 869.936
-241.474 278.474 868.809
-241.162 278.892 867.685
-240.85 279.309 866.564
-239.612 278.646 862.109
-238.998 278.702 859.898
-238.386 278.758 857.699
-238.386 279.527 857.699
-238.082 279.938 856.603
-237.475 279.991 854.421
-237.173 280.4 853.334
-236.872 280.808 852.25
-236.872 281.572 852.25
-236.571 281.978 851.168
-236.271 282.382 850.089
-235.376 282.072 846.869
-234.194 281.41 842.614
-233.023 280.755 838.401
-231.863 280.106 834.229
-231.575 280.505 833.193
-230.716 280.208 830.1
-230.43 280.605 829.073
-230.43 281.348 829.073
-230.146 281.743 828.05
-230.146 282.485 828.05
-230.146 283.228 828.05
-229.579 283.271 826.01
-227.617 281.584 818.95
-227.062 281.63 816.955
-227.062 282.363 816.955
-227.062 283.095 816.955
-226.786 283.483 815.962
-226.51 283.869 814.97
-226.51 284.599 814.97
-226.51 285.33 814.97
-226.51 286.061 814.97
-226.786 287.14 815.962
-226.51 287.522 814.97
-225.415 286.859 811.028
-225.143 287.238 810.049
-224.06 286.58 806.154
-218.544 281.64 786.308
-217.524 281.027 782.638
-217.524 281.729 782.638
-218.033 283.091 784.468
-218.033 283.794 784.468
-217.778 284.165 783.552
-217.778 284.868 783.552
-217.271 284.905 781.725
-217.018 285.273 780.815
-217.018 285.973 780.815
-216.765 286.34 779.907
-216.765 287.039 779.907
-216.262 287.071 778.098
-214.767 285.779 772.719
-214.028 285.485 770.058
-213.049 284.868 766.538
-212.806 285.229 765.663
-212.563 285.589 764.79
-212.321 285.949 763.918
-211.598 285.658 761.317
-210.88 285.369 758.734
-210.88 286.049 758.734
-210.642 286.405 757.876
-210.642 287.085 757.876
-210.404 287.439 757.021
-210.167 287.793 756.167
-209.694 287.822 754.466
-209.223 287.851 752.773
-208.989 288.202 751.929
-208.755 288.553 751.087
-205.987 287.385 741.128
-205.987 288.049 741.128
-205.76 288.395 740.31
-205.533 288.74 739.493
-205.306 289.085 738.679
-204.406 288.476 735.439
-203.736 288.187 733.028
-203.513 288.529 732.228
-203.513 289.186 732.228
-203.513 289.842 732.228
-203.513 290.499 732.228
-252.468 272.486 911.305
-251.444 272.194 907.605
-251.444 273.007 907.605
-251.444 273.821 907.605
-251.104 274.264 906.379
-250.765 274.705 905.156
-249.419 274.038 900.296
-248.751 274.109 897.885
-248.087 274.18 895.488
-248.087 274.983 895.488
-247.426 275.051 893.103
-246.115 274.39 888.371
-245.789 274.823 887.196
-245.141 274.891 884.855
-245.141 275.684 884.855
-244.818 276.113 883.69
-244.174 276.178 881.367
-243.534 276.242 879.057
-242.898 276.306 876.759
-242.581 276.73 875.614
-241.949 276.793 873.334
-241.321 276.855 871.065
-241.321 277.636 871.065
-241.008 278.056 869.936
-240.695 278.474 868.809
-240.695 279.253 868.809
-240.384 279.67 867.685
-238.839 278.646 862.109
-238.227 278.702 859.898
-237.314 278.402 856.603
-236.709 278.459 854.421
-236.408 278.87 853.334
-236.108 279.28 852.25
-236.108 280.044 852.25
-235.808 280.451 851.168
-235.509 280.858 850.089
-234.914 280.908 847.94
-234.321 280.958 845.801
-233.732 281.008 843.673
-233.145 281.057 841.556
-232.853 281.458 840.502
-231.692 280.804 836.31
-231.115 280.854 834.229
-230.542 280.903 832.159
-230.256 281.3 831.128
-229.971 281.696 830.1
-229.687 282.091 829.073
-229.403 282.485 828.05
-229.121 282.879 827.029
-227.717 281.882 821.961
-226.606 281.241 817.952
-226.33 281.63 816.955
-226.33 282.363 816.955
-226.33 283.095 816.955
-225.78 283.138 814.97
-225.232 283.181 812.994
-224.96 283.566 812.01
-224.688 283.95 811.028
-224.416 284.333 810.049
-224.688 285.404 811.028
-224.416 285.786 810.049
-223.606 285.478 807.124
-222.535 284.83 803.258
-222.003 284.868 801.339
-217.839 281.64 786.308
-216.57 280.7 781.725
-216.822 281.729 782.638
-217.33 283.091 784.468
-217.33 283.794 784.468
-217.076 284.165 783.552
-216.822 284.536 782.638
-216.57 284.905 781.725
-216.318 285.273 780.815
-216.318 285.973 780.815
-216.066 286.34 779.907
-215.815 286.706 779.002
-214.322 285.415 773.611
-214.075 285.779 772.719
-213.337 285.485 770.058
-212.362 284.868 766.538
-211.878 284.904 764.79
-211.396 284.939 763.049
-210.677 284.652 760.454
-210.438 285.011 759.593
-210.2 285.369 758.734
-209.962 285.726 757.876
-209.962 286.405 757.876
-209.962 287.085 757.876
-209.726 287.439 757.021
-209.489 287.793 756.167
-208.783 287.499 753.618
-208.549 287.851 752.773
-208.315 288.202 751.929
-208.082 288.553 751.087
-206.693 287.296 746.074
-206.005 287.674 743.593
-205.322 287.385 741.128
-205.096 287.731 740.31
-205.096 288.395 740.31
-204.87 288.74 739.493
-204.644 289.085 738.679
-204.194 289.11 737.055
-203.301 288.503 733.83
-202.857 288.529 732.228
-203.078 289.502 733.028
-203.078 290.159 733.028
-251.651 272.486 911.305
-250.63 272.194 907.605
-250.291 272.639 906.379
-250.291 273.451 906.379
-250.291 274.264 906.379
-249.953 274.705 905.156
-248.945 274.406 901.506
-247.946 274.109 897.885
-247.614 274.546 896.685
-247.284 274.983 895.488
-246.954 275.418 894.294
-245.97 275.119 890.731
-244.994 274.823 887.196
-244.67 275.254 886.024
-244.026 275.321 883.69
-243.384 275.388 881.367
-243.065 275.815 880.211
-242.746 276.242 879.057
-242.112 276.306 876.759
-241.796 276.73 875.614
-241.48 277.154 874.472
-240.852 277.215 872.198
-240.54 277.636 871.065
-240.228 278.056 869.936
-239.916 278.474 868.809
-239.916 279.253 868.809
-238.988 278.948 865.446
-237.152 277.575 858.797
-235.344 276.223 852.25
-235.045 276.636 851.168
-234.747 277.047 850.089
-234.747 277.809 850.089
-234.747 278.572 850.089
-234.747 279.334 850.089
-234.747 280.096 850.089
-234.45 280.503 849.013
-234.154 280.908 847.94
-233.563 280.958 845.801
-233.269 281.362 844.736
-232.975 281.764 843.673
-232.683 282.166 842.614
-231.809 281.859 839.45
-230.367 280.854 834.229
-229.796 280.903 832.159
-229.227 280.952 830.1
-229.227 281.696 830.1
-228.944 282.091 829.073
-228.661 282.485 828.05
-228.379 282.879 827.029
-225.872 280.507 817.952
-225.872 281.241 817.952
-225.597 281.63 816.955
-225.323 282.019 815.962
-225.323 282.751 815.962
-224.232 282.11 812.01
-223.961 282.496 811.028
-223.69 282.881 810.049
-223.69 283.607 810.049
-223.42 283.99 809.072
-223.151 284.373 808.097
-223.151 285.097 808.097
-222.347 284.792 805.187
-221.815 284.83 803.258
-221.285 284.868 801.339
-217.644 281.595 788.156
-216.88 281.31 785.387
-215.869 280.7 781.725
-215.869 281.4 781.725
-216.121 282.43 782.638
-215.869 282.802 781.725
-215.869 283.503 781.725
-215.869 284.204 781.725
-215.618 284.573 780.815
-215.367 284.941 779.907
-215.117 285.309 779.002
-214.122 284.685 775.399
-213.875 285.05 774.504
-213.382 285.086 772.719
-213.136 285.45 771.83
-212.16 284.831 768.294
-211.433 284.542 765.663
-211.192 284.904 764.79
-210.472 284.616 762.182
-209.995 284.652 760.454
-209.757 285.011 759.593
-209.757 285.692 759.593
-209.52 286.049 758.734
-209.52 286.729 758.734
-209.283 287.085 757.876
-209.047 287.439 757.021
-208.811 287.793 756.167
-208.341 287.822 754.466
-207.641 287.528 751.929
-207.641 288.202 751.929
-207.176 288.23 750.247
-206.253 287.616 746.905
-205.111 287.356 742.769
-204.207 286.751 739.493
-204.207 287.414 739.493
-204.207 288.077 739.493
-204.207 288.74 739.493
-203.982 289.085 738.679
-203.533 289.11 737.055
-202.643 288.503 733.83
-202.2 288.529 732.228
-202.421 289.502 733.028
-202.2 289.842 732.228
-202.2 290.499 732.228
-250.155 272.563 908.835
-249.816 273.007 907.605
-249.816 273.821 907.605
-249.479 274.264 906.379
-249.142 274.705 905.156
-247.804 274.038 900.296
-247.141 274.109 897.885
-246.481 274.18 895.488
-246.81 275.35 896.685
-246.152 275.418 894.294
-244.522 274.39 888.371
-244.199 274.823 887.196
-243.876 275.254 886.024
-243.554 275.684 884.855
-243.233 276.113 883.69
-242.913 276.541 882.527
-242.276 276.605 880.211
-241.326 276.306 876.759
-241.011 276.73 875.614
-240.383 276.793 873.334
-239.759 276.855 871.065
-239.759 277.636 871.065
-239.137 277.695 868.809
-237.905 277.039 864.33
-236.989 276.744 861.002
-236.685 277.16 859.898
-235.778 276.866 856.603
-234.878 276.575 853.334
-234.58 276.987 852.25
-234.282 277.399 851.168
-234.282 278.162 851.168
-234.282 278.925 851.168
-234.282 279.688 851.168
-234.282 280.451 851.168
-233.985 280.858 850.089
-233.689 281.264 849.013
-233.393 281.668 847.94
-232.805 281.716 845.801
-232.219 281.764 843.673
-231.927 282.166 842.614
-231.056 281.859 839.45
-229.62 280.854 834.229
-229.05 280.903 832.159
-228.766 281.3 831.128
-228.483 281.696 830.1
-228.2 282.091 829.073
-227.919 282.485 828.05
-227.357 282.53 826.01
-226.243 281.882 821.961
-225.139 281.241 817.952
-225.139 281.974 817.952
-224.591 282.019 815.962
-224.318 282.407 814.97
-223.233 281.769 811.028
-222.964 282.155 810.049
-222.964 282.881 810.049
-222.695 283.265 809.072
-222.427 283.648 808.097
-222.159 284.031 807.124
-221.892 284.412 806.154
-221.626 284.792 805.187
-221.095 284.83 803.258
-220.566 284.868 801.339
-216.683 281.265 787.231
-216.176 281.31 785.387
-215.419 281.027 782.638
-215.419 281.729 782.638
-215.419 282.43 782.638
-215.168 282.802 781.725
-214.668 284.941 779.907
-214.169 284.978 778.098
-213.18 284.356 774.504
-212.934 284.722 773.611
-212.444 284.758 771.83
-211.471 284.143 768.294
-211.229 284.505 767.415
-210.988 284.868 766.538
-210.506 284.904 764.79
-210.027 284.939 763.049
-209.551 284.975 761.317
-209.313 285.334 760.454
-209.076 285.692 759.593
-209.076 286.373 759.593
-208.839 286.729 758.734
-208.604 287.085 757.876
-208.604 287.764 757.876
-208.368 288.118 757.021
-207.899 288.146 755.316
-207.199 287.851 752.773
-206.966 288.202 751.929
-206.735 288.553 751.087
-205.127 286.977 745.245
-204.899 287.326 744.418
-204.219 287.038 741.947
-203.768 287.068 740.31
-203.544 287.414 739.493
-203.544 288.077 739.493
-203.544 288.74 739.493
-203.319 289.085 738.679
-202.873 289.11 737.055
-201.985 288.503 733.83
-201.544 288.529 732.228
-201.544 289.186 732.228
-201.544 289.842 732.228
-201.324 290.182 731.429
-200.45 289.575 728.252
-249.678 273.748 910.068
-249.34 274.192 908.835
-249.002 274.635 907.605
-248.33 274.705 905.156
-246.336 273.304 897.885
-245.678 273.377 895.488
-244.698 273.086 891.915
-245.024 274.25 893.103
-244.373 274.32 890.731
-243.725 274.39 888.371
-243.403 274.823 887.196
-243.082 275.254 886.024
-242.761 275.684 884.855
-242.441 276.113 883.69
-242.122 276.541 882.527
-241.487 276.605 880.211
-240.854 276.668 877.906
-240.54 277.092 876.759
-239.912 277.154 874.472
-238.668 276.496 869.936
-238.358 276.916 868.809
-237.743 276.978 866.564
-236.825 276.682 863.218
-236.217 276.744 861.002
-235.914 277.16 859.898
-235.612 277.575 858.797
-234.71 277.28 855.511
-234.113 277.34 853.334
-233.815 277.751 852.25
-233.519 278.162 851.168
-233.519 278.925 851.168
-233.519 279.688 851.168
-233.519 280.451 851.168
-233.223 280.858 850.089
-233.223 281.62 850.089
-232.633 281.668 847.94
-232.046 281.716 845.801
-231.754 282.119 844.736
-231.172 282.166 842.614
-230.592 282.212 840.502
-229.157 281.204 835.268
-228.872 281.602 834.229
-228.304 281.649 832.159
-228.304 282.395 832.159
-228.021 282.79 831.128
-227.176 282.485 828.05
-226.617 282.53 826.01
-224.406 280.507 817.952
-224.406 281.241 817.952
-224.132 281.63 816.955
-223.588 281.677 814.97
-223.046 281.723 812.994
-222.506 281.769 811.028
-222.238 282.155 810.049
-222.238 282.881 810.049
-221.97 283.265 809.072
-221.435 283.307 807.124
-220.904 283.349 805.187
-220.639 283.73 804.221
-220.375 284.11 803.258
-220.375 284.83 803.258
-215.724 281.64 786.308
-214.467 280.7 781.725
-214.217 281.073 780.815
-214.217 281.773 780.815
-214.467 282.802 781.725
-212.978 284.318 776.297
-211.996 283.701 772.719
-211.996 284.394 772.719
-211.509 284.431 770.943
-210.782 284.143 768.294
-210.541 284.505 767.415
-210.06 284.542 765.663
-209.821 284.904 764.79
-209.582 285.264 763.918
-209.105 285.299 762.182
-208.868 285.658 761.317
-208.868 286.34 761.317
-208.631 286.697 760.454
-208.395 287.054 759.593
-208.159 287.409 758.734
-207.924 287.764 757.876
-207.689 288.118 757.021
-207.455 288.471 756.167
-206.524 287.851 752.773
-206.292 288.202 751.929
-205.831 288.23 750.247
-204.686 287.296 746.074
-204.232 287.326 744.418
-204.005 287.674 743.593
-203.329 287.385 741.128
-203.105 287.731 740.31
-203.105 288.395 740.31
-202.881 288.74 739.493
-202.657 289.085 738.679
-202.212 289.11 737.055
-201.107 288.187 733.028
-200.887 288.529 732.228
-200.887 289.186 732.228
-200.668 289.526 731.429
-200.45 289.866 730.632
-199.364 288.947 726.674
-249.2 274.12 911.305
-248.525 274.192 908.835
-248.189 274.635 907.605
-247.185 274.335 903.936
-245.531 273.304 897.885
-245.202 273.742 896.685
-244.223 273.45 893.103
-243.898 273.886 891.915
-243.574 274.32 890.731
-243.251 274.754 889.55
-242.929 275.187 888.371
-242.608 275.618 887.196
-242.287 276.049 886.024
-242.287 276.843 886.024
-241.968 277.271 884.855
-241.331 277.333 882.527
-240.067 276.668 877.906
-239.753 277.092 876.759
-239.44 277.515 875.614
-238.197 276.855 871.065
-237.888 277.276 869.936
-237.272 277.336 867.685
-236.966 277.755 866.564
-236.051 277.456 863.218
-235.445 277.516 861.002
-235.143 277.931 859.898
-234.541 277.989 857.699
-233.051 276.987 852.25
-232.756 277.399 851.168
-232.756 278.162 851.168
-232.756 278.925 851.168
-232.756 279.688 851.168
-232.461 280.096 850.089
-232.461 280.858 850.089
-232.461 281.62 850.089
-231.873 281.668 847.94
-231.58 282.072 846.869
-231.288 282.475 845.801
-230.706 282.52 843.673
-230.127 282.566 841.556
-228.693 281.554 836.31
-228.124 281.602 834.229
-227.84 281.999 833.193
-227.276 282.045 831.128
-226.994 282.44 830.1
-226.434 282.485 828.05
-225.876 282.53 826.01
-223.946 280.85 818.95
-223.946 281.584 818.95
-223.672 281.974 817.952
-222.587 281.335 813.981
-222.048 281.382 812.01
-221.779 281.769 811.028
-221.511 282.155 810.049
-221.511 282.881 810.049
-221.244 283.265 809.072
-220.446 282.966 806.154
-219.918 283.009 804.221
-219.654 283.39 803.258
-219.654 284.11 803.258
-219.392 284.49 802.297
-215.272 281.265 787.231
-214.016 280.325 782.638
-213.517 280.373 780.815
-213.517 281.073 780.815
-213.517 281.773 780.815
-212.036 283.99 775.399
-211.547 284.028 773.611
-211.303 284.394 772.719
-211.06 284.758 771.83
-210.576 284.795 770.058
-209.613 284.18 766.538
-209.374 284.542 765.663
-209.135 284.904 764.79
-208.897 285.264 763.918
-208.185 284.975 761.317
-208.185 285.658 761.317
-208.185 286.34 761.317
-207.714 286.373 759.593
-207.479 286.729 758.734
-207.245 287.085 757.876
-207.011 287.439 757.021
-206.777 287.793 756.167
-206.312 287.822 754.466
-205.618 287.528 751.929
-205.388 287.88 751.087
-205.158 288.23 750.247
-204.017 287.296 746.074
-203.564 287.326 744.418
-203.339 287.674 743.593
-202.889 287.703 741.947
-202.441 287.731 740.31
-202.218 288.077 739.493
-202.218 288.74 739.493
-201.995 289.085 738.679
-201.551 289.11 737.055
-200.45 288.187 733.028
-200.231 288.529 732.228
-200.012 288.87 731.429
-200.012 289.526 731.429
-199.36 289.236 729.044
-198.712 288.947 726.674
-247.71 274.192 908.835
-247.375 274.635 907.605
-246.707 274.705 905.156
-245.054 273.67 899.089
-244.398 273.742 896.685
-243.422 273.45 893.103
-242.454 273.159 889.55
-242.454 273.957 889.55
-242.133 274.39 888.371
-242.133 275.187 888.371
-241.812 275.618 887.196
-241.493 276.049 886.024
-241.493 276.843 886.024
-241.493 277.637 886.024
-241.174 278.064 884.855
-239.908 277.394 880.211
-239.594 277.818 879.057
-238.967 277.878 876.759
-237.724 277.215 872.198
-237.108 277.276 869.936
-236.494 277.336 867.685
-236.494 278.114 867.685
-234.974 277.1 862.109
-234.673 277.516 861.002
-234.072 277.575 858.797
-233.474 277.634 856.603
-232.287 276.987 852.25
-232.287 277.751 852.25
-231.992 278.162 851.168
-231.992 278.925 851.168
-231.992 279.688 851.168
-231.992 280.451 851.168
-231.698 280.858 850.089
-231.698 281.62 850.089
-231.698 282.382 850.089
-231.405 282.786 849.013
-231.113 283.189 847.94
-230.239 282.876 844.736
-229.661 282.921 842.614
-227.943 281.554 836.31
-227.093 281.252 833.193
-225.97 280.605 829.073
-225.413 280.654 827.029
-225.691 281.743 828.05
-225.136 281.79 826.01
-224.859 282.183 824.994
-223.758 281.537 820.955
-223.211 281.584 818.95
-222.939 281.974 817.952
-222.126 281.677 814.97
-221.32 281.382 812.01
-221.052 281.769 811.028
-220.785 282.155 810.049
-220.785 282.881 810.049
-220.253 282.924 808.097
-219.46 282.627 805.187
-218.934 282.67 803.258
-218.934 283.39 803.258
-218.672 283.77 802.297
-214.818 280.182 788.156
-214.314 280.23 786.308
-214.566 281.265 787.231
-213.813 280.981 784.468
-213.314 281.027 782.638
-213.314 281.729 782.638
-213.065 282.101 781.725
-212.817 282.473 780.815
-211.097 283.662 774.504
-210.611 283.701 772.719
-210.368 284.066 771.83
-210.368 284.758 771.83
-209.885 284.795 770.058
-208.926 284.18 766.538
-208.687 284.542 765.663
-208.449 284.904 764.79
-207.975 284.939 763.049
-207.268 284.652 760.454
-207.268 285.334 760.454
-207.268 286.016 760.454
-207.033 286.373 759.593
-206.799 286.729 758.734
-206.565 287.085 757.876
-206.099 287.115 756.167
-205.636 287.146 754.466
-205.636 287.822 754.466
-204.944 287.528 751.929
-204.944 288.202 751.929
-204.486 288.23 750.247
-203.348 287.296 746.074
-202.897 287.326 744.418
-202.672 287.674 743.593
-201.777 287.068 740.31
-201.555 287.414 739.493
-201.333 287.76 738.679
-201.333 288.422 738.679
-201.111 288.767 737.866
-200.23 288.16 734.634
-199.792 288.187 733.028
-199.357 288.215 731.429
-199.139 288.556 730.632
-199.357 289.526 731.429
-198.061 288.296 726.674
-197.846 288.634 725.888
-247.23 274.564 910.068
-246.895 275.007 908.835
-246.228 275.076 906.379
-243.921 273.304 897.885
-243.594 273.742 896.685
-242.299 273.086 891.915
-241.977 273.522 890.731
-241.977 274.32 890.731
-241.656 274.754 889.55
-241.336 275.187 888.371
-241.336 275.983 888.371
-241.017 276.414 887.196
-241.017 277.209 887.196
-240.698 277.637 886.024
-240.698 278.432 886.024
-239.748 278.124 882.527
-238.806 277.818 879.057
-238.181 277.878 876.759
-236.942 277.215 872.198
-236.328 277.276 869.936
-236.022 277.695 868.809
-235.716 278.114 867.685
-234.201 277.1 862.109
-233.601 277.16 859.898
-233.302 277.575 858.797
-232.706 277.634 856.603
-231.523 276.987 852.25
-231.523 277.751 852.25
-231.229 278.162 851.168
-231.229 278.925 851.168
-231.229 279.688 851.168
-231.229 280.451 851.168
-231.229 281.215 851.168
-230.936 281.62 850.089
-230.936 282.382 850.089
-230.936 283.145 850.089
-230.644 283.547 849.013
-229.193 282.52 843.673
-228.618 282.566 841.556
-226.628 280.854 834.229
-224.672 279.171 827.029
-224.395 279.568 826.01
-224.395 280.309 826.01
-224.672 281.396 827.029
-224.395 281.79 826.01
-224.119 282.183 824.994
-223.569 282.228 822.97
-223.022 282.273 820.955
-222.206 281.974 817.952
-221.665 282.019 815.962
-220.859 281.723 812.994
-220.325 281.769 811.028
-220.059 282.155 810.049
-220.059 282.881 810.049
-219.529 282.924 808.097
-218.738 282.627 805.187
-218.214 282.67 803.258
-217.953 283.051 802.297
-217.953 283.77 802.297
-216.915 283.135 798.477
-214.363 280.512 789.083
-213.86 280.559 787.231
-213.86 281.265 787.231
-213.609 281.64 786.308
-213.11 281.684 784.468
-213.11 282.388 784.468
-213.359 283.423 785.387
-212.612 283.132 782.638
-210.646 283.99 775.399
-209.918 283.701 772.719
-209.676 284.066 771.83
-209.676 284.758 771.83
-209.435 285.122 770.943
-208.477 284.505 767.415
-208.238 284.868 766.538
-208.001 285.229 765.663
-207.527 285.264 763.918
-206.586 284.652 760.454
-206.82 285.658 761.317
-206.586 286.016 760.454
-206.352 286.373 759.593
-206.118 286.729 758.734
-205.886 287.085 757.876
-205.421 287.115 756.167
-204.959 287.146 754.466
-204.959 287.822 754.466
-204.499 287.851 752.773
-204.27 288.202 751.929
-203.358 287.587 748.572
-202.454 286.977 745.245
-202.229 287.326 744.418
-201.558 287.038 741.947
-200.892 286.751 739.493
-200.67 287.098 738.679
-200.67 287.76 738.679
-200.67 288.422 738.679
-200.45 288.767 737.866
-199.571 288.16 734.634
-199.135 288.187 733.028
-198.701 288.215 731.429
-198.701 288.87 731.429
-198.484 289.211 730.632
-197.409 288.296 726.674
-245.747 274.635 907.605
-244.754 274.335 903.936
-243.441 273.67 899.089
-242.791 273.742 896.685
-242.143 273.814 894.294
-241.821 274.25 893.103
-241.821 275.051 893.103
-241.499 275.485 891.915
-241.499 276.285 891.915
-240.859 276.349 889.55
-240.54 276.78 888.371
-240.221 277.209 887.196
-240.221 278.005 887.196
-239.904 278.432 886.024
-239.272 278.49 883.69
-238.017 277.818 879.057
-237.395 277.878 876.759
-236.16 277.215 872.198
-235.548 277.276 869.936
-235.243 277.695 868.809
-234.938 278.114 867.685
-233.428 277.1 862.109
-232.83 277.16 859.898
-232.532 277.575 858.797
-231.938 277.634 856.603
-231.053 277.34 853.334
-230.759 277.751 852.25
-230.466 278.162 851.168
-230.466 278.925 851.168
-230.466 279.688 851.168
-230.466 280.451 851.168
-230.466 281.215 851.168
-230.174 281.62 850.089
-229.883 282.025 849.013
-229.883 282.786 849.013
-229.592 283.189 847.94
-228.437 282.52 843.673
-225.88 280.106 834.229
-225.319 280.157 832.159
-224.484 279.861 829.073
-224.207 280.258 828.05
-223.93 280.654 827.029
-224.207 281.743 828.05
-223.93 282.137 827.029
-223.654 282.53 826.01
-223.105 282.575 823.981
-223.105 283.314 823.981
-221.472 281.974 817.952
-220.934 282.019 815.962
-220.13 281.723 812.994
-219.598 281.769 811.028
-219.598 282.496 811.028
-219.333 282.881 810.049
-219.068 283.265 809.072
-217.755 282.288 804.221
-217.494 282.67 803.258
-217.234 283.051 802.297
-217.234 283.77 802.297
-216.715 283.811 800.382
-213.907 280.842 790.012
-213.405 280.889 788.156
-213.154 281.265 787.231
-212.904 281.64 786.308
-212.904 282.345 786.308
-212.904 283.05 786.308
-212.904 283.755 786.308
-212.655 284.127 785.387
-212.158 284.165 783.552
-209.951 283.294 775.399
-210.681 284.978 778.098
-209.951 284.685 775.399
-209.466 284.722 773.611
-209.225 285.086 772.719
-208.984 285.45 771.83
-208.027 284.831 768.294
-207.551 284.868 766.538
-207.314 285.229 765.663
-206.372 284.616 762.182
-205.671 284.33 759.593
-205.671 285.011 759.593
-205.671 285.692 759.593
-205.671 286.373 759.593
-205.438 286.729 758.734
-205.206 287.085 757.876
-204.743 287.115 756.167
-204.513 287.469 755.316
-204.283 287.822 754.466
-203.824 287.851 752.773
-203.596 288.202 751.929
-203.14 288.23 750.247
-202.01 287.296 746.074
-201.562 287.326 744.418
-200.893 287.038 741.947
-200.229 286.751 739.493
-200.008 287.098 738.679
-199.788 287.443 737.866
-199.788 288.105 737.866
-199.569 288.449 737.055
-199.131 288.476 735.439
-198.695 288.503 733.83
-198.261 288.529 732.228
-198.261 289.186 732.228
-198.045 289.526 731.429
-196.545 287.984 725.888
-245.266 275.007 908.835
-244.273 274.705 905.156
-242.961 274.038 900.296
-242.311 274.109 897.885
-241.664 274.18 895.488
-241.664 274.983 895.488
-241.664 275.785 895.488
-241.664 276.588 895.488
-241.341 277.021 894.294
-241.341 277.823 894.294
-240.061 277.147 889.55
-239.743 277.576 888.371
-239.743 278.373 888.371
-239.426 278.8 887.196
-238.794 278.858 884.855
-237.541 278.183 880.211
-236.609 277.878 876.759
-235.992 277.938 874.472
-235.073 277.636 871.065
-234.464 277.695 868.809
-234.16 278.114 867.685
-233.556 278.172 865.446
-232.357 277.516 861.002
-232.059 277.931 859.898
-231.465 277.989 857.699
-230.288 277.34 853.334
-229.995 277.751 852.25
-229.703 278.162 851.168
-229.703 278.925 851.168
-229.703 279.688 851.168
-229.703 280.451 851.168
-229.703 281.215 851.168
-229.412 281.62 850.089
-228.832 281.668 847.94
-228.255 281.716 845.801
-228.255 282.475 845.801
-227.109 281.812 841.556
-226.257 281.506 838.401
-225.132 280.854 834.229
-224.852 281.252 833.193
-224.295 281.3 831.128
-223.74 281.348 829.073
-224.295 282.79 831.128
-223.189 282.137 827.029
-222.64 282.183 824.994
-222.366 282.575 823.981
-222.093 282.966 822.97
-220.739 281.974 817.952
-220.202 282.019 815.962
-219.136 281.382 812.01
-218.871 281.769 811.028
-218.606 282.155 810.049
-218.343 282.54 809.072
-217.817 282.583 807.124
-217.034 282.288 804.221
-216.774 282.67 803.258
-216.774 283.39 803.258
-216.514 283.77 802.297
-216.514 284.49 802.297
-213.702 281.505 791.878
-212.948 281.219 789.083
-212.698 281.595 788.156
-212.448 281.97 787.231
-212.199 282.345 786.308
-212.199 283.05 786.308
-212.199 283.755 786.308
-212.199 284.46 786.308
-211.951 284.831 785.387
-210.963 284.204 781.725
-210.717 284.573 780.815
-210.717 285.273 780.815
-210.472 285.641 779.907
-209.014 284.356 774.504
-208.532 284.394 772.719
-208.292 284.758 771.83
-208.053 285.122 770.943
-207.101 284.505 767.415
-206.864 284.868 766.538
-206.392 284.904 764.79
-205.689 284.616 762.182
-204.99 284.33 759.593
-205.222 285.334 760.454
-204.99 285.692 759.593
-204.99 286.373 759.593
-204.758 286.729 758.734
-204.527 287.085 757.876
-204.296 287.439 757.021
-204.065 287.793 756.167
-204.065 288.471 756.167
-203.378 288.174 753.618
-203.149 288.526 752.773
-202.922 288.877 751.929
-202.016 288.258 748.572
-200.895 287.326 744.418
-200.45 287.356 742.769
-199.566 286.751 739.493
-199.566 287.414 739.493
-199.346 287.76 738.679
-199.346 288.422 738.679
-199.346 289.085 738.679
-199.127 289.428 737.866
-198.037 288.503 733.83
-197.605 288.529 732.228
-197.389 288.87 731.429
-197.174 289.211 730.632
-196.106 288.296 726.674
-243.79 275.076 906.379
-243.461 275.517 905.156
-241.829 274.476 899.089
-241.183 274.546 896.685
-240.861 274.983 895.488
-240.861 275.785 895.488
-240.861 276.588 895.488
-240.861 277.391 895.488
-240.861 278.194 895.488
-240.219 278.254 893.103
-239.263 277.944 889.55
-238.947 278.373 888.371
-238.63 278.8 887.196
-238.001 278.858 884.855
-237.063 278.549 881.367
-236.132 278.242 877.906
-235.823 278.664 876.759
-234.902 278.359 873.334
-233.988 278.056 869.936
-233.685 278.474 868.809
-233.382 278.892 867.685
-231.585 277.516 861.002
-231.288 277.931 859.898
-230.402 277.634 856.603
-229.231 276.987 852.25
-229.231 277.751 852.25
-228.94 278.162 851.168
-228.94 278.925 851.168
-228.94 279.688 851.168
-228.94 280.451 851.168
-228.65 280.858 850.089
-228.65 281.62 850.089
-228.072 281.668 847.94
-227.496 281.716 845.801
-227.784 282.831 846.869
-226.924 282.52 843.673
-226.355 282.566 841.556
-224.384 280.854 834.229
-223.827 280.903 832.159
-222.997 280.605 829.073
-222.722 281.001 828.05
-222.722 281.743 828.05
-222.173 281.79 826.01
-221.9 282.183 824.994
-221.355 282.228 822.97
-221.084 282.619 821.961
-220.274 282.318 818.95
-219.47 282.019 815.962
-218.143 281.042 811.028
-217.88 281.428 810.049
-217.617 281.814 809.072
-217.355 282.199 808.097
-216.833 282.244 806.154
-216.053 281.95 803.258
-215.795 282.332 802.297
-215.795 283.051 802.297
-215.537 283.431 801.339
-214.767 283.135 798.477
-213.244 281.838 792.814
-212.491 281.55 790.012
-211.991 281.595 788.156
-211.743 281.97 787.231
-211.743 282.676 787.231
-211.494 283.05 786.308
-211.494 283.755 786.308
-211.494 284.46 786.308
-211 284.498 784.468
-210.017 283.873 780.815
-209.773 284.242 779.907
-209.773 284.941 779.907
-208.56 283.99 775.399
-207.839 283.701 772.719
-207.6 284.066 771.83
-207.6 284.758 771.83
-207.124 284.795 770.058
-206.413 284.505 767.415
-206.177 284.868 766.538
-205.941 285.229 765.663
-205.472 285.264 763.918
-204.773 284.975 761.317
-204.773 285.658 761.317
-204.773 286.34 761.317
-204.54 286.697 760.454
-204.078 286.729 758.734
-203.847 287.085 757.876
-203.617 287.439 757.021
-203.387 287.793 756.167
-203.387 288.471 756.167
-202.93 288.499 754.466
-202.702 288.85 753.618
-202.247 288.877 751.929
-201.12 287.937 747.737
-200.227 287.326 744.418
-200.005 287.674 743.593
-199.342 287.385 741.128
-198.903 287.414 739.493
-198.903 288.077 739.493
-198.903 288.74 739.493
-198.684 289.085 738.679
-198.465 289.428 737.866
-197.379 288.503 733.83
-196.948 288.529 732.228
-196.734 288.87 731.429
-195.879 288.269 728.252
-195.032 287.672 725.103
-193.567 286.157 719.657
-243.966 276.196 910.068
-242.65 275.517 905.156
-241.347 274.845 900.296
-240.379 274.546 896.685
-240.379 275.35 896.685
-240.058 275.785 895.488
-240.058 276.588 895.488
-240.058 277.391 895.488
-240.058 278.194 895.488
-239.1 277.884 891.915
-238.466 277.944 889.55
-238.15 278.373 888.371
-237.835 278.8 887.196
-237.208 278.858 884.855
-236.272 278.549 881.367
-235.345 278.242 877.906
-235.037 278.664 876.759
-234.424 278.722 874.472
-233.208 278.056 869.936
-232.906 278.474 868.809
-232.304 278.532 866.564
-230.517 277.16 859.898
-229.927 277.22 857.699
-229.049 276.927 854.421
-228.467 276.987 852.25
-228.467 277.751 852.25
-228.177 278.162 851.168
-228.177 278.925 851.168
-228.177 279.688 851.168
-227.888 280.096 850.089
-227.888 280.858 850.089
-227.888 281.62 850.089
-227.311 281.668 847.94
-227.311 282.429 847.94
-227.599 283.547 849.013
-226.168 282.52 843.673
-224.194 280.804 836.31
-223.636 280.854 834.229
-223.081 280.903 832.159
-222.805 281.3 831.128
-222.254 281.348 829.073
-221.979 281.743 828.05
-221.706 282.137 827.029
-221.433 282.53 826.01
-221.16 282.922 824.994
-220.889 283.314 823.981
-219.54 282.318 818.95
-218.739 282.019 815.962
-217.416 281.042 811.028
-216.892 281.089 809.072
-216.892 281.814 809.072
-216.37 281.86 807.124
-215.333 281.23 803.258
-215.076 281.613 802.297
-214.819 281.995 801.339
-214.562 282.376 800.382
-214.819 283.431 801.339
-214.052 283.135 798.477
-212.785 282.171 793.752
-212.533 282.549 792.814
-211.533 281.926 789.083
-211.037 281.97 787.231
-211.037 282.676 787.231
-211.037 283.382 787.231
-210.789 283.755 786.308
-210.789 284.46 786.308
-210.296 284.498 784.468
-208.589 284.28 778.098
-207.386 283.334 773.611
-207.147 283.701 772.719
-206.908 284.066 771.83
-206.908 284.758 771.83
-206.67 285.122 770.943
-206.196 285.158 769.175
-205.96 285.52 768.294
-205.489 285.555 766.538
-205.255 285.915 765.663
-204.09 284.975 761.317
-204.322 285.982 762.182
-204.09 286.34 761.317
-203.628 286.373 759.593
-203.397 286.729 758.734
-203.168 287.085 757.876
-202.709 287.115 756.167
-202.253 287.146 754.466
-202.026 287.499 753.618
-201.799 287.851 752.773
-201.799 288.526 752.773
-201.347 288.553 751.087
-200.004 287.296 746.074
-199.56 287.326 744.418
-199.338 287.674 743.593
-198.678 287.385 741.128
-198.24 287.414 739.493
-198.24 288.077 739.493
-198.24 288.74 739.493
-198.021 289.085 738.679
-197.803 289.428 737.866
-196.506 288.187 733.028
-196.078 288.215 731.429
-195.226 287.616 728.252
-194.803 287.644 726.674
-194.382 287.672 725.103
-193.129 286.464 720.43
-242.165 275.889 906.379
-240.863 275.214 901.506
-239.575 274.546 896.685
-239.575 275.35 896.685
-239.255 275.785 895.488
-238.936 276.22 894.294
-238.936 277.021 894.294
-238.936 277.823 894.294
-237.984 277.515 890.731
-237.354 277.576 888.371
-237.354 278.373 888.371
-237.04 278.8 887.196
-236.414 278.858 884.855
-235.482 278.549 881.367
-234.558 278.242 877.906
-234.251 278.664 876.759
-233.032 277.997 872.198
-232.428 278.056 869.936
-231.827 278.114 867.685
-230.93 277.814 864.33
-229.746 277.16 859.898
-228.866 276.866 856.603
-227.703 276.223 852.25
-227.414 276.636 851.168
-227.125 277.047 850.089
-227.125 277.809 850.089
-227.125 278.572 850.089
-227.125 279.334 850.089
-226.838 279.741 849.013
-226.838 280.503 849.013
-226.838 281.264 849.013
-226.265 281.313 846.869
-225.98 281.716 845.801
-225.98 282.475 845.801
-225.128 282.166 842.614
-223.723 281.155 837.354
-222.888 280.854 834.229
-222.888 281.602 834.229
-222.611 281.999 833.193
-222.059 282.045 831.128
-221.51 282.091 829.073
-220.964 282.137 827.029
-220.692 282.53 826.01
-220.692 283.271 826.01
-220.692 284.011 826.01
-219.61 283.356 821.961
-217.742 281.677 814.97
-216.166 280.363 809.072
-216.166 281.089 809.072
-215.906 281.475 808.097
-215.128 281.183 805.187
-214.613 281.23 803.258
-214.356 281.613 802.297
-214.356 282.332 802.297
-214.356 283.051 802.297
-214.356 283.77 802.297
-213.845 283.811 800.382
-212.325 282.506 794.692
-212.073 282.883 793.752
-211.573 282.925 791.878
-210.826 282.634 789.083
-210.578 283.008 788.156
-210.578 283.715 788.156
-210.331 284.088 787.231
-210.084 284.46 786.308
-209.593 284.498 784.468
-208.374 283.543 779.907
-208.132 283.912 779.002
-207.65 283.951 777.196
-206.454 283.008 772.719
-206.216 283.374 771.83
-206.216 284.066 771.83
-206.454 285.086 772.719
-206.216 285.45 771.83
-205.979 285.814 770.943
-205.743 286.176 770.058
-205.271 286.209 768.294
-204.568 285.915 765.663
-203.407 284.975 761.317
-203.639 285.982 762.182
-203.407 286.34 761.317
-202.947 286.373 759.593
-202.717 286.729 758.734
-202.26 286.761 757.021
-201.577 286.469 754.466
-201.125 286.501 752.773
-201.125 287.176 752.773
-200.899 287.528 751.929
-200.674 287.88 751.087
-200.002 287.587 748.572
-199.335 287.296 746.074
-199.113 287.645 745.245
-198.892 287.993 744.418
-198.452 288.021 742.769
-197.795 287.731 740.31
-197.577 288.077 739.493
-197.577 288.74 739.493
-197.359 289.085 738.679
-197.142 289.428 737.866
-195.849 288.187 733.028
-195.422 288.215 731.429
-194.573 287.616 728.252
-194.152 287.644 726.674
-193.941 287.984 725.888
-192.69 286.772 721.205
-241.026 275.517 905.156
-239.411 274.476 899.089
-238.771 274.546 896.685
-238.452 274.983 895.488
-238.452 275.785 895.488
-238.134 276.22 894.294
-238.134 277.021 894.294
-238.134 277.823 894.294
-237.185 277.515 890.731
-236.871 277.944 889.55
-236.557 278.373 888.371
-236.244 278.8 887.196
-235.31 278.49 883.69
-234.077 277.818 879.057
-233.465 277.878 876.759
-232.856 277.938 874.472
-231.949 277.636 871.065
-231.648 278.056 869.936
-231.348 278.474 868.809
-229.859 277.456 863.218
-228.682 276.805 858.797
-227.227 275.809 853.334
-226.651 275.873 851.168
-226.363 276.285 850.089
-226.363 277.047 850.089
-226.077 277.458 849.013
-226.077 278.219 849.013
-225.791 278.627 847.94
-225.791 279.388 847.94
-225.506 279.794 846.869
-225.506 280.553 846.869
-225.221 280.958 845.801
-224.938 281.362 844.736
-224.938 282.119 844.736
-224.373 282.166 842.614
-223.53 281.859 839.45
-222.417 281.204 835.268
-222.417 281.952 835.268
-221.864 281.999 833.193
-221.314 282.045 831.128
-220.767 282.091 829.073
-220.223 282.137 827.029
-219.951 282.53 826.01
-219.681 282.922 824.994
-219.681 283.662 824.994
-218.338 282.663 819.952
-215.962 280.314 811.028
-215.701 280.702 810.049
-215.441 281.089 809.072
-215.441 281.814 809.072
-214.923 281.86 807.124
-213.893 281.23 803.258
-213.637 281.613 802.297
-213.637 282.332 802.297
-213.637 283.051 802.297
-213.382 283.431 801.339
-213.127 283.811 800.382
-211.863 282.841 795.635
-211.612 283.218 794.692
-211.362 283.595 793.752
-211.112 283.97 792.814
-210.863 284.345 791.878
-210.118 284.049 789.083
-209.871 284.422 788.156
-209.625 284.794 787.231
-209.379 285.165 786.308
-207.675 283.543 779.907
-207.434 283.912 779.002
-206.236 282.967 774.504
-205.761 283.008 772.719
-205.524 283.374 771.83
-205.524 284.066 771.83
-205.761 285.086 772.719
-205.761 285.779 772.719
-205.524 286.142 771.83
-205.288 286.505 770.943
-204.349 285.882 767.415
-203.649 285.589 764.79
-202.495 284.652 760.454
-202.725 285.658 761.317
-202.495 286.016 760.454
-202.266 286.373 759.593
-202.037 286.729 758.734
-201.809 287.085 757.876
-201.127 286.792 755.316
-200.45 286.501 752.773
-200.225 286.854 751.929
-200.225 287.528 751.929
-200.001 287.88 751.087
-199.109 287.266 747.737
-198.666 287.296 746.074
-198.445 287.645 745.245
-198.225 287.993 744.418
-198.005 288.341 743.593
-197.349 288.049 741.128
-197.131 288.395 740.31
-196.914 288.74 739.493
-196.697 289.085 738.679
-196.48 289.428 737.866
-195.192 288.187 733.028
-194.979 288.529 732.228
-194.342 288.242 729.837
-193.71 287.956 727.462
-192.873 287.362 724.32
-192.044 286.772 721.205
-240.215 275.517 905.156
-238.925 274.845 900.296
-238.285 274.914 897.885
-237.967 275.35 896.685
-237.649 275.785 895.488
-237.649 276.588 895.488
-237.649 277.391 895.488
-237.649 278.194 895.488
-237.016 278.254 893.103
-236.701 278.684 891.915
-236.073 278.742 889.55
-235.449 278.8 887.196
-234.21 278.124 882.527
-233.289 277.818 879.057
-232.983 278.242 877.906
-232.679 278.664 876.759
-232.375 279.086 875.614
-231.468 278.779 872.198
-230.868 278.836 869.936
-228.791 277.1 862.109
-227.04 275.746 855.511
-226.174 275.459 852.25
-225.887 275.873 851.168
-225.887 276.636 851.168
-225.601 277.047 850.089
-225.316 277.458 849.013
-225.316 278.219 849.013
-225.031 278.627 847.94
-225.031 279.388 847.94
-225.031 280.148 847.94
-225.031 280.908 847.94
-224.747 281.313 846.869
-224.747 282.072 846.869
-225.031 283.189 847.94
-223.898 282.52 843.673
-223.057 282.212 840.502
-221.392 280.854 834.229
-221.117 281.252 833.193
-220.843 281.649 832.159
-220.024 281.348 829.073
-220.024 282.091 829.073
-219.481 282.137 827.029
-218.941 282.922 824.994
-218.941 283.662 824.994
-217.603 282.663 819.952
-215.235 280.314 811.028
-214.716 280.363 809.072
-214.716 281.089 809.072
-214.457 281.475 808.097
-213.428 280.846 804.221
-212.918 280.893 802.297
-212.663 281.276 801.339
-212.663 281.995 801.339
-212.41 282.376 800.382
-212.41 283.093 800.382
-211.904 283.135 798.477
-211.15 282.841 795.635
-210.9 283.218 794.692
-210.65 283.595 793.752
-210.401 283.97 792.814
-210.153 284.345 791.878
-209.658 284.383 790.012
-209.165 284.422 788.156
-208.919 284.794 787.231
-208.674 285.165 786.308
-206.976 283.543 779.907
-206.496 283.583 778.098
-205.305 282.641 773.611
-205.068 283.008 772.719
-204.832 283.374 771.83
-204.832 284.066 771.83
-205.068 285.086 772.719
-204.832 285.45 771.83
-204.597 285.814 770.943
-204.362 286.176 770.058
-203.66 285.882 767.415
-203.195 285.915 765.663
-202.502 285.624 763.049
-202.502 286.308 763.049
-202.042 286.34 761.317
-201.813 286.697 760.454
-201.357 286.729 758.734
-201.129 287.085 757.876
-200.224 286.469 754.466
-199.775 286.501 752.773
-199.551 286.854 751.929
-199.327 287.206 751.087
-199.104 287.558 750.247
-198.66 287.587 748.572
-198.217 287.616 746.905
-197.777 287.645 745.245
-197.777 288.313 745.245
-197.557 288.661 744.418
-196.902 288.368 741.947
-196.467 288.395 740.31
-196.467 289.059 740.31
-196.034 289.085 738.679
-195.819 289.428 737.866
-194.535 288.187 733.028
-194.11 288.215 731.429
-193.058 287.304 727.462
-192.64 287.333 725.888
-192.016 287.052 723.539
-191.397 286.772 721.205
-239.403 275.517 905.156
-237.799 274.476 899.089
-237.48 274.914 897.885
-237.163 275.35 896.685
-236.846 275.785 895.488
-236.846 276.588 895.488
-236.846 277.391 895.488
-236.846 278.194 895.488
-236.531 278.625 894.294
-235.901 278.684 891.915
-235.588 279.112 890.731
-234.653 278.8 887.196
-234.034 278.858 884.855
-233.112 278.549 881.367
-232.501 278.607 879.057
-232.196 279.029 877.906
-232.196 279.816 877.906
-231.893 280.236 876.759
-230.387 279.198 871.065
-228.018 277.1 862.109
-226.852 276.451 857.699
-225.697 275.809 853.334
-225.41 276.223 852.25
-225.124 276.636 851.168
-225.124 277.399 851.168
-224.839 277.809 850.089
-224.839 278.572 850.089
-224.27 278.627 847.94
-224.27 279.388 847.94
-224.27 280.148 847.94
-224.27 280.908 847.94
-223.423 280.604 844.736
-223.142 281.008 843.673
-223.142 281.764 843.673
-222.582 281.812 841.556
-221.471 281.155 837.354
-220.919 281.204 835.268
-220.644 281.602 834.229
-220.37 281.999 833.193
-219.28 281.348 829.073
-219.01 281.743 828.05
-218.47 281.79 826.01
-218.202 282.922 824.994
-218.202 283.662 824.994
-216.868 282.663 819.952
-214.249 279.976 810.049
-213.99 280.363 809.072
-213.99 281.089 809.072
-213.732 281.475 808.097
-212.963 281.183 805.187
-212.453 281.23 803.258
-212.198 281.613 802.297
-212.198 282.332 802.297
-211.945 282.713 801.339
-210.686 281.748 796.58
-210.937 282.798 797.527
-210.436 282.841 795.635
-210.187 283.218 794.692
-209.938 283.595 793.752
-209.443 283.635 791.878
-209.443 284.345 791.878
-209.196 284.719 790.944
-208.458 284.422 788.156
-207.969 284.46 786.308
-206.757 283.503 781.725
-205.798 282.885 778.098
-205.56 283.254 777.196
-204.847 282.967 774.504
-204.375 283.008 772.719
-204.14 283.374 771.83
-204.375 284.394 772.719
-204.375 285.086 772.719
-204.375 285.779 772.719
-204.14 286.142 771.83
-203.906 286.505 770.943
-203.438 286.537 769.175
-202.74 286.242 766.538
-202.278 286.275 764.79
-202.278 286.961 764.79
-202.048 287.319 763.918
-201.589 287.349 762.182
-200.904 287.054 759.593
-200.676 287.409 758.734
-200.223 287.439 757.021
-199.1 286.501 752.773
-198.877 286.854 751.929
-198.654 287.206 751.087
-198.654 287.88 751.087
-198.432 288.23 750.247
-197.768 287.937 747.737
-197.328 287.965 746.074
-197.109 288.313 745.245
-196.89 288.661 744.418
-196.454 288.687 742.769
-196.02 288.714 741.128
-195.803 289.059 740.31
-195.588 289.403 739.493
-195.372 289.747 738.679
-193.877 288.187 733.028
-193.244 287.901 730.632
-192.197 286.993 726.674
-191.989 287.333 725.888
-191.574 287.362 724.32
-191.162 287.39 722.759
-239.562 275.822 908.835
-238.592 275.517 905.156
-237.63 275.214 901.506
-236.993 275.282 899.089
-236.675 275.719 897.885
-236.359 276.154 896.685
-236.043 276.588 895.488
-236.043 277.391 895.488
-236.359 278.566 896.685
-236.043 278.997 895.488
-235.415 279.055 893.103
-234.79 279.112 890.731
-233.858 278.8 887.196
-233.549 279.226 886.024
-233.241 279.651 884.855
-232.321 279.339 881.367
-231.712 279.395 879.057
-231.409 279.816 877.906
-231.107 280.236 876.759
-229.606 279.198 871.065
-227.831 277.814 864.33
-226.372 276.805 858.797
-225.506 276.513 855.511
-224.932 276.575 853.334
-224.646 276.987 852.25
-224.646 277.751 852.25
-224.361 278.162 851.168
-224.361 278.925 851.168
-224.077 279.334 850.089
-224.077 280.096 850.089
-223.793 280.503 849.013
-223.51 280.908 847.94
-222.666 280.604 844.736
-222.386 281.008 843.673
-222.386 281.764 843.673
-222.106 282.166 842.614
-221.55 282.212 840.502
-220.17 281.204 835.268
-219.896 281.602 834.229
-219.623 281.999 833.193
-218.537 281.348 829.073
-218.267 281.743 828.05
-217.462 282.922 824.994
-217.462 283.662 824.994
-215.869 282.318 818.95
-213.265 279.638 809.072
-213.265 280.363 809.072
-213.008 280.75 808.097
-213.008 281.475 808.097
-211.986 280.846 804.221
-211.732 281.23 803.258
-211.479 281.613 802.297
-210.974 281.658 800.382
-209.972 281.034 796.58
-209.723 281.414 795.635
-210.222 282.798 797.527
-209.723 282.841 795.635
-209.475 283.218 794.692
-209.227 283.595 793.752
-208.979 283.97 792.814
-208.979 284.681 792.814
-208.733 285.055 791.878
-207.508 284.088 787.231
-207.264 284.46 786.308
-206.538 284.165 783.552
-205.339 283.214 779.002
-204.863 283.254 777.196
-203.918 282.641 773.611
-203.683 283.008 772.719
-203.448 283.374 771.83
-203.683 284.394 772.719
-203.683 285.086 772.719
-203.683 285.779 772.719
-203.448 286.142 771.83
-203.448 286.834 771.83
-203.214 287.196 770.943
-202.981 287.557 770.058
-202.053 286.929 766.538
-201.823 287.288 765.663
-201.592 287.646 764.79
-201.363 288.004 763.918
-200.223 287.054 759.593
-199.77 287.085 757.876
