ply
format ascii 1.0
element vertex 1983
property float x
property float y
property float z
end_header
11.9646 91.8149 580.208
11.9542 92.2553 579.706
11.9233 92.5351 578.207
11.8823 92.7338 576.22
11.8823 93.2504 576.22
11.7212 92.4956 568.407
11.7212 93.0052 568.407
11.7014 93.3566 567.445
11.6816 93.7068 566.487
11.6816 94.2147 566.487
11.6816 94.7226 566.487
11.6325 98.8761 564.105
11.6227 99.2984 563.631
11.6325 99.8876 564.105
11.6423 100.478 564.579
11.6423 100.984 564.579
11.6423 101.49 564.579
11.6816 102.341 566.487
11.4117 104.938 553.4
11.4117 105.435 553.4
11.4212 106.018 553.857
11.4117 106.427 553.4
11.4117 106.923 553.4
11.4117 107.419 553.4
11.4117 107.915 553.4
11.4212 108.501 553.857
11.4685 109.449 556.153
11.478 110.039 556.615
11.478 110.538 556.615
11.478 111.037 556.615
11.478 111.536 556.615
11.4495 111.757 555.232
11.4117 111.885 553.4
11.3555 111.827 550.674
11.4023 112.784 552.943
11.3929 113.186 552.488
11.3929 113.682 552.488
11.3369 113.616 549.771
11.3183 113.922 548.871
11.3091 114.32 548.422
11.2999 114.718 547.974
11.2906 115.115 547.527
11.2722 115.418 546.634
11.2999 116.192 547.974
11.3183 116.874 548.871
11.3276 117.462 549.321
11.3276 117.955 549.321
11.3276 118.448 549.321
11.3369 119.038 549.771
11.3462 119.628 550.222
11.3462 120.122 550.222
11.3462 120.615 550.222
11.3369 121.009 549.771
11.3369 121.502 549.771
11.3276 121.895 549.321
11.3091 122.187 548.422
11.2814 122.379 547.08
11.2814 122.869 547.08
11.2722 123.259 546.634
11.2722 123.749 546.634
11.2722 124.24 546.634
11.263 124.628 546.189
11.263 125.118 546.189
11.2539 125.505 545.745
11.2539 125.995 545.745
11.2539 126.484 545.745
11.263 127.077 546.189
11.263 127.566 546.189
11.2539 127.952 545.745
11.2539 128.441 545.745
11.2539 128.93 545.745
11.2539 129.42 545.745
11.2539 129.909 545.745
11.2539 130.398 545.745
11.2539 130.888 545.745
11.2539 131.377 545.745
11.2539 131.866 545.745
11.2539 132.355 545.745
11.2265 132.521 544.416
11.2265 133.009 544.416
11.2539 133.823 545.745
11.2539 134.313 545.745
11.2539 134.802 545.745
11.2539 135.291 545.745
11.2539 135.781 545.745
11.2539 136.27 545.745
11.2539 136.759 545.745
11.2539 137.248 545.745
11.2539 137.738 545.745
11.2539 138.227 545.745
11.2539 138.716 545.745
11.2539 139.206 545.745
11.2447 139.581 545.301
11.2447 140.07 545.301
11.2447 140.559 545.301
11.2447 141.048 545.301
11.2356 141.422 544.858
11.2265 141.795 544.416
11.2174 142.168 543.974
11.1992 142.425 543.093
11.1901 142.796 542.654
11.1811 143.167 542.215
11.1811 143.653 542.215
11.1811 144.139 542.215
11.1811 144.625 542.215
11.1811 145.111 542.215
11.1901 146.202 542.654
11.1992 146.807 543.093
11.1992 147.294 543.093
11.1992 147.781 543.093
11.2083 148.388 543.534
11.2083 148.875 543.534
11.2083 149.363 543.534
11.1901 149.607 542.654
11.1901 150.094 542.654
11.2539 153.885 545.745
11.263 158.907 546.189
11.2265 159.367 544.416
11.263 163.314 546.189
11.263 163.804 546.189
11.263 164.294 546.189
11.263 164.783 546.189
11.263 165.273 546.189
11.5923 -163.499 538.731
11.583 -162.885 538.299
11.5644 -162.143 537.436
11.5459 -161.402 536.576
11.5644 -161.179 537.436
11.5644 -160.697 537.436
11.6016 -160.247 539.164
11.4907 -157.28 534.013
11.4907 -156.801 534.013
11.4907 -156.322 534.013
11.4907 -155.364 534.013
11.5275 -155.38 535.719
11.4543 -153.917 532.318
11.4543 -153.439 532.318
11.4907 -153.449 534.013
11.5275 -144.333 535.719
11.5275 -143.853 535.719
11.4907 -142.916 534.013
11.5275 -142.892 535.719
11.6016 -103.206 539.164
11.6767 -102.414 542.654
11.6578 -101.763 541.777
11.6578 -101.277 541.777
11.6956 -101.118 543.534
11.6956 -100.631 543.534
11.7146 -100.306 544.416
11.7336 -99.9804 545.301
11.7336 -99.4914 545.301
11.7336 -99.0025 545.301
11.7336 -98.5136 545.301
11.7146 -97.8656 544.416
11.7336 -97.5358 545.301
11.7146 -96.8894 544.416
11.7146 -96.4013 544.416
11.6016 -94.5046 539.164
11.6016 -94.0212 539.164
11.6016 -93.5378 539.164
11.639 -93.3546 540.904
11.6203 -92.72 540.033
11.6203 -92.2359 540.033
11.6016 -91.6042 539.164
11.6016 -91.1208 539.164
11.6016 -90.6374 539.164
11.6203 -90.2992 540.033
11.6016 -89.6706 539.164
11.6016 -89.1872 539.164
11.6767 -89.2779 542.654
11.6016 -88.2204 539.164
11.5644 -87.4558 537.436
11.5644 -86.9739 537.436
11.5644 -86.4921 537.436
11.5644 -86.0102 537.436
11.5644 -85.5284 537.436
11.6016 -80.9694 539.164
11.5923 -80.4213 538.731
11.5923 -79.9383 538.731
11.5923 -79.4553 538.731
11.5923 -78.9723 538.731
11.5923 -78.4893 538.731
11.5923 -78.0063 538.731
11.5923 -77.5233 538.731
11.5923 -77.0403 538.731
11.5923 -76.5573 538.731
11.6016 -76.1354 539.164
11.6016 -75.652 539.164
11.6016 -75.1686 539.164
11.583 -74.5653 538.299
11.5737 -74.0233 537.867
11.583 -73.6001 538.299
11.5923 -73.1762 538.731
11.5923 -72.6932 538.731
11.5923 -72.2102 538.731
11.5923 -71.7271 538.731
11.5923 -71.2441 538.731
11.5923 -70.7611 538.731
11.6016 -70.3346 539.164
11.639 -70.0765 540.904
11.6578 -69.704 541.777
11.6672 -69.2742 542.215
11.6767 -68.8437 542.654
11.6672 -68.302 542.215
11.6767 -67.8707 542.654
11.6956 -67.4934 543.534
11.6956 -67.0061 543.534
11.7146 -66.6267 544.416
11.7336 -66.2461 545.301
11.7336 -65.7573 545.301
11.7336 -65.2683 545.301
11.7912 -65.097 547.974
11.7719 -64.5003 547.08
11.8105 -64.2193 548.871
11.8105 -63.7272 548.871
11.8298 -63.3388 549.771
11.8105 -62.2509 548.871
11.8105 -61.7588 548.871
11.8201 -61.3169 549.321
11.8105 -60.7746 548.871
11.8201 -60.3319 549.321
11.8201 -59.8394 549.321
11.9079 -59.7876 553.4
11.9177 -59.3404 553.857
11.9079 -58.7952 553.4
11.8201 -57.8694 549.321
11.8201 -57.3769 549.321
11.8687 -57.1182 551.579
11.9079 -56.8106 553.4
11.8687 -55.6347 551.579
12.1485 -49.3531 564.579
12.128 -48.7648 563.631
12.1485 -48.3408 564.579
12.1485 -47.8346 564.579
12.1485 -47.3284 564.579
12.1382 -46.7828 564.105
12.1485 -46.316 564.579
12.1485 -45.8098 564.579
12.3248 -42.8801 572.776
12.3565 -42.4754 574.247
12.3777 -42.0325 575.232
12.3777 -41.5168 575.232
12.3565 -40.9309 574.247
12.4632 -39.7264 579.206
12.5281 -39.4113 582.223
12.5718 -39.0248 584.251
12.6378 -38.7033 587.321
12.66 -38.2437 588.351
12.727 -37.9157 591.464
12.772 -37.5178 593.558
12.806 -37.0841 595.138
12.806 -36.5505 595.138
12.8288 -36.0809 596.196
12.8402 -35.578 596.726
12.8402 -35.043 596.726
12.8516 -34.5387 597.258
12.8631 -34.0336 597.79
12.8976 -33.5874 599.393
13.2165 10.1877 614.213
13.314 10.8176 618.746
13.265 11.3306 616.471
13.265 11.8833 616.471
13.413 12.5747 623.346
13.4255 14.2646 623.926
13.4255 15.3833 623.926
13.413 15.9279 623.346
13.413 16.4868 623.346
13.3017 18.0128 618.175
13.2895 18.5499 617.606
13.2407 19.0335 615.34
13.2165 19.5493 614.213
13.2165 20.1 614.213
13.2165 20.6507 614.213
13.2286 21.2208 614.776
13.2407 21.792 615.34
13.2407 22.3437 615.34
13.2529 22.9164 615.905
13.2407 23.4471 615.34
13.2529 24.0208 615.905
13.2529 24.573 615.905
13.265 25.1483 616.471
13.265 25.701 616.471
13.2773 26.2779 617.038
13.2773 26.8311 617.038
13.265 27.3592 616.471
13.265 27.9119 616.471
13.265 73.2341 616.471
13.2529 73.7191 615.905
13.2407 74.2031 615.34
13.2407 74.7548 615.34
13.2286 75.2375 614.776
12.7494 77.2935 592.509
12.7494 77.8247 592.509
12.7494 78.356 592.509
12.6934 78.5403 589.904
12.6822 78.9997 589.385
12.5827 79.9527 584.761
12.5827 80.4769 584.761
12.5827 81.0012 584.761
12.5718 81.4545 584.251
12.5608 81.907 583.743
12.5718 82.5021 584.251
12.5718 83.0259 584.251
12.5608 83.4771 583.743
12.5499 83.9274 583.235
12.5499 84.4503 583.235
12.5718 85.1212 584.251
12.5718 85.6451 584.251
12.5608 86.0939 583.743
12.5499 86.5419 583.235
12.5281 86.9137 582.223
12.5499 87.5878 583.235
12.5608 88.1874 583.743
12.5064 88.3264 581.214
12.4956 88.7705 580.71
12.4848 89.214 580.208
12.5064 89.8897 581.214
12.5064 90.4108 581.214
12.5064 90.9319 581.214
12.5064 91.453 581.214
12.4848 91.8149 580.208
12.4848 92.3351 580.208
12.4417 92.5351 578.207
12.3989 92.7338 576.22
12.2412 93.0841 568.889
12.2308 93.5148 568.407
12.2101 93.8654 567.445
12.2205 94.454 567.926
12.1895 94.7226 566.487
12.128 99.2984 563.631
12.1382 99.8876 564.105
12.1382 100.393 564.105
11.9079 104.442 553.4
11.9079 104.938 553.4
11.9079 105.435 553.4
11.9177 106.018 553.857
11.9079 106.427 553.4
11.9079 106.923 553.4
11.9079 107.419 553.4
11.9079 107.915 553.4
11.9079 108.411 553.4
11.9671 109.449 556.153
11.997 110.222 557.54
11.997 110.722 557.54
11.997 111.222 557.54
11.987 111.629 557.077
11.9473 111.757 555.232
11.8492 111.333 550.674
11.8298 111.644 549.771
11.8395 112.229 550.222
11.8492 112.815 550.674
11.8492 113.308 550.674
11.8298 113.616 549.771
11.7912 113.735 547.974
11.7912 114.227 547.974
11.7623 114.438 546.634
11.7623 114.928 546.634
11.7527 115.324 546.189
11.7719 116.002 547.08
11.8105 116.874 548.871
11.8201 117.462 549.321
11.8201 117.955 549.321
11.8201 118.448 549.321
11.8395 119.135 550.222
11.8492 119.727 550.674
11.8395 120.122 550.222
11.8395 120.615 550.222
11.8298 121.009 549.771
11.8298 121.502 549.771
11.8201 121.895 549.321
11.8008 122.187 548.422
11.7623 122.279 546.634
11.7623 122.769 546.634
11.7623 123.259 546.634
11.7527 123.649 546.189
11.7527 124.138 546.189
11.7527 124.628 546.189
11.7527 125.118 546.189
11.7432 125.505 545.745
11.7432 125.995 545.745
11.7432 126.484 545.745
11.7527 127.077 546.189
11.7432 127.462 545.745
11.7432 127.952 545.745
11.7432 128.441 545.745
11.7432 128.93 545.745
11.7432 129.42 545.745
11.7432 129.909 545.745
11.7432 130.398 545.745
11.7432 130.888 545.745
11.7432 131.377 545.745
11.7336 131.759 545.301
11.7432 132.355 545.745
11.7527 133.932 546.189
11.7527 134.422 546.189
11.7432 134.802 545.745
11.7432 135.291 545.745
11.7432 135.781 545.745
11.7432 136.27 545.745
11.7432 136.759 545.745
11.7432 137.248 545.745
11.7432 137.738 545.745
11.7432 138.227 545.745
11.7432 138.716 545.745
11.7432 139.206 545.745
11.7336 139.581 545.301
11.7336 140.07 545.301
11.7336 140.559 545.301
11.7241 140.934 544.858
11.7241 141.422 544.858
11.7051 141.68 543.974
11.6956 142.053 543.534
11.6861 142.425 543.093
11.6861 142.912 543.093
11.6767 143.283 542.654
11.6767 143.769 542.654
11.6767 144.256 542.654
11.6767 144.742 542.654
11.6861 145.346 543.093
11.6861 146.32 543.093
11.6861 146.807 543.093
11.6861 147.294 543.093
11.6861 147.781 543.093
11.6861 148.268 543.093
11.6861 148.755 543.093
11.6767 149.121 542.654
11.6956 149.85 543.534
11.6767 150.094 542.654
11.7146 151.069 544.416
11.7146 151.557 544.416
11.7051 151.922 543.974
11.7241 152.658 544.858
11.7432 153.395 545.745
11.7432 153.885 545.745
11.7432 154.374 545.745
11.7432 154.863 545.745
11.7432 155.353 545.745
11.7432 155.842 545.745
11.7432 156.331 545.745
11.7336 156.693 545.301
11.7146 158.391 544.416
11.6767 158.365 542.654
11.7146 159.367 544.416
11.7336 162.071 545.301
11.7527 162.825 546.189
11.7912 163.848 547.974
11.7912 164.339 547.974
11.7912 164.831 547.974
11.7912 165.322 547.974
11.7912 165.813 547.974
11.6767 166.149 542.654
12.0463 -163.106 537.436
12.0463 -162.624 537.436
12.027 -161.883 536.576
12.027 -161.402 536.576
12.027 -160.921 536.576
12.027 -160.44 536.576
12.0078 -159.703 535.719
11.9695 -158.237 534.013
11.9695 -157.28 534.013
11.9505 -156.551 533.164
11.9315 -155.826 532.318
11.9695 -155.843 534.013
11.9695 -155.364 534.013
11.9315 -154.394 532.318
11.9315 -153.917 532.318
11.9315 -153.439 532.318
11.9315 -152.962 532.318
11.9315 -152.485 532.318
12.0078 -152.979 535.719
12.0078 -152.499 535.719
12.0078 -152.018 535.719
12.0078 -151.538 535.719
12.0078 -151.058 535.719
12.0078 -150.577 535.719
12.0078 -150.097 535.719
12.0078 -149.617 535.719
11.9695 -143.395 534.013
11.9695 -142.916 534.013
11.9886 -142.665 534.865
11.9695 -141.959 534.013
11.9695 -141.48 534.013
12.0463 -103.357 537.436
12.085 -103.206 539.164
12.085 -102.722 539.164
12.124 -102.569 540.904
12.124 -101.599 540.904
12.1632 -101.441 542.654
12.2027 -101.282 544.416
12.2424 -101.123 546.189
12.2424 -100.633 546.189
12.2624 -100.307 547.08
12.2624 -99.8161 547.08
12.2424 -99.1638 546.189
12.2424 -98.6741 546.189
12.2424 -98.1844 546.189
12.2624 -97.8541 547.08
12.2424 -97.205 546.189
12.085 -94.0212 539.164
12.085 -93.5378 539.164
12.085 -93.0544 539.164
12.085 -92.571 539.164
12.085 -92.0876 539.164
12.085 -91.6042 539.164
12.085 -91.1208 539.164
12.085 -90.6374 539.164
12.085 -90.154 539.164
12.085 -89.6706 539.164
12.085 -89.1872 539.164
12.085 -88.7038 539.164
12.0463 -87.9376 537.436
12.0463 -87.4558 537.436
12.0463 -86.9739 537.436
12.0463 -86.4921 537.436
12.0463 -86.0102 537.436
12.085 -80.9694 539.164
12.124 -79.7757 540.904
12.085 -79.0358 539.164
12.085 -78.5524 539.164
12.085 -78.069 539.164
12.085 -77.5856 539.164
12.085 -77.1022 539.164
12.124 -76.866 540.904
12.1436 -76.5044 541.777
12.124 -75.896 540.904
12.085 -75.1686 539.164
12.0656 -74.5653 538.299
12.0559 -74.0233 537.867
12.0656 -73.6001 538.299
12.0753 -73.1762 538.731
12.085 -72.7516 539.164
12.0753 -72.2102 538.731
12.0753 -71.7271 538.731
12.0753 -71.2441 538.731
12.0753 -70.7611 538.731
12.085 -70.3346 539.164
12.1044 -69.9637 540.033
12.1436 -69.704 541.777
12.1534 -69.2742 542.215
12.1534 -68.7881 542.215
12.1534 -68.302 542.215
12.1632 -67.8707 542.654
12.1731 -67.4387 543.093
12.2027 -67.1148 544.416
12.2225 -66.7351 545.301
12.2225 -66.2461 545.301
12.2424 -65.8643 546.189
12.2424 -65.3746 546.189
12.2424 -64.8849 546.189
12.3026 -64.7114 548.871
12.3126 -64.2719 549.321
12.3227 -63.8317 549.771
12.3227 -63.3388 549.771
12.3633 -63.0526 551.579
12.3026 -62.2509 548.871
12.3126 -61.8094 549.321
12.3126 -61.3169 549.321
12.3633 -61.0745 551.579
12.3633 -60.58 551.579
12.3633 -60.0854 551.579
12.4041 -59.7876 553.4
12.4041 -59.2914 553.4
12.4041 -58.7952 553.4
12.3126 -57.8694 549.321
12.3227 -57.4239 549.771
12.4041 -57.3068 553.4
12.4041 -56.8106 553.4
12.3633 -55.6347 551.579
12.6546 -49.3531 564.579
12.644 -48.8059 564.105
12.6546 -48.3408 564.579
12.644 -47.7943 564.105
12.644 -47.2886 564.105
12.644 -46.7828 564.105
12.6546 -46.316 564.579
12.6653 -45.8484 565.055
12.6974 -45.4567 566.487
12.8713 -42.9903 574.247
12.9045 -42.5848 575.726
12.9045 -42.0686 575.726
12.9045 -41.5524 575.726
12.9156 -41.0715 576.22
12.9156 -40.5549 576.22
12.9937 -39.7607 579.706
13.0501 -39.4113 582.223
13.0842 -38.9908 583.743
13.1414 -38.6356 586.294
13.1644 -38.1767 587.321
13.2339 -37.849 590.423
13.3514 -37.6511 595.666
13.3752 -37.183 596.726
13.3752 -36.648 596.726
13.3752 -36.113 596.726
13.3871 -35.6097 597.258
13.3871 -35.0742 597.258
13.399 -34.5695 597.79
13.411 -34.0639 598.323
13.447 -33.6174 599.929
13.8178 10.2251 616.471
13.8687 10.8176 618.746
13.8178 11.3306 616.471
13.8178 11.8833 616.471
13.8944 12.5049 619.889
13.8687 13.0366 618.746
13.8687 13.5914 618.746
13.8687 14.1461 618.746
13.8687 14.7009 618.746
13.8687 15.2556 618.746
13.8687 15.8104 618.746
13.8687 16.9199 618.746
13.856 17.4585 618.175
13.8687 18.0294 618.746
13.856 18.567 618.175
13.8178 19.0685 616.471
13.7671 19.5493 614.213
13.7671 20.1 614.213
13.7671 20.6507 614.213
13.7924 21.2403 615.34
13.7924 21.792 615.34
13.8051 22.3642 615.905
13.8051 22.9164 615.905
13.8051 23.4686 615.905
13.8051 24.0208 615.905
13.8178 24.5956 616.471
13.8178 25.1483 616.471
13.8178 25.701 616.471
13.8305 26.2779 617.038
13.8305 26.8311 617.038
13.8305 27.3843 617.038
13.8305 27.9375 617.038
13.8051 73.7191 615.905
13.8178 74.3395 616.471
13.8178 74.8923 616.471
13.7798 75.2375 614.776
13.2107 78.4713 589.385
13.1991 78.9303 588.868
13.1875 79.3886 588.351
13.1414 79.6367 586.294
13.1184 80.0224 585.271
13.107 80.4769 584.761
13.107 81.0012 584.761
13.0956 81.4545 584.251
13.0842 81.907 583.743
13.0842 82.4303 583.743
13.0842 82.9537 583.743
13.0842 83.4771 583.743
13.0728 83.9274 583.235
13.0842 84.5238 583.743
13.0956 85.1212 584.251
13.107 85.7197 584.761
13.0956 86.1689 584.251
13.0842 86.6173 583.743
13.0842 87.1406 583.743
13.0956 87.7403 584.251
13.0956 88.2642 584.251
13.0842 88.7107 583.743
13.0275 88.8475 581.214
13.0049 89.214 580.208
13.0049 89.7342 580.208
13.0275 90.4108 581.214
13.0049 90.7745 580.208
13.0049 91.2947 580.208
12.9601 91.4983 578.207
12.9601 92.0167 578.207
12.9267 92.2964 576.716
12.7404 93.5148 568.407
12.7189 93.8654 567.445
12.7189 94.3741 567.445
12.6974 94.7226 566.487
12.644 99.3819 564.105
12.6546 99.9717 564.579
12.6546 100.478 564.579
12.57 101.817 560.803
12.57 102.32 560.803
12.4865 103.138 557.077
12.4865 103.638 557.077
12.4865 104.137 557.077
12.4761 104.55 556.615
12.4554 104.875 555.692
12.4246 105.112 554.314
12.4348 105.696 554.773
12.4554 106.369 555.692
12.4451 106.779 555.232
12.4348 107.188 554.773
12.4451 107.775 555.232
12.4451 108.273 555.232
12.4451 108.77 555.232
12.4761 109.54 556.615
12.4865 110.131 557.077
12.4865 110.63 557.077
12.4658 110.945 556.153
12.3328 111.242 550.222
12.3227 111.644 549.771
12.3227 112.137 549.771
12.3328 112.722 550.222
12.3328 113.215 550.222
12.3227 113.616 549.771
12.2925 113.828 548.422
12.2724 114.134 547.527
12.2424 114.344 546.189
12.2424 114.834 546.189
12.2424 115.324 546.189
12.2624 116.002 547.08
12.3126 116.97 549.321
12.3531 119.331 551.126
12.3531 119.825 551.126
12.343 120.22 550.674
12.343 120.714 550.674
12.3328 121.108 550.222
12.3227 121.502 549.771
12.3126 121.895 549.321
12.2825 122.088 547.974
12.2524 122.279 546.634
12.2524 122.769 546.634
12.2524 123.259 546.634
12.2424 123.649 546.189
12.2424 124.138 546.189
12.2424 124.628 546.189
12.2424 125.118 546.189
12.2325 125.505 545.745
12.2325 125.995 545.745
12.2325 126.484 545.745
12.2424 127.077 546.189
12.2424 127.566 546.189
12.2325 127.952 545.745
12.2325 128.441 545.745
12.2325 128.93 545.745
12.2325 129.42 545.745
12.2325 129.909 545.745
12.2325 130.398 545.745
12.2325 130.888 545.745
12.2325 131.377 545.745
12.2325 131.866 545.745
12.2325 132.355 545.745
12.2325 133.823 545.745
12.2325 134.313 545.745
12.2325 134.802 545.745
12.2325 135.291 545.745
12.2325 135.781 545.745
12.2225 136.159 545.301
12.2126 136.537 544.858
12.2225 137.137 545.301
12.2225 137.626 545.301
12.2225 138.115 545.301
12.2225 138.604 545.301
12.2126 138.979 544.858
12.2126 139.468 544.858
12.2126 139.956 544.858
12.2126 140.445 544.858
12.2027 140.819 544.416
12.2027 141.307 544.416
12.1928 141.68 543.974
12.1829 142.053 543.534
12.1731 142.425 543.093
12.1632 142.796 542.654
12.1632 143.283 542.654
12.1632 143.769 542.654
12.1632 144.256 542.654
12.1632 144.742 542.654
12.1731 146.32 543.093
12.1731 146.807 543.093
12.1731 147.294 543.093
12.1731 147.781 543.093
12.1829 148.388 543.534
12.1731 148.755 543.093
12.1829 149.363 543.534
12.1829 149.85 543.534
12.1632 150.094 542.654
12.2027 151.069 544.416
12.1928 151.435 543.974
12.2027 152.046 544.416
12.1928 152.41 543.974
12.2126 153.146 544.858
12.2126 153.635 544.858
12.2225 154.248 545.301
12.2225 154.737 545.301
12.2225 155.226 545.301
12.2126 155.589 544.858
12.2225 156.204 545.301
12.2027 156.439 544.416
12.2027 156.927 544.416
12.2027 158.391 544.416
12.2027 158.879 544.416
12.1632 158.851 542.654
12.2424 160.376 546.189
12.2225 162.071 545.301
12.2225 162.56 545.301
12.2424 163.314 546.189
12.2424 163.804 546.189
12.2424 164.294 546.189
12.2424 164.783 546.189
12.2424 165.273 546.189
12.2424 165.763 546.189
12.2027 165.713 544.416
12.1632 165.663 542.654
12.1632 166.149 542.654
12.1632 166.636 542.654
12.4881 -163.065 535.719
12.5081 -162.845 536.576
12.5081 -162.364 536.576
12.4881 -161.624 535.719
12.4881 -161.144 535.719
12.4881 -160.664 535.719
12.4881 -160.184 535.719
12.4881 -159.703 535.719
12.4781 -159.096 535.292
12.4881 -158.743 535.719
12.4781 -158.136 535.292
12.4483 -157.28 534.013
12.4483 -156.801 534.013
12.4285 -156.073 533.164
12.4483 -155.843 534.013
12.4285 -155.117 533.164
12.4088 -154.394 532.318
12.4088 -153.917 532.318
12.4088 -153.439 532.318
12.4285 -153.205 533.164
12.4088 -152.485 532.318
12.4088 -152.008 532.318
12.4881 -152.499 535.719
12.4881 -152.018 535.719
12.4483 -151.055 534.013
12.4483 -150.577 534.013
12.4483 -150.098 534.013
12.4881 -150.097 535.719
12.4881 -149.617 535.719
12.4881 -149.136 535.719
12.4088 -142.94 532.318
12.4088 -142.462 532.318
12.4483 -142.437 534.013
12.4088 -141.508 532.318
12.4483 -141.48 534.013
12.4483 -141.001 534.013
12.5684 -104.173 539.164
12.5684 -103.689 539.164
12.5684 -103.206 539.164
12.5281 -102.393 537.436
12.5684 -102.239 539.164
12.5684 -101.756 539.164
12.5684 -101.272 539.164
12.5684 -100.789 539.164
12.5482 -100.144 538.299
12.5684 -99.822 539.164
12.5684 -99.3386 539.164
12.7529 -100.307 547.08
12.7529 -99.8161 547.08
12.7737 -99.4879 547.974
12.7737 -98.9966 547.974
12.7737 -98.5053 547.974
12.7321 -97.6947 546.189
12.4682 -95.1896 534.865
12.4881 -94.8613 535.719
12.4881 -94.381 535.719
12.4881 -93.9007 535.719
12.5281 -93.7198 537.436
12.5684 -93.5378 539.164
12.5684 -93.0544 539.164
12.5684 -92.571 539.164
12.5684 -92.0876 539.164
12.5684 -91.6042 539.164
12.5684 -91.1208 539.164
12.5684 -90.6374 539.164
12.5684 -90.154 539.164
12.5886 -89.815 540.033
12.5281 -87.4558 537.436
12.5081 -86.8348 536.576
12.4881 -86.2157 535.719
12.5684 -83.3864 539.164
12.5482 -82.7699 538.299
12.5684 -82.4196 539.164
12.5482 -81.8047 538.299
12.5482 -81.3221 538.299
12.5482 -80.8394 538.299
12.5583 -80.4213 538.731
12.5583 -79.9383 538.731
12.5583 -79.4553 538.731
12.5583 -78.9723 538.731
12.5583 -78.4893 538.731
12.5583 -78.0063 538.731
12.5684 -77.5856 539.164
12.5684 -77.1022 539.164
12.6089 -76.866 540.904
12.6089 -76.381 540.904
12.5886 -75.7738 540.033
12.5684 -75.1686 539.164
12.5482 -74.5653 538.299
12.5482 -74.0827 538.299
12.5583 -73.6592 538.731
12.5684 -73.235 539.164
12.5684 -72.7516 539.164
12.5583 -72.2102 538.731
12.5684 -71.7848 539.164
12.5684 -71.3014 539.164
12.5684 -70.818 539.164
12.5785 -70.3912 539.598
12.6089 -70.0765 540.904
12.6293 -69.704 541.777
12.6395 -69.2742 542.215
12.6395 -68.7881 542.215
12.6395 -68.302 542.215
12.66 -67.9256 543.093
12.6702 -67.4934 543.534
12.6702 -67.0061 543.534
12.6702 -66.5187 543.534
12.6908 -66.1386 544.416
12.6908 -65.6505 544.416
12.6497 -64.9515 542.654
12.8261 -64.8707 550.222
12.8156 -64.3246 549.771
12.8367 -63.9365 550.674
12.8578 -63.5471 551.579
12.9002 -63.2607 553.4
12.8156 -62.353 549.771
12.8156 -61.8601 549.771
12.7947 -60.7746 548.871
12.8578 -60.58 551.579
12.7947 -59.7904 548.871
12.9002 -59.7876 553.4
12.9109 -59.3404 553.857
12.9002 -58.7952 553.4
12.8051 -57.8694 549.321
12.8156 -57.4239 549.771
12.8578 -55.6347 551.579
12.9002 -54.3298 553.4
13.1608 -49.3531 564.579
13.1719 -48.8881 565.055
13.1719 -48.3815 565.055
13.1719 -47.8749 565.055
13.183 -47.4082 565.532
13.183 -46.9012 565.532
13.183 -46.3941 565.532
13.2053 -45.9646 566.487
13.2388 -45.5722 567.926
13.2501 -45.1012 568.407
13.3633 -43.4307 573.265
13.4092 -43.064 575.232
13.4437 -42.658 576.716
13.4437 -42.141 576.716
13.4437 -41.6239 576.716
13.4437 -41.1068 576.716
13.4437 -40.5898 576.716
13.5135 -39.7607 579.706
13.6194 -39.5486 584.251
13.6075 -38.9908 583.743
13.6432 -38.5682 585.271
13.691 -38.1767 587.321
13.715 -37.7162 588.351
13.8363 -37.5178 593.558
13.8855 -37.117 595.666
13.8978 -36.6155 596.196
13.9226 -36.1452 597.258
13.9226 -35.6097 597.258
13.9226 -35.0742 597.258
13.9474 -34.6004 598.323
13.9724 -34.1248 599.393
14.0099 -33.6777 601.004
14.4235 10.2629 618.746
14.3705 10.7779 616.471
14.4235 11.3724 618.746
14.4235 11.9271 618.746
14.4235 12.4819 618.746
14.4235 13.0366 618.746
14.4235 13.5914 618.746
14.4102 14.1331 618.175
14.4235 14.7009 618.746
14.4235 15.2556 618.746
14.4235 15.8104 618.746
14.4235 17.4746 618.746
14.4102 18.0128 618.175
14.3969 18.5499 617.606
14.3705 19.0685 616.471
14.3178 19.5493 614.213
14.3178 20.1 614.213
14.3178 20.6507 614.213
14.331 21.2208 614.776
14.3441 21.792 615.34
14.3573 22.3642 615.905
14.3705 22.9375 616.471
14.3705 23.4902 616.471
14.3705 24.0429 616.471
14.3837 24.6182 617.038
14.3837 25.1715 617.038
14.3969 25.7484 617.606
14.3837 26.2779 617.038
14.3969 26.8558 617.606
14.3837 27.3843 617.038
14.3837 27.9375 617.038
14.3969 73.9227 617.606
14.3969 74.4764 617.606
14.3837 74.9612 617.038
14.331 75.2375 614.776
14.2656 75.4429 611.971
13.727 78.4024 588.868
13.715 78.8611 588.351
13.715 79.3886 588.351
13.691 79.7761 587.321
13.6551 80.0923 585.782
13.6551 80.6175 585.782
13.6551 81.1427 585.782
13.6313 81.5255 584.761
13.6194 81.9783 584.251
13.6313 82.5741 584.761
13.6194 83.0259 584.251
13.6194 83.5498 584.251
13.6194 84.0736 584.251
13.6313 84.6712 584.761
13.6313 85.1955 584.761
13.6432 85.7945 585.271
13.6313 86.244 584.761
13.6313 86.7683 584.761
13.6313 87.2926 584.761
13.6313 87.8169 584.761
13.6194 88.2642 584.251
13.5957 88.6336 583.235
13.5486 88.8475 581.214
13.5486 89.3686 581.214
13.5486 89.8897 581.214
13.5369 90.3325 580.71
13.5369 90.8531 580.71
13.5251 91.2947 580.208
13.5018 91.6564 579.206
13.5018 92.1757 579.206
13.4322 92.2171 576.22
13.2276 93.8654 567.445
13.2388 94.454 567.926
13.2276 94.8829 567.445
13.2053 99.2937 566.487
13.2053 99.8016 566.487
13.2053 100.309 566.487
13.0728 101.314 560.803
13.0728 101.817 560.803
13.0728 102.32 560.803
13.0728 102.823 560.803
13.051 103.153 559.867
13.0184 103.396 558.468
12.9967 103.724 557.54
12.9967 104.224 557.54
12.9967 104.724 557.54
12.9859 105.136 557.077
12.9644 105.46 556.153
12.9859 106.135 557.077
12.9967 106.723 557.54
12.9967 107.223 557.54
12.9859 107.633 557.077
12.9967 108.223 557.54
12.9967 108.723 557.54
12.9967 109.223 557.54
12.9967 109.722 557.54
12.9967 110.222 557.54
12.9859 110.63 557.077
12.9859 111.13 557.077
12.8156 111.151 549.771
12.8156 111.644 549.771
12.8156 112.137 549.771
12.8156 112.63 549.771
12.8156 113.123 549.771
12.8051 113.522 549.321
12.7947 113.922 548.871
12.7737 114.227 547.974
12.7425 114.438 546.634
12.7425 114.928 546.634
12.7425 115.418 546.634
12.7633 116.097 547.527
12.8051 116.97 549.321
12.8156 117.559 549.771
12.8051 117.955 549.321
12.7947 118.351 548.871
12.8367 119.233 550.674
12.8578 119.924 551.579
12.8578 120.418 551.579
12.8472 120.813 551.126
12.8367 121.208 550.674
12.8261 121.602 550.222
12.8156 121.995 549.771
12.7529 121.888 547.08
12.7321 122.18 546.189
12.7321 122.669 546.189
12.7321 123.159 546.189
12.7321 123.649 546.189
12.7321 124.138 546.189
12.7321 124.628 546.189
12.7321 125.118 546.189
12.7218 125.505 545.745
12.7218 125.995 545.745
12.7218 126.484 545.745
12.7321 127.077 546.189
12.7321 127.566 546.189
12.7218 127.952 545.745
12.7218 128.441 545.745
12.7218 128.93 545.745
12.7218 129.42 545.745
12.7218 129.909 545.745
12.7321 130.504 546.189
12.7218 130.888 545.745
12.7218 131.377 545.745
12.7114 131.759 545.301
12.7218 132.355 545.745
12.7321 133.932 546.189
12.7218 134.313 545.745
12.7218 134.802 545.745
12.7114 135.181 545.301
12.7114 135.67 545.301
12.7011 136.048 544.858
12.6805 136.315 543.974
12.6908 137.402 544.416
12.6805 137.779 543.974
12.6805 138.266 543.974
12.6805 138.754 543.974
12.6805 139.242 543.974
12.6805 139.729 543.974
12.6908 140.331 544.416
12.6702 140.591 543.534
12.6805 141.193 543.974
12.6805 141.68 543.974
12.6702 142.053 543.534
12.66 142.425 543.093
12.66 142.912 543.093
12.6497 143.283 542.654
12.6497 143.769 542.654
12.6497 144.256 542.654
12.66 144.859 543.093
12.6702 146.926 543.534
12.6702 147.413 543.534
12.6702 148.388 543.534
12.66 148.755 543.093
12.6702 149.363 543.534
12.6702 149.85 543.534
12.6497 150.094 542.654
12.66 150.702 543.093
12.66 151.189 543.093
12.66 151.676 543.093
12.66 152.163 543.093
12.6702 152.774 543.534
12.6702 153.261 543.534
12.6702 153.748 543.534
12.6805 154.361 543.974
12.6805 154.849 543.974
12.6805 155.336 543.974
12.6908 155.95 544.416
12.6497 155.932 542.654
12.6908 157.415 544.416
12.7321 158.417 546.189
12.6908 158.391 544.416
12.6908 158.879 544.416
12.6497 158.851 542.654
12.7321 160.376 546.189
12.7321 160.866 546.189
12.7321 161.355 546.189
12.7321 162.335 546.189
12.7321 162.825 546.189
12.7321 163.314 546.189
12.7321 163.804 546.189
12.7321 164.294 546.189
12.7321 164.783 546.189
12.7321 165.273 546.189
12.7737 166.304 547.974
12.7321 166.252 546.189
12.6497 166.149 542.654
12.6089 166.098 540.904
12.6089 166.583 540.904
12.9684 -163.065 535.719
12.9891 -162.845 536.576
12.9684 -162.105 535.719
12.9477 -161.367 534.865
12.9684 -161.144 535.719
12.958 -160.536 535.292
12.9684 -160.184 535.719
12.9684 -159.703 535.719
12.958 -159.096 535.292
12.958 -158.616 535.292
12.958 -158.136 535.292
12.958 -157.656 535.292
12.9271 -156.801 534.013
12.9271 -156.322 534.013
12.9271 -155.843 534.013
12.9271 -155.364 534.013
12.9271 -154.886 534.013
12.9065 -154.161 533.164
12.9065 -153.683 533.164
12.9065 -153.205 533.164
12.9271 -152.971 534.013
12.886 -152.008 532.318
12.9684 -152.499 535.719
12.9684 -152.018 535.719
12.9271 -151.055 534.013
12.9271 -150.577 534.013
12.9271 -150.098 534.013
12.9271 -149.619 534.013
12.9684 -149.617 535.719
12.9271 -143.395 534.013
12.9271 -142.916 534.013
12.9065 -142.211 533.164
12.886 -141.508 532.318
12.9271 -141.48 534.013
12.9271 -141.001 534.013
12.9271 -140.522 534.013
12.9271 -140.043 534.013
13.01 -103.357 537.436
13.01 -102.875 537.436
13.0518 -102.722 539.164
13.0518 -102.239 539.164
13.0518 -101.756 539.164
13.0518 -101.272 539.164
13.0623 -100.87 539.598
13.0518 -100.305 539.164
13.0518 -99.822 539.164
13.0518 -99.3386 539.164
13.01 -98.5383 537.436
12.9477 -97.5873 534.865
13.0518 -97.8884 539.164
13.0518 -97.405 539.164
13.0518 -96.9216 539.164
12.9477 -95.6691 534.865
12.9477 -95.1896 534.865
12.9477 -94.71 534.865
12.9684 -94.381 535.719
12.9684 -93.9007 535.719
13.01 -93.7198 537.436
13.0518 -93.5378 539.164
13.0518 -93.0544 539.164
13.0518 -92.571 539.164
13.0518 -92.0876 539.164
13.0308 -91.4571 538.299
13.0518 -91.1208 539.164
13.0518 -90.6374 539.164
13.0518 -90.154 539.164
13.0518 -89.6706 539.164
13.01 -87.4558 537.436
12.9684 -86.6961 535.719
13.01 -86.4921 537.436
13.0308 -82.7699 538.299
13.0308 -82.2873 538.299
13.01 -81.6736 537.436
13.0308 -81.3221 538.299
13.0413 -80.9044 538.731
13.0308 -80.3568 538.299
13.0413 -79.9383 538.731
13.0413 -79.4553 538.731
13.0413 -78.9723 538.731
13.0413 -78.4893 538.731
13.0413 -78.0063 538.731
13.0413 -77.5233 538.731
13.0413 -77.0403 538.731
13.0518 -76.6188 539.164
13.0939 -76.381 540.904
13.0518 -75.652 539.164
13.0413 -75.1082 538.731
13.0413 -74.6252 538.731
13.0413 -74.1422 538.731
13.0413 -73.6592 538.731
13.0413 -73.1762 538.731
13.0413 -72.6932 538.731
13.0518 -72.2682 539.164
13.0518 -71.7848 539.164
13.0518 -71.3014 539.164
13.0518 -70.818 539.164
13.0623 -70.3912 539.598
13.0939 -70.0765 540.904
13.115 -69.704 541.777
13.1256 -69.2742 542.215
13.115 -68.7325 541.777
13.115 -68.2468 541.777
13.1363 -67.8707 542.654
13.1469 -67.4387 543.093
13.1576 -67.0061 543.534
13.1576 -66.5187 543.534
13.1469 -65.978 543.093
13.1576 -65.5441 543.534
13.1469 -65.0041 543.093
13.1789 -64.6743 544.416
13.2003 -64.2905 545.301
13.3085 -64.3246 549.771
13.3523 -64.0417 551.579
13.4407 -63.4702 555.232
13.3085 -62.353 549.771
13.2976 -61.8094 549.321
13.2976 -61.3169 549.321
13.2868 -60.7746 548.871
13.2976 -60.3319 549.321
13.2976 -59.8394 549.321
13.2868 -59.2983 548.871
13.3523 -59.0964 551.579
13.3523 -58.6018 551.579
13.2976 -57.8694 549.321
13.3085 -57.4239 549.771
13.3085 -55.4523 549.771
13.3523 -55.1401 551.579
13.3523 -54.6456 551.579
13.3964 -54.3298 553.4
13.667 -49.3531 564.579
13.667 -48.8469 564.579
13.667 -48.3408 564.579
13.667 -47.8346 564.579
13.667 -47.3284 564.579
13.667 -46.8222 564.579
13.7597 -46.63 568.407
13.7597 -46.1204 568.407
13.783 -45.6882 569.372
13.8536 -45.409 572.287
13.8536 -44.8959 572.287
13.8536 -43.8697 572.287
13.8654 -43.3937 572.776
13.9249 -43.064 575.232
13.9368 -42.5848 575.726
13.9488 -42.1048 576.22
13.9608 -41.6239 576.716
13.9728 -41.1422 577.212
13.9849 -40.6597 577.709
14.0211 -40.2457 579.206
14.0453 -39.7951 580.208
14.1186 -39.4799 583.235
14.1432 -39.0248 584.251
14.1927 -38.6356 586.294
14.2175 -38.1767 587.321
14.2425 -37.7162 588.351
14.3558 -37.4846 593.033
14.394 -37.0512 594.61
14.4324 -36.6155 596.196
14.4452 -36.113 596.726
14.4581 -35.6097 597.258
14.4581 -35.0742 597.258
14.4839 -34.6004 598.323
14.5357 -34.1859 600.466
14.8685 10.7384 614.213
14.9782 11.3724 618.746
14.9782 11.9271 618.746
14.9782 12.4819 618.746
14.9782 13.0366 618.746
14.9644 13.5788 618.175
14.9782 14.1461 618.746
14.9644 14.6873 618.175
14.9782 15.2556 618.746
14.9644 15.7958 618.175
14.9644 16.9043 618.175
14.9782 17.4746 618.746
14.9644 18.0128 618.175
14.9507 18.5499 617.606
14.8958 19.0335 615.34
14.8685 19.5493 614.213
14.8685 20.1 614.213
14.8685 20.6507 614.213
14.8958 21.2403 615.34
14.9232 21.8321 616.471
14.9232 22.3848 616.471
14.9232 22.9375 616.471
14.9232 23.4902 616.471
14.9369 24.065 617.038
14.9369 24.6182 617.038
14.9507 25.1946 617.606
14.9507 25.7484 617.606
14.9369 26.2779 617.038
14.9369 26.8311 617.038
14.9507 27.4095 617.606
14.9369 27.9375 617.038
14.9507 28.517 617.606
14.9644 73.9908 618.175
14.9507 74.4764 617.606
14.9507 75.0302 617.606
14.8958 75.3065 615.34
14.8685 75.7193 614.213
14.8413 76.1305 613.09
14.2425 77.8061 588.351
14.255 78.4024 588.868
14.2425 78.8611 588.351
14.2425 79.3886 588.351
14.2425 79.9161 588.351
14.1927 80.1623 586.294
14.1927 80.688 586.294
14.2051 81.2847 586.807
14.1556 81.5255 584.761
14.1432 81.9783 584.251
14.1432 82.5021 584.251
14.1556 83.0983 584.761
14.1432 83.5498 584.251
14.0941 83.7817 582.223
14.1556 84.6712 584.761
14.1679 85.2698 585.271
14.1803 85.8695 585.782
14.1803 86.3947 585.782
14.1679 86.844 585.271
14.1556 87.2926 584.761
14.1556 87.8169 584.761
14.1556 88.3411 584.761
14.0941 88.4797 582.223
14.0941 89.0017 582.223
14.1432 89.8356 584.251
14.0941 90.0457 582.223
14.0941 90.5677 582.223
14.0697 90.9319 581.214
14.0575 91.3738 580.71
14.0332 91.7356 579.706
14.0211 92.1757 579.206
13.9488 92.2171 576.22
13.7597 93.0052 568.407
13.748 93.4357 567.926
13.748 93.9448 567.926
13.748 94.454 567.926
13.748 94.9632 567.926
13.7132 95.2305 566.487
13.7597 99.1206 568.407
13.7597 99.6303 568.407
13.7132 99.8016 566.487
13.7132 100.309 566.487
13.667 100.984 564.579
13.5756 100.811 560.803
13.5643 101.23 560.335
13.5756 101.817 560.803
13.5756 102.32 560.803
13.5643 102.737 560.335
13.5529 103.153 559.867
13.5191 103.396 558.468
13.5078 103.81 558.004
13.4966 104.224 557.54
13.5078 104.811 558.004
13.4966 105.224 557.54
13.4854 105.636 557.077
13.5529 107.169 559.867
13.5303 107.491 558.934
13.4854 107.633 557.077
13.4966 108.223 557.54
13.5078 108.813 558.004
13.5303 109.496 558.934
13.5078 109.814 558.004
13.4966 110.222 557.54
13.4966 110.722 557.54
13.4854 111.13 557.077
13.3085 111.151 549.771
13.3085 111.644 549.771
13.3085 112.137 549.771
13.3085 112.63 549.771
13.3085 113.123 549.771
13.3085 113.616 549.771
13.2976 114.015 549.321
13.2759 114.32 548.422
13.2434 114.531 547.08
13.2434 115.021 547.08
13.2434 115.512 547.08
13.2759 116.287 548.422
13.2976 116.97 549.321
13.3085 117.559 549.771
13.2976 117.955 549.321
13.2868 118.351 548.871
13.2976 118.94 549.321
13.3085 119.53 549.771
13.3964 120.816 553.4
13.3743 121.112 552.488
13.3523 121.407 551.579
13.3523 121.902 551.579
13.2976 121.895 549.321
13.265 122.088 547.974
13.2218 122.18 546.189
13.2326 122.769 546.634
13.2218 123.159 546.189
13.2218 123.649 546.189
13.2218 124.138 546.189
13.2218 124.628 546.189
13.2218 125.118 546.189
13.2111 125.505 545.745
13.2111 125.995 545.745
13.2111 126.484 545.745
13.2111 126.973 545.745
13.2111 127.462 545.745
13.2111 127.952 545.745
13.2111 128.441 545.745
13.2111 128.93 545.745
13.2111 129.42 545.745
13.2111 129.909 545.745
13.2111 130.888 545.745
13.2111 131.377 545.745
13.2003 131.759 545.301
13.2111 132.355 545.745
13.2111 134.313 545.745
13.2111 134.802 545.745
13.2003 135.181 545.301
13.2003 135.67 545.301
13.2003 136.159 545.301
13.1682 136.315 543.974
13.2218 137.85 546.189
13.1682 137.779 543.974
13.1682 138.266 543.974
13.1682 138.754 543.974
13.1682 139.242 543.974
13.1682 139.729 543.974
13.1789 140.331 544.416
13.1682 140.705 543.974
13.1576 141.078 543.534
13.1682 141.68 543.974
13.1576 142.053 543.534
13.1469 142.425 543.093
13.1469 142.912 543.093
13.1363 143.283 542.654
13.1469 143.885 543.093
13.1469 144.372 543.093
13.1469 144.859 543.093
13.1576 146.926 543.534
13.1576 147.413 543.534
13.1576 148.875 543.534
13.1363 149.607 542.654
13.1256 149.973 542.215
13.1256 150.459 542.215
13.1363 151.067 542.654
13.1363 151.554 542.654
13.1256 151.917 542.215
13.1256 152.403 542.215
13.1363 153.013 542.654
13.1363 153.5 542.654
13.1363 153.986 542.654
13.1363 154.473 542.654
13.1363 154.959 542.654
13.1363 155.446 542.654
13.1789 157.903 544.416
13.1789 158.391 544.416
13.1789 158.879 544.416
13.1363 158.851 542.654
13.1789 159.855 544.416
13.1789 160.343 544.416
13.2218 161.355 546.189
13.265 162.374 547.974
13.2218 162.335 546.189
13.2218 162.825 546.189
13.265 163.848 547.974
13.2218 163.804 546.189
13.3633 -162.03 532.318
13.4487 -162.585 535.719
13.4272 -161.846 534.865
13.4059 -161.11 534.013
13.4059 -160.631 534.013
13.4059 -160.152 534.013
13.4272 -159.928 534.865
13.4272 -159.449 534.865
13.438 -159.096 535.292
13.438 -158.616 535.292
13.4272 -158.01 534.865
13.438 -157.656 535.292
13.4165 -156.926 534.439
13.4059 -156.322 534.013
13.4059 -155.843 534.013
13.4059 -155.364 534.013
13.4272 -155.133 534.865
13.4059 -154.407 534.013
13.3846 -153.683 533.164
13.3846 -153.205 533.164
13.3846 -152.727 533.164
13.3633 -152.008 532.318
13.3633 -151.53 532.318
13.4059 -151.534 534.013
13.4059 -150.577 534.013
13.4272 -150.337 534.865
13.4059 -149.619 534.013
13.4059 -149.14 534.013
13.4487 -149.136 535.719
13.4059 -143.395 534.013
13.4059 -142.916 534.013
13.4059 -142.437 534.013
13.4059 -141.48 534.013
13.4059 -141.001 534.013
13.4059 -140.522 534.013
13.4487 -140.491 535.719
13.4487 -140.011 535.719
13.4487 -139.53 535.719
13.5352 -103.206 539.164
13.5352 -102.722 539.164
13.5352 -102.239 539.164
13.5352 -101.756 539.164
13.5352 -101.272 539.164
13.5352 -100.789 539.164
13.5352 -100.305 539.164
13.5352 -99.822 539.164
13.4918 -99.0202 537.436
13.4487 -98.2235 535.719
13.4487 -97.7432 535.719
13.5352 -97.8884 539.164
13.5352 -97.405 539.164
13.5352 -96.9216 539.164
13.4487 -95.822 535.719
13.4487 -95.3416 535.719
13.4272 -94.71 534.865
13.4487 -94.381 535.719
13.4487 -93.9007 535.719
13.5352 -94.0212 539.164
13.5352 -93.5378 539.164
13.5352 -93.0544 539.164
13.5352 -92.571 539.164
13.5135 -91.9398 538.299
13.5352 -91.6042 539.164
13.5352 -91.1208 539.164
13.5352 -90.6374 539.164
13.5352 -90.154 539.164
13.5352 -89.6706 539.164
13.4702 -87.3159 536.576
13.4487 -86.6961 535.719
13.5352 -82.903 539.164
13.5352 -82.4196 539.164
13.4702 -81.5429 536.576
13.4702 -81.0618 536.576
13.4918 -80.7099 537.436
13.5135 -80.3568 538.299
13.5243 -79.9383 538.731
13.5352 -79.5192 539.164
13.5243 -78.9723 538.731
13.5243 -78.4893 538.731
13.5243 -78.0063 538.731
13.5243 -77.5233 538.731
13.5243 -77.0403 538.731
13.5352 -76.6188 539.164
13.5788 -76.381 540.904
13.5352 -75.652 539.164
13.5243 -75.1082 538.731
13.5243 -74.6252 538.731
13.5135 -74.0827 538.299
13.5243 -73.6592 538.731
13.5243 -73.1762 538.731
13.5243 -72.6932 538.731
13.5243 -72.2102 538.731
13.5352 -71.7848 539.164
13.5352 -71.3014 539.164
13.5352 -70.818 539.164
13.5461 -70.3912 539.598
13.5788 -70.0765 540.904
13.6008 -69.704 541.777
13.6118 -69.2742 542.215
13.6118 -68.7881 542.215
13.6118 -68.302 542.215
13.6228 -67.8707 542.654
13.6338 -67.4387 543.093
13.6449 -67.0061 543.534
13.6449 -66.5187 543.534
13.6559 -66.085 543.974
13.6449 -65.5441 543.534
13.6338 -65.0041 543.093
13.6449 -64.5695 543.534
13.7004 -64.3429 545.745
13.7339 -64.0098 547.08
13.7563 -63.6231 547.974
13.8014 -63.3388 549.771
13.8014 -62.8459 549.771
13.8014 -62.353 549.771
13.7789 -61.7588 548.871
13.8014 -61.3672 549.771
13.8014 -60.8743 549.771
13.8468 -60.58 551.579
13.8468 -60.0854 551.579
13.8241 -59.493 550.674
13.8468 -59.0964 551.579
13.8241 -58.5056 550.674
13.8014 -57.9168 549.771
13.8014 -57.4239 549.771
13.8241 -55.5433 550.674
13.8014 -54.9593 549.771
13.8697 -54.7356 552.488
13.8697 -54.2403 552.488
14.0784 -49.5258 560.803
14.0549 -48.9412 559.867
14.1732 -48.8469 564.579
14.1851 -48.3815 565.055
14.1971 -47.9152 565.532
14.1971 -47.4082 565.532
14.1971 -46.9012 565.532
14.2211 -46.4725 566.487
14.2211 -45.9646 566.487
14.3667 -45.9221 572.287
14.379 -45.4478 572.776
14.379 -44.9343 572.776
14.379 -43.9072 572.776
14.3913 -43.4307 573.265
14.4406 -43.064 575.232
14.4654 -42.6214 576.22
14.4654 -42.1048 576.22
14.4779 -41.6239 576.716
14.4903 -41.1422 577.212
14.5153 -40.6947 578.207
14.553 -40.2805 579.706
14.5655 -39.7951 580.208
14.667 -39.5486 584.251
14.6798 -39.0588 584.761
14.7183 -38.6356 586.294
14.7312 -38.1433 586.807
14.757 -37.6831 587.836
14.8875 -37.4846 593.033
14.9271 -37.0512 594.61
14.9536 -36.5829 595.666
14.9669 -36.0809 596.196
14.9802 -35.578 596.726
14.9936 -35.0742 597.258
15.0069 -34.5695 597.79
15.0741 -34.1859 600.466
15.4759 11.3306 616.471
15.533 11.9271 618.746
15.533 12.4819 618.746
15.533 13.0366 618.746
15.533 13.5914 618.746
15.533 14.1461 618.746
15.5187 14.6873 618.175
15.533 15.2556 618.746
15.5187 15.7958 618.175
15.5187 16.35 618.175
15.5187 16.9043 618.175
15.5187 17.4585 618.175
15.5187 18.0128 618.175
15.5044 18.5499 617.606
15.4475 19.0335 615.34
15.4475 19.5852 615.34
15.4192 20.1 614.213
15.4192 20.6507 614.213
15.4475 21.2403 615.34
15.4475 21.792 615.34
15.4617 22.3642 615.905
15.4617 22.9164 615.905
15.4759 23.4902 616.471
15.4901 24.065 617.038
15.4901 24.6182 617.038
15.5044 25.1946 617.606
15.4901 25.7247 617.038
15.5044 26.3021 617.606
15.5044 26.8558 617.606
15.5044 27.4095 617.606
15.4759 27.9119 616.471
15.4759 28.4646 616.471
15.533 74.0591 618.746
15.5187 74.5451 618.175
15.5187 75.0993 618.175
15.4901 75.5144 617.038
15.4475 75.8582 615.34
15.4333 76.3399 614.776
14.835 77.0892 590.943
14.8481 77.6875 591.464
14.8089 78.0114 589.904
14.7829 78.4024 588.868
14.7829 78.9303 588.868
14.77 79.3886 588.351
14.757 79.846 587.836
14.7441 80.3027 587.321
14.7441 80.8293 587.321
14.7312 81.2847 586.807
14.6926 81.5966 585.271
14.667 81.9783 584.251
14.6798 82.5741 584.761
14.6926 83.1708 585.271
14.6798 83.6226 584.761
14.6798 84.1469 584.761
14.6926 84.7451 585.271
14.7055 85.3443 585.782
14.6926 85.7945 585.271
14.6926 86.3193 585.271
14.6798 86.7683 584.761
14.667 87.2165 584.251
14.6798 87.8169 584.761
14.667 88.2642 584.251
14.6415 88.6336 583.235
14.6415 89.1565 583.235
14.6161 89.5237 582.223
14.6161 90.0457 582.223
14.6415 90.7252 583.235
14.5908 90.9319 581.214
14.5908 91.453 581.214
14.5782 91.8944 580.71
14.5782 92.4151 580.71
14.4903 92.3759 577.212
14.3178 93.3216 570.34
14.2693 93.5148 568.407
14.2572 93.9448 567.926
14.2572 94.454 567.926
14.2693 95.0437 568.407
14.2452 95.3916 567.445
14.2211 95.7384 566.487
14.2211 96.2463 566.487
14.2211 96.7542 566.487
14.2693 98.1014 568.407
14.2693 98.611 568.407
14.2693 99.1206 568.407
14.2693 99.6303 568.407
14.2211 99.8016 566.487
14.2211 100.309 566.487
14.2211 100.817 566.487
14.1732 100.984 564.579
14.0784 100.811 560.803
14.0784 101.314 560.803
14.0784 101.817 560.803
14.0784 102.32 560.803
14.0784 102.823 560.803
14.0666 103.239 560.335
14.0315 103.482 558.934
14.0198 103.897 558.468
14.0081 104.311 558.004
14.0081 104.811 558.004
13.9965 105.224 557.54
14.0315 106.99 558.934
14.0315 107.491 558.934
13.9849 107.633 557.077
13.9849 108.133 557.077
14.0315 108.994 558.934
14.0549 109.678 559.867
14.0549 110.18 559.867
14.0081 110.314 558.004
13.9965 110.722 557.54
13.9965 111.222 557.54
13.9849 111.629 557.077
13.8128 111.242 550.222
13.8014 111.644 549.771
13.8014 112.137 549.771
13.8014 112.63 549.771
13.8014 113.123 549.771
13.8014 113.616 549.771
13.7901 114.015 549.321
13.7676 114.32 548.422
13.7339 114.531 547.08
13.7451 115.115 547.527
13.7339 115.512 547.08
13.7676 116.287 548.422
13.7901 116.97 549.321
13.7901 117.462 549.321
13.7901 117.955 549.321
13.7676 118.254 548.422
13.7901 118.94 549.321
13.8014 119.53 549.771
13.8468 120.418 551.579
13.8811 121.212 552.943
13.8811 121.707 552.943
13.8697 122.103 552.488
13.8468 122.396 551.579
13.7789 122.287 548.871
13.7227 122.279 546.634
13.7339 122.869 547.08
13.7227 123.259 546.634
13.7115 123.649 546.189
13.7115 124.138 546.189
13.7115 124.628 546.189
13.7115 125.118 546.189
13.7115 125.607 546.189
13.7115 126.097 546.189
13.7004 126.484 545.745
13.7115 127.077 546.189
13.7004 127.462 545.745
13.7004 127.952 545.745
13.7004 128.441 545.745
13.7004 128.93 545.745
13.7115 129.525 546.189
13.7115 130.015 546.189
13.6892 130.781 545.301
13.7004 131.377 545.745
13.6892 131.759 545.301
13.7004 132.355 545.745
13.7115 134.422 546.189
13.7004 134.802 545.745
13.7004 135.291 545.745
13.7004 135.781 545.745
13.7115 136.381 546.189
13.7115 136.871 546.189
13.6338 141.938 543.093
13.6338 142.425 543.093
13.6338 142.912 543.093
13.6338 143.399 543.093
13.6338 143.885 543.093
13.6338 144.372 543.093
13.6338 144.859 543.093
13.6228 145.229 542.654
13.6559 147.045 543.974
13.6228 148.148 542.654
13.6228 148.634 542.654
13.6228 149.121 542.654
13.6228 149.607 542.654
13.6118 149.973 542.215
13.6118 150.459 542.215
13.6118 150.945 542.215
13.6118 151.431 542.215
13.6118 151.917 542.215
13.6118 152.403 542.215
13.6118 152.889 542.215
13.6118 153.376 542.215
13.6118 153.862 542.215
13.6118 154.348 542.215
13.6118 154.834 542.215
13.6118 155.32 542.215
13.4918 154.915 537.436
13.5352 155.896 539.164
13.5352 156.38 539.164
13.6228 157.878 542.654
13.6228 158.365 542.654
13.667 159.367 544.416
13.7115 160.376 546.189
13.6228 159.825 542.654
13.7339 161.619 547.08
13.7339 162.109 547.08
13.7339 162.6 547.08
13.7339 163.09 547.08
13.8846 -162.546 534.013
13.929 -162.585 535.719
13.929 -162.105 535.719
13.8846 -161.11 534.013
13.8846 -160.631 534.013
13.8846 -160.152 534.013
13.9179 -160.056 535.292
13.929 -159.703 535.719
13.9179 -159.096 535.292
13.9179 -158.616 535.292
13.9179 -158.136 535.292
13.9179 -157.656 535.292
13.8957 -156.926 534.439
13.8846 -156.322 534.013
13.8846 -155.843 534.013
13.8846 -155.364 534.013
13.9179 -155.256 535.292
13.8846 -154.407 534.013
13.8846 -153.928 534.013
13.8626 -153.205 533.164
13.8626 -152.727 533.164
13.8846 -152.492 534.013
13.8846 -152.013 534.013
13.8846 -151.534 534.013
13.8846 -151.055 534.013
13.8846 -150.577 534.013
13.8846 -150.098 534.013
13.8846 -149.619 534.013
13.8846 -149.14 534.013
13.8846 -148.661 534.013
13.8846 -148.183 534.013
13.8846 -147.704 534.013
13.929 -147.695 535.719
13.929 -147.215 535.719
13.929 -146.735 535.719
13.8846 -142.916 534.013
13.8626 -142.211 533.164
13.8406 -141.508 532.318
13.8846 -141.48 534.013
13.929 -141.451 535.719
13.929 -140.971 535.719
13.929 -140.491 535.719
13.929 -139.53 535.719
14.0186 -102.722 539.164
13.9736 -101.911 537.436
13.9736 -101.429 537.436
14.0186 -101.272 539.164
14.0186 -100.789 539.164
13.9736 -99.9839 537.436
14.0186 -99.822 539.164
13.929 -98.7038 535.719
13.929 -98.2235 535.719
13.929 -97.7432 535.719
14.0186 -97.8884 539.164
14.0186 -97.405 539.164
13.9068 -96.1487 534.865
13.929 -95.822 535.719
13.9068 -94.71 534.865
13.929 -94.381 535.719
14.0186 -93.0544 539.164
14.0186 -92.0876 539.164
14.0186 -91.6042 539.164
14.0186 -91.1208 539.164
14.0186 -90.6374 539.164
14.0186 -89.6706 539.164
13.929 -88.6173 535.719
13.9179 -88.0667 535.292
13.9068 -87.5169 534.865
13.9179 -87.1068 535.292
13.9179 -86.6269 535.292
13.9179 -86.1469 535.292
13.929 -85.7354 535.719
13.929 -85.2551 535.719
13.9179 -84.7072 535.292
13.929 -84.2945 535.719
13.9179 -83.7473 535.292
13.929 -83.3339 535.719
13.929 -82.8536 535.719
13.929 -82.3733 535.719
13.929 -81.8929 535.719
13.929 -81.4126 535.719
13.929 -80.9323 535.719
13.929 -80.452 535.719
13.9513 -80.0997 536.576
13.9961 -79.8742 538.299
14.0073 -79.4553 538.731
14.0073 -78.9723 538.731
14.0073 -78.4893 538.731
14.0073 -78.0063 538.731
14.0186 -77.5856 539.164
14.0186 -77.1022 539.164
14.0412 -76.7422 540.033
14.0638 -76.381 540.904
14.0299 -75.7129 539.598
14.0186 -75.1686 539.164
14.0186 -74.6852 539.164
14.0073 -74.1422 538.731
14.0073 -73.6592 538.731
