ply
format ascii 1.0
element vertex 1934
property float x
property float y
property float z
end_header
-24.9438 98.09 751.929
-25.0562 99.209 755.316
-25.1696 100.338 758.734
-25.1981 101.133 759.593
-25.2553 102.045 761.317
-25.3416 103.079 763.918
-25.3705 103.882 764.79
-25.3994 104.687 765.663
-25.4285 105.494 766.538
-25.4285 106.181 766.538
-25.4285 106.868 766.538
-25.4576 107.679 767.415
-25.5159 108.615 769.175
-25.5746 109.556 770.943
-25.4285 109.617 766.538
-25.3127 109.803 763.049
-25.2267 110.111 760.454
-25.1981 110.667 759.593
-25.2553 111.601 761.317
-25.5159 113.443 769.175
-25.5746 114.395 770.943
-25.5746 115.086 770.943
-25.5159 115.511 769.175
-25.4576 115.935 767.415
-25.5159 116.891 769.175
-25.5746 117.851 770.943
-25.6335 118.815 772.719
-25.6335 119.508 772.719
-25.604 120.062 771.83
-25.4576 120.063 767.415
-25.1981 119.521 759.593
-25.2267 120.338 760.454
-25.3127 121.433 763.049
-25.3994 122.535 765.663
-25.4285 123.362 766.538
-25.4285 124.05 766.538
-25.4285 124.737 766.538
-25.4576 125.568 767.415
-25.5452 126.691 770.058
-25.5746 127.527 770.943
-25.604 128.366 771.83
-25.6335 129.207 772.719
-25.7224 130.35 775.399
-25.7224 131.045 775.399
-25.782 132.046 777.196
-25.812 132.897 778.098
-25.8419 133.749 779.002
-25.7522 133.981 776.297
-25.6631 134.211 773.611
-25.3416 134.584 763.918
-25.5159 136.2 769.175
-25.604 137.362 771.83
-25.6335 138.213 772.719
-25.604 138.746 771.83
-25.6335 139.599 772.719
-25.6335 140.292 772.719
-25.6335 140.984 772.719
-25.6335 141.677 772.719
-25.604 142.206 771.83
-25.604 142.898 771.83
-25.604 143.59 771.83
-25.6335 144.448 772.719
-25.6335 145.141 772.719
-25.6335 145.834 772.719
-25.6631 146.696 773.611
-25.6335 147.22 772.719
-25.5746 147.572 770.943
-25.604 148.434 771.83
-25.6335 149.298 772.719
-25.6927 150.337 774.504
-25.7224 151.206 775.399
-25.782 152.253 777.196
-25.782 152.95 777.196
-25.782 153.647 777.196
-25.782 154.344 777.196
-25.7522 187.574 776.297
-25.7522 188.27 776.297
-25.7522 188.966 776.297
-25.7522 189.662 776.297
-25.6927 189.918 774.504
-25.7522 191.054 776.297
-25.7522 191.75 776.297
-25.7522 192.446 776.297
-25.7522 193.142 776.297
-25.7522 193.838 776.297
-25.5159 192.749 769.175
-28.7466 269.985 866.564
-28.7466 270.762 866.564
-28.7466 271.539 866.564
-28.7838 272.669 867.685
-28.7838 273.446 867.685
-28.7838 274.224 867.685
-28.6726 273.939 864.33
-28.5255 273.305 859.898
-28.5255 274.076 859.898
-28.489 274.495 858.797
-28.489 275.265 858.797
-28.4162 275.33 856.603
-28.2359 274.346 851.168
-28.2001 274.761 850.089
-28.2001 275.523 850.089
-28.1644 275.935 849.013
-28.0579 275.65 845.801
-27.9873 275.713 843.673
-27.9521 276.122 842.614
-27.9873 277.226 843.673
-27.9521 277.633 842.614
-27.9521 278.388 842.614
-27.9521 279.144 842.614
-27.9873 280.251 843.673
-27.9521 280.655 842.614
-27.9171 281.057 841.556
-27.8821 281.458 840.502
-27.9171 282.566 841.556
-27.9171 283.321 841.556
-27.9171 284.075 841.556
-27.9171 284.83 841.556
-27.9171 285.584 841.556
-27.674 283.846 834.229
-27.6396 284.24 833.193
-27.6396 284.987 833.193
-27.6396 285.734 833.193
-27.6396 286.481 833.193
-27.6396 287.228 833.193
-27.6053 287.618 832.159
-27.537 287.65 830.1
-27.469 287.682 828.05
-27.469 288.425 828.05
-27.4352 288.811 827.029
-27.4352 289.552 827.029
-27.4352 290.294 827.029
-27.3677 290.319 824.994
-27.334 290.701 823.981
-27.3005 291.082 822.97
-27.2004 290.75 819.952
-27.1672 291.129 818.95
-27.101 291.152 816.955
-27.101 291.885 816.955
-27.101 292.617 816.955
-27.101 293.35 816.955
-27.101 294.082 816.955
-27.0351 294.098 814.97
-27.0351 294.829 814.97
-26.9369 294.486 812.01
-26.9044 294.857 811.028
-26.8719 295.227 810.049
-26.8719 295.954 810.049
-26.8071 295.965 808.097
-26.7427 295.976 806.154
-26.6785 295.988 804.221
-26.6466 296.353 803.258
-26.5829 296.364 801.339
-26.4251 295.318 796.58
-26.4251 296.032 796.58
-26.488 297.453 798.477
-26.5196 298.524 799.428
-26.4251 298.175 796.58
-26.4251 298.889 796.58
-26.488 300.316 798.477
-26.5196 301.391 799.428
-26.488 301.748 798.477
-26.488 302.464 798.477
-26.5196 303.541 799.428
-26.5196 304.258 799.428
-26.488 304.612 798.477
-26.4565 304.965 797.527
-26.3937 304.954 795.635
-26.3937 305.668 795.635
-26.3937 306.381 795.635
-26.3624 306.731 794.692
-26.3624 307.443 794.692
-26.3312 307.791 793.752
-26.3312 308.503 793.752
-26.2691 308.484 791.878
-26.2691 309.194 791.878
-26.3001 310.27 792.814
-26.3001 310.981 792.814
-26.3001 311.692 792.814
-26.2072 311.299 790.012
-26.1456 311.274 788.156
-25.8954 -40.6414 802.297
-26.0199 -40.114 806.154
-25.8954 -38.4834 802.297
-25.8954 -37.7641 802.297
-25.8645 -37.0006 801.339
-25.7109 -33.2099 796.58
-25.5893 -28.0772 792.814
-25.529 -27.3018 790.944
-25.529 -26.5927 790.944
-25.4689 -25.8226 789.083
-25.4689 -24.4077 789.083
-25.4689 -22.9927 789.083
-22.8843 -12.3957 709.007
-23.0304 -11.8351 713.532
-23.0549 -11.2072 714.292
-23.0549 -10.5668 714.292
-23.0304 -9.91586 713.532
-23.0059 -9.26627 712.774
-22.9815 -8.61806 712.017
-22.9328 -7.96278 710.509
-22.9328 -7.32575 710.509
-22.8843 -6.67459 709.007
-22.8843 -6.03892 709.007
-22.8601 -5.39753 708.258
-22.836 -4.75751 707.511
-22.812 -4.11883 706.765
-22.764 -3.47783 705.279
-22.7162 -2.83953 703.799
-22.7162 -2.20852 703.799
-22.6924 -1.57586 703.061
-23.278 7.43603 721.205
-23.278 8.08264 721.205
-24.054 21.7154 745.245
-24.1075 35.1568 746.905
-24.1075 35.8265 746.905
-24.1075 36.4961 746.905
-24.1075 37.1658 746.905
-24.0807 37.7933 746.074
-24.1075 38.5051 746.905
-24.1075 39.1747 746.905
-24.1344 39.8888 747.737
-24.1344 40.5592 747.737
-24.1075 41.1837 746.905
-24.1075 41.8533 746.905
-24.0807 42.4757 746.074
-24.054 43.0967 745.245
-24.0807 46.4892 746.074
-24.1613 47.316 748.572
-24.2425 48.1483 751.087
-24.2425 48.8217 751.087
-24.2425 49.4951 751.087
-24.2154 50.1124 750.247
-24.2154 50.7851 750.247
-24.2425 51.5153 751.087
-24.2425 52.1887 751.087
-24.2425 52.8621 751.087
-24.2154 53.4757 750.247
-24.1613 54.0274 748.572
-24.1613 54.6986 748.572
-24.2154 55.4936 750.247
-24.2425 56.2291 751.087
-24.2697 56.9663 751.929
-24.2697 57.6405 751.929
-24.2969 58.3801 752.773
-24.3242 59.1214 753.618
-24.4065 59.9993 756.167
-24.5171 62.3142 759.593
-24.5448 63.0666 760.454
-24.5727 63.8208 761.317
-24.6567 64.7238 763.918
-24.6848 65.4833 764.79
-24.6006 65.9434 762.182
-24.5448 66.4756 760.454
-24.5171 67.0814 759.593
-24.5171 67.7624 759.593
-24.4893 68.366 758.734
-24.4893 69.0463 758.734
-24.4893 69.7265 758.734
-24.4616 70.3272 757.876
-24.434 71.6053 757.021
-24.4065 72.2025 756.167
-24.2969 72.5533 752.773
-24.2969 73.2282 752.773
-24.2969 73.9031 752.773
-24.2969 74.578 752.773
-24.2697 75.1686 751.929
-24.3242 76.0132 753.618
-24.3516 76.7751 754.466
-24.434 77.7138 757.021
-24.434 78.3925 757.021
-24.4893 79.2502 758.734
-24.5171 80.0209 759.593
-24.6006 80.9771 762.182
-24.713 82.0333 765.663
-24.7695 82.9091 767.415
-24.9407 84.175 772.719
-24.9407 84.8678 772.719
-24.7412 84.8761 766.538
-24.713 85.4657 765.663
-24.6848 86.0539 764.79
-24.713 86.8386 765.663
-24.4616 93.4299 757.876
-24.4616 94.1094 757.876
-24.4616 94.7889 757.876
-24.4065 95.2531 756.167
-24.3242 95.6077 753.618
-24.2969 96.1753 752.773
-24.2697 96.7417 751.929
-24.2425 97.3067 751.087
-24.2697 98.09 751.929
-24.379 99.209 755.316
-24.5171 100.452 759.593
-24.5171 101.133 759.593
-24.5727 102.045 761.317
-24.6567 103.079 763.918
-24.6848 103.882 764.79
-24.713 104.687 765.663
-24.713 105.373 765.663
-24.713 106.06 765.663
-24.713 106.746 765.663
-24.7412 107.556 766.538
-24.7695 108.367 767.415
-24.7695 109.055 767.415
-24.713 109.492 765.663
-24.6286 109.803 763.049
-24.5448 110.111 760.454
-24.5448 110.793 760.454
-24.6006 111.728 762.182
-24.713 112.925 765.663
-24.9407 114.658 772.719
-24.8834 115.086 770.943
-24.7695 115.247 767.415
-24.7695 115.935 767.415
-24.8263 116.891 769.175
-24.9407 118.122 772.719
-24.9695 118.952 773.611
-24.9695 119.646 773.611
-24.9695 120.339 773.611
-24.9407 120.893 772.719
-24.4893 119.385 758.734
-24.5171 120.202 759.593
-24.6006 121.295 762.182
-24.713 122.535 765.663
-24.7412 123.362 766.538
-24.7412 124.05 766.538
-24.7695 124.88 767.415
-24.7979 125.712 768.294
-24.912 126.982 771.83
-24.912 127.674 771.83
-24.9407 128.514 772.719
-24.9695 129.356 773.611
-24.9983 130.2 774.504
-25.0562 131.197 776.297
-25.1435 132.353 779.002
-25.202 133.361 780.815
-25.202 134.061 780.815
-25.1727 134.604 779.907
-25.1435 135.146 779.002
-25.0562 135.373 776.297
-24.6006 133.595 762.182
-24.713 134.892 765.663
-24.7695 135.888 767.415
-24.8548 137.047 770.058
-24.912 138.054 771.83
-24.8834 138.587 770.943
-24.8548 139.118 770.058
-24.8834 139.969 770.943
-24.8834 140.66 770.943
-24.8834 141.352 770.943
-24.912 142.206 771.83
-24.912 142.898 771.83
-24.912 143.59 771.83
-24.912 144.282 771.83
-24.9407 145.141 772.719
-24.9407 145.834 772.719
-24.9407 146.527 772.719
-24.9407 147.22 772.719
-24.8834 147.572 770.943
-24.9407 148.605 772.719
-24.9695 149.47 773.611
-25.0272 150.511 775.399
-25.1143 151.732 778.098
-25.1435 152.607 779.002
-25.1435 153.306 779.002
-25.1727 154.183 779.907
-25.1727 154.882 779.907
-24.713 191.869 765.663
-28.115 271.388 871.065
-28.0785 271.816 869.936
-28.0785 272.596 869.936
-28.115 273.731 871.065
-28.115 274.512 871.065
-28.0785 274.936 869.936
-28.0059 275.002 867.685
-27.9336 275.069 865.446
-27.7902 274.428 861.002
-27.7546 274.847 859.898
-27.7546 275.618 859.898
-27.719 276.035 858.797
-27.5077 274.695 852.25
-27.4728 275.109 851.168
-27.438 275.523 850.089
-27.4032 275.935 849.013
-27.2996 275.65 845.801
-27.2309 275.713 843.673
-27.2309 276.469 843.673
-27.2309 277.226 843.673
-27.1967 277.633 842.614
-27.1967 278.388 842.614
-27.1967 279.144 842.614
-27.1967 279.899 842.614
-27.1967 280.655 842.614
-27.1626 281.057 841.556
-27.1626 281.812 841.556
-27.1626 282.566 841.556
-27.1967 283.676 842.614
-27.1626 284.075 841.556
-27.1626 284.83 841.556
-27.1285 285.226 840.502
-26.9596 284.199 835.268
-26.9261 284.594 834.229
-26.8926 284.987 833.193
-26.8926 285.734 833.193
-26.8926 286.481 833.193
-26.8926 287.228 833.193
-26.8593 287.618 832.159
-26.7596 287.295 829.073
-26.7266 287.682 828.05
-26.7266 288.425 828.05
-26.6937 288.811 827.029
-26.6937 289.552 827.029
-26.6937 290.294 827.029
-26.6608 290.677 826.01
-26.5953 290.701 823.981
-26.4976 290.37 820.955
-26.4329 290.395 818.95
-26.4007 290.774 817.952
-26.3685 291.152 816.955
-26.3685 291.885 816.955
-26.3685 292.617 816.955
-26.3685 293.35 816.955
-26.3364 293.725 815.962
-26.3044 294.098 814.97
-26.2407 294.114 812.994
-26.1772 294.13 811.028
-26.1456 294.501 810.049
-26.1141 294.871 809.072
-26.1141 295.597 809.072
-26.0512 295.609 807.124
-25.9887 295.621 805.187
-25.9264 295.633 803.258
-25.8954 295.999 802.297
-25.8645 296.364 801.339
-25.7109 295.318 796.58
-25.7414 296.384 797.527
-25.7721 297.453 798.477
-25.7721 298.169 798.477
-25.7109 298.175 796.58
-25.7414 299.244 797.527
-25.8028 300.674 799.428
-25.8336 301.751 800.382
-25.8336 302.468 800.382
-25.8028 302.825 799.428
-25.8336 303.904 800.382
-25.8028 304.258 799.428
-25.7721 304.612 798.477
-25.7414 304.965 797.527
-25.6804 304.954 795.635
-25.6804 305.668 795.635
-25.6804 306.381 795.635
-25.65 306.731 794.692
-25.6196 307.079 793.752
-25.5893 307.427 792.814
-25.5893 308.138 792.814
-25.529 308.12 790.944
-25.5893 309.56 792.814
-25.6196 310.638 793.752
-25.6196 311.349 793.752
-25.6196 312.061 793.752
-25.5591 312.034 791.878
-25.4689 311.64 789.083
-25.4091 311.614 787.231
-25.2971 -40.8368 806.154
-25.4193 -40.3078 810.049
-25.2365 -38.5757 804.221
-25.2365 -37.8547 804.221
-25.1761 -37.0448 802.297
-24.9375 -33.8437 794.692
-25.0562 -33.289 798.477
-24.9375 -32.4187 794.692
-24.9079 -28.1104 793.752
-24.8785 -27.3663 792.814
-24.8785 -26.6555 792.814
-24.8198 -25.8835 790.944
-24.8198 -24.4653 790.944
-22.2958 -12.4219 710.509
-22.3906 -11.8351 713.532
-22.3906 -11.1953 713.532
-22.3906 -10.5556 713.532
-22.3669 -9.90532 712.774
-22.3669 -9.26627 712.774
-22.3431 -8.61806 712.017
-22.3194 -7.97122 711.262
-22.3194 -7.33352 711.262
-22.2958 -6.68873 710.509
-22.2722 -6.04531 709.757
-22.2486 -5.40324 709.007
-22.2251 -4.76253 708.258
-22.2017 -4.12317 707.511
-22.1783 -3.48516 706.765
-22.1783 -2.8515 706.765
-22.155 -2.2155 706.021
-22.1084 -1.57917 704.538
-22.6071 7.42805 720.43
-23.3858 21.7154 745.245
-23.3858 22.3835 745.245
-23.3858 23.0517 745.245
-23.4118 35.1177 746.074
-23.4379 35.8265 746.905
-23.4379 36.4961 746.905
-23.4379 37.1658 746.905
-23.4379 37.8354 746.905
-23.4379 38.5051 746.905
-23.4379 39.1747 746.905
-23.464 39.8888 747.737
-23.464 40.5592 747.737
-23.464 41.2296 747.737
-23.464 41.9 747.737
-23.4118 42.4757 746.074
-23.3858 43.0967 745.245
-23.4379 46.5409 746.905
-23.5427 47.4218 750.247
-23.5691 48.1483 751.087
-23.5691 48.8217 751.087
-23.5691 49.4951 751.087
-23.5427 50.1124 750.247
-23.5427 50.7851 750.247
-23.5691 51.5153 751.087
-23.5691 52.1887 751.087
-23.5691 52.8621 751.087
-23.5427 53.4757 750.247
-23.5164 54.0878 749.408
-23.4902 54.6986 748.572
-23.5164 55.4316 749.408
-23.5427 56.1663 750.247
-23.5955 56.9663 751.929
-23.622 57.7052 752.773
-23.6486 58.4457 753.618
-23.6486 59.1214 753.618
-23.7553 60.067 757.021
-23.8091 61.5634 758.734
-23.836 62.3142 759.593
-23.8901 63.1382 761.317
-23.9445 63.966 763.049
-23.9991 64.7976 764.79
-24.0265 65.558 765.663
-23.9445 66.0184 763.049
-23.863 66.4756 760.454
-23.863 67.1574 760.454
-23.836 67.7624 759.593
-23.8091 68.366 758.734
-23.8091 69.0463 758.734
-23.8091 69.7265 758.734
-23.7822 70.3272 757.876
-23.7018 72.1212 755.316
-23.622 72.5533 752.773
-23.622 73.2282 752.773
-23.622 73.9031 752.773
-23.622 74.578 752.773
-23.6486 75.3375 753.618
-23.7018 76.1844 755.316
-23.7553 77.0351 757.021
-23.7822 77.8016 757.876
-23.7822 78.4811 757.876
-23.8091 79.2502 758.734
-23.9445 80.3851 763.049
-23.9991 81.2541 764.79
-24.054 82.1271 766.538
-24.0265 82.7198 765.663
-24.1922 83.9815 770.943
-24.1367 84.4785 769.175
-24.0265 84.7792 765.663
-24.0265 85.4657 765.663
-24.0265 86.1521 765.663
-24.0265 86.8386 765.663
-23.8091 93.5356 758.734
-23.8091 94.2159 758.734
-23.8091 94.8961 758.734
-23.7822 95.4684 757.876
-23.7018 95.823 755.316
-23.622 96.1753 752.773
-23.622 96.8502 752.773
-23.622 97.5251 752.773
-23.622 98.2001 752.773
-23.7822 99.5453 757.876
-23.836 100.452 759.593
-23.863 101.248 760.454
-23.9173 102.161 762.182
-23.9718 103.079 763.918
-23.9991 103.882 764.79
-23.9991 104.567 764.79
-23.9991 105.253 764.79
-24.0265 106.06 765.663
-24.0265 106.746 765.663
-24.0265 107.433 765.663
-24.054 108.243 766.538
-24.054 108.93 766.538
-24.0265 109.492 765.663
-23.9173 109.678 762.182
-23.836 109.986 759.593
-23.863 110.793 760.454
-23.9173 111.728 762.182
-23.9718 112.667 763.918
-24.1367 114.132 769.175
-24.0265 114.297 765.663
-23.9173 114.461 762.182
-23.9173 115.145 762.182
-24.0265 116.357 765.663
-24.1922 117.851 770.943
-24.2759 118.952 773.611
-24.3039 119.784 774.504
-24.3602 120.757 776.297
-23.9173 119.245 762.182
-23.8091 119.385 758.734
-23.836 120.202 759.593
-23.9718 121.571 763.918
-24.054 122.675 766.538
-24.0815 123.504 767.415
-24.0815 124.192 767.415
-24.1091 125.023 768.294
-24.1644 126 770.058
-24.22 126.982 771.83
-24.2479 127.821 772.719
-24.2479 128.514 772.719
-24.2759 129.356 773.611
-24.3039 130.2 774.504
-24.3602 131.197 776.297
-24.4451 132.353 779.002
-24.5305 133.516 781.725
-24.6454 134.846 785.387
-24.502 134.761 780.815
-24.4735 135.303 779.907
-24.3602 135.373 776.297
-24.1367 134.821 769.175
-24.1922 135.822 770.943
-24.1644 136.356 770.058
-24.1922 137.204 770.943
-24.22 138.054 771.83
-24.1922 138.587 770.943
-24.1644 139.118 770.058
-24.1922 139.969 770.943
-24.1922 140.66 770.943
-24.1922 141.352 770.943
-24.1922 142.043 770.943
-24.22 142.898 771.83
-24.22 143.59 771.83
-24.2479 144.448 772.719
-24.2479 145.141 772.719
-24.2479 145.834 772.719
-24.2479 146.527 772.719
-24.2479 147.22 772.719
-24.22 147.742 771.83
-24.2479 148.605 772.719
-24.2759 149.47 773.611
-24.3602 150.685 776.297
-24.4451 151.909 779.002
-24.4735 152.785 779.907
-24.502 153.662 780.815
-24.5305 154.542 781.725
-24.5879 155.606 783.552
-27.5127 273.162 876.759
-27.4768 273.59 875.614
-27.5127 274.734 876.759
-27.5127 275.52 876.759
-27.4768 275.945 875.614
-27.334 275.293 871.065
-27.228 275.002 867.685
-27.228 275.78 867.685
-27.053 274.781 862.109
-27.0182 275.2 861.002
-26.9836 275.618 859.898
-26.9491 276.035 858.797
-26.7776 275.044 853.334
-26.7436 275.459 852.25
-26.7097 275.873 851.168
-26.6758 276.285 850.089
-26.5078 275.303 844.736
-26.4412 275.366 842.614
-26.408 275.775 841.556
-26.4412 276.877 842.614
-26.4412 277.633 842.614
-26.408 278.039 841.556
-26.4412 279.144 842.614
-26.4412 279.899 842.614
-26.408 280.302 841.556
-26.408 281.057 841.556
-26.408 281.812 841.556
-26.408 282.566 841.556
-26.408 283.321 841.556
-26.408 284.075 841.556
-26.3749 284.473 840.502
-26.3419 284.869 839.45
-26.2107 284.199 835.268
-26.1781 284.594 834.229
-26.1781 285.342 834.229
-26.1456 285.734 833.193
-26.1456 286.481 833.193
-26.1781 287.585 834.229
-26.1456 287.975 833.193
-26.0485 287.65 830.1
-25.9842 287.682 828.05
-25.9842 288.425 828.05
-25.9522 288.811 827.029
-25.9522 289.552 827.029
-25.9202 289.936 826.01
-25.8565 289.962 823.981
-25.7931 289.989 821.961
-25.7616 290.37 820.955
-25.6987 290.395 818.95
-25.6987 291.129 818.95
-25.6673 291.508 817.952
-25.6361 291.885 816.955
-25.6361 292.617 816.955
-25.6361 293.35 816.955
-25.6361 294.082 816.955
-25.5427 293.741 813.981
-25.4809 293.758 812.01
-25.4501 294.13 811.028
-25.4193 294.501 810.049
-25.3887 294.871 809.072
-25.3581 295.241 808.097
-25.2365 294.546 804.221
-25.2062 294.913 803.258
-25.1761 295.28 802.297
-25.146 295.645 801.339
-25.0861 295.657 799.428
-24.9967 295.318 796.58
-24.9967 296.032 796.58
-25.0264 297.099 797.527
-25.0264 297.814 797.527
-24.9967 298.175 796.58
-25.0264 299.244 797.527
-25.0861 300.674 799.428
-25.116 301.751 800.382
-25.116 302.468 800.382
-25.116 303.186 800.382
-25.116 303.904 800.382
-25.116 304.621 800.382
-25.116 305.339 800.382
-25.0562 305.328 798.477
-24.9967 305.317 796.58
-25.0264 306.395 797.527
-24.967 306.381 795.635
-24.9375 306.731 794.692
-24.9375 307.443 794.692
-24.9079 307.791 793.752
-24.9079 308.503 793.752
-24.8491 308.484 791.878
-24.9079 309.926 793.752
-24.9375 311.006 794.692
-24.9375 311.718 794.692
-24.9375 312.431 794.692
-24.9079 312.773 793.752
-24.8491 312.744 791.878
-24.7323 311.981 788.156
-24.5154 -38.5757 804.221
-24.4568 -37.7641 802.297
-24.4568 -37.0448 802.297
-24.3984 -36.2388 800.382
-24.3403 -34.0048 798.477
-24.2825 -33.2099 796.58
-24.2537 -32.4571 795.635
-24.1963 -28.1104 793.752
-24.1963 -27.3987 793.752
-24.1963 -26.6871 793.752
-24.1677 -25.9447 792.814
-24.1107 -24.4653 790.944
-21.7047 -12.4483 712.017
-21.7741 -11.8477 714.292
-21.7973 -11.2192 715.054
-21.7741 -10.5668 714.292
-21.7509 -9.91586 713.532
-21.7509 -9.27612 713.532
-21.7278 -8.62721 712.774
-21.7278 -7.98816 712.774
-21.7278 -7.34911 712.774
-21.7278 -6.71006 712.774
-21.7278 -6.071 712.774
-21.7047 -5.42618 712.017
-21.6588 -4.77767 710.509
-21.5901 -4.12753 708.258
-21.5901 -3.49252 708.258
-21.5901 -2.85752 708.258
-21.5901 -2.22251 708.258
-21.5674 -1.58584 707.511
-22.7176 19.0427 745.245
-22.7176 19.7109 745.245
-22.7176 20.379 745.245
-22.7176 21.0472 745.245
-22.7176 21.7154 745.245
-22.7176 22.3835 745.245
-22.7176 23.0517 745.245
-22.7936 23.7992 747.737
-22.8957 24.5792 751.087
-22.9214 25.2809 751.929
-22.7429 35.1177 746.074
-22.7682 35.8265 746.905
-22.7682 36.4961 746.905
-22.7682 37.1658 746.905
-22.7682 37.8354 746.905
-22.7429 38.4622 746.074
-22.7682 39.1747 746.905
-22.7936 39.8888 747.737
-22.7936 40.5592 747.737
-22.7682 41.1837 746.905
-22.7682 41.8533 746.905
-22.7682 42.523 746.905
-22.7176 43.0967 745.245
-22.8701 46.7492 750.247
-22.8957 47.4749 751.087
-22.9214 48.2023 751.929
-22.9214 48.8764 751.929
-22.9214 49.5506 751.929
-22.8957 50.1685 751.087
-22.8957 50.8419 751.087
-22.8957 51.5153 751.087
-22.9214 52.2472 751.929
-22.9214 52.9214 751.929
-22.8957 53.5355 751.087
-22.8701 54.1483 750.247
-22.8445 54.7597 749.408
-22.8701 55.4936 750.247
-22.8957 56.2291 751.087
-22.9214 56.9663 751.929
-22.9471 57.7052 752.773
-22.9729 58.4457 753.618
-22.9729 59.1214 753.618
-23.0246 59.9317 755.316
-23.1027 61.4939 757.876
-23.1288 62.2437 758.734
-23.1812 63.0666 760.454
-23.2604 63.966 763.049
-23.3134 64.7976 764.79
-23.3134 65.4833 764.79
-23.2076 65.8685 761.317
-23.155 66.4004 759.593
-23.155 67.0814 759.593
-23.1288 67.6858 758.734
-23.1288 68.366 758.734
-23.1288 69.0463 758.734
-23.1288 69.7265 758.734
-23.1288 70.4068 758.734
-23.1027 72.3657 757.876
-23.0246 72.7984 755.316
-22.9987 73.393 754.466
-23.0246 74.1528 755.316
-23.0506 74.9144 756.167
-23.0766 75.6777 757.021
-23.1027 76.4427 757.876
-23.1288 77.2094 758.734
-23.155 77.9779 759.593
-23.1288 78.5699 758.734
-23.2076 79.52 761.317
-23.3134 80.5684 764.79
-23.3667 81.4398 766.538
-23.4202 82.3152 768.294
-23.3667 82.8143 766.538
-23.474 83.8851 770.058
-23.3934 84.2852 767.415
-23.34 84.7792 765.663
-23.3134 85.3682 764.79
-23.3134 86.0539 764.79
-23.1288 94.2159 758.734
-23.1288 94.8961 758.734
-23.0766 95.3606 757.021
-22.9729 95.6077 753.618
-22.9471 96.1753 752.773
-22.9214 96.7417 751.929
-22.9471 97.5251 752.773
-23.0246 98.5318 755.316
-23.1288 99.6579 758.734
-23.1812 100.566 760.454
-23.2076 101.362 761.317
-23.2869 102.394 763.918
-23.2869 103.079 763.918
-23.3134 103.882 764.79
-23.3134 104.567 764.79
-23.3134 105.253 764.79
-23.34 106.06 765.663
-23.34 106.746 765.663
-23.3667 107.556 766.538
-23.3667 108.243 766.538
-23.3667 108.93 766.538
-23.34 109.492 765.663
-23.2604 109.803 763.049
-23.1812 110.111 760.454
-23.2076 110.918 761.317
-23.2869 111.982 763.918
-23.3134 112.796 764.79
-23.2869 113.352 763.918
-23.2869 114.037 763.918
-23.1812 114.202 760.454
-23.1288 114.624 758.734
-23.155 115.434 759.593
-23.2869 116.777 763.918
-23.5823 118.952 773.611
-23.6642 120.061 776.297
-23.6642 120.757 776.297
-23.1812 118.974 760.454
-23.1288 119.385 758.734
-23.155 120.202 759.593
-23.2339 121.295 762.182
-23.34 122.535 765.663
-23.4202 123.645 768.294
-23.4202 124.334 768.294
-23.4471 125.166 769.175
-23.474 126 770.058
-23.501 126.836 770.943
-23.528 127.674 771.83
-23.5551 128.514 772.719
-23.5823 129.356 773.611
-23.5823 130.049 773.611
-23.6368 131.045 775.399
-23.7466 132.353 779.002
-23.8854 133.828 783.552
-23.9975 135.162 787.231
-23.9413 135.55 785.387
-23.8297 135.619 781.725
-23.7743 136.003 779.907
-23.5823 135.598 773.611
-23.5823 136.292 773.611
-23.528 136.67 771.83
-23.528 137.362 771.83
-23.528 138.054 771.83
-23.528 138.746 771.83
-23.501 139.278 770.943
-23.501 139.969 770.943
-23.501 140.66 770.943
-23.501 141.352 770.943
-23.528 142.206 771.83
-23.528 142.898 771.83
-23.528 143.59 771.83
-23.5551 144.448 772.719
-23.5551 145.141 772.719
-23.5551 145.834 772.719
-23.5551 146.527 772.719
-23.5551 147.22 772.719
-23.528 147.742 771.83
-23.5551 148.605 772.719
-23.5823 149.47 773.611
-23.7466 151.21 779.002
-23.7743 152.085 779.907
-23.8019 152.962 780.815
-23.8575 154.021 782.638
-23.9413 155.266 785.387
-23.9413 155.97 785.387
-26.7616 274.306 877.906
-26.7616 275.093 877.906
-26.7616 275.881 877.906
-26.6222 275.227 873.334
-26.4843 274.58 868.809
-26.45 275.002 867.685
-26.4158 275.424 866.564
-26.3138 275.135 863.218
-26.2463 275.2 861.002
-26.2463 275.972 861.002
-26.2126 276.389 859.898
-26.1791 276.805 858.797
-26.0457 276.161 854.421
-25.9795 276.223 852.25
-25.9136 276.285 850.089
-25.7505 275.303 844.736
-25.6858 275.366 842.614
-25.6858 276.122 842.614
-25.6858 276.877 842.614
-25.6858 277.633 842.614
-25.6858 278.388 842.614
-25.6858 279.144 842.614
-25.6858 279.899 842.614
-25.6858 280.655 842.614
-25.6858 281.41 842.614
-25.6535 281.812 841.556
-25.6535 282.566 841.556
-25.6535 283.321 841.556
-25.6214 283.719 840.502
-25.6214 284.473 840.502
-25.5893 284.869 839.45
-25.4936 284.553 836.31
-25.4618 284.948 835.268
-25.4302 285.342 834.229
-25.4302 286.089 834.229
-25.4302 286.837 834.229
-25.4302 287.585 834.229
-25.3986 287.975 833.193
-25.3043 287.65 830.1
-25.2418 287.682 828.05
-25.2107 288.069 827.029
-25.2107 288.811 827.029
-25.1796 289.195 826.01
-25.1796 289.936 826.01
-25.1178 289.962 823.981
-25.1178 290.701 823.981
-25.0869 291.082 822.97
-25.0255 291.106 820.955
-24.9949 291.485 819.952
-24.934 291.508 817.952
-24.934 292.241 817.952
-24.934 292.974 817.952
-24.934 293.708 817.952
-24.9036 294.082 816.955
-24.8129 293.741 813.981
-24.7529 293.758 812.01
-24.6931 293.775 810.049
-24.6931 294.501 810.049
-24.6633 294.871 809.072
-24.6633 295.597 809.072
-24.5154 294.546 804.221
-24.4861 294.913 803.258
-24.4568 295.28 802.297
-24.3984 295.292 800.382
-24.2825 294.604 796.58
-24.2537 294.968 795.635
-24.2825 296.032 796.58
-24.2825 296.746 796.58
-24.2825 297.461 796.58
-24.2825 298.175 796.58
-24.2825 298.889 796.58
-24.3693 300.674 799.428
-24.3693 301.391 799.428
-24.3693 302.108 799.428
-24.3984 303.186 800.382
-24.3984 303.904 800.382
-24.4276 304.985 801.339
-24.3984 305.339 800.382
-24.3114 304.965 797.527
-24.2537 304.954 795.635
-24.2537 305.668 795.635
-24.225 306.018 794.692
-24.1963 306.368 793.752
-24.1963 307.079 793.752
-24.1963 307.791 793.752
-24.1677 308.138 792.814
-24.1392 308.484 791.878
-24.1677 309.56 792.814
-24.225 311.006 794.692
-24.225 311.718 794.692
-24.225 312.431 794.692
-24.1963 312.773 793.752
-24.1963 313.484 793.752
-24.1107 313.084 790.944
-23.7375 -38.4834 802.297
-23.7375 -37.7641 802.297
-23.7375 -37.0448 802.297
-23.7375 -36.3255 802.297
-23.5683 -33.9241 796.58
-23.5683 -33.2099 796.58
-23.5683 -32.4957 796.58
-23.5125 -28.1437 794.692
-23.5125 -27.4312 794.692
-23.4846 -26.6871 793.752
-23.4569 -25.9447 792.814
-23.4015 -24.4653 790.944
-23.4015 -23.7561 790.944
-21.1112 -12.4748 713.532
-21.1337 -11.8477 714.292
-21.1788 -11.2312 715.817
-21.1562 -10.5781 715.054
-21.1337 -9.92642 714.292
-21.1337 -9.28601 714.292
-21.1112 -8.63639 713.532
-21.1112 -7.99666 713.532
-21.1337 -7.36476 714.292
-21.1112 -6.71719 713.532
-21.1112 -6.07746 713.532
-21.1112 -5.43773 713.532
-21.0887 -4.7929 712.774
-21.0664 -4.14943 712.017
-20.9995 -3.49991 709.757
-20.9995 -2.86357 709.757
-20.9773 -2.22486 709.007
-22.0986 19.0851 746.905
-22.074 19.7328 746.074
-22.074 20.4017 746.074
-22.074 21.0706 746.074
-22.0495 21.7154 745.245
-22.0495 22.3835 745.245
-22.0495 23.0517 745.245
-22.0986 23.7727 746.905
-22.1974 24.5517 750.247
-22.2472 25.2809 751.929
-22.0986 25.7817 746.905
-22.0986 35.8265 746.905
-22.1232 36.5368 747.737
-22.0986 37.1658 746.905
-22.0986 37.8354 746.905
-22.0986 38.5051 746.905
-22.0986 39.1747 746.905
-22.1232 39.8888 747.737
-22.1479 40.6045 748.572
-22.1232 41.2296 747.737
-22.1726 41.9936 749.408
-22.1974 42.7133 750.247
-22.1479 43.2891 748.572
-22.2472 46.854 751.929
-22.2472 47.5281 751.929
-22.2472 48.2023 751.929
-22.2472 48.8764 751.929
-22.2472 49.5506 751.929
-22.2472 50.2248 751.929
-22.2472 50.8989 751.929
-22.2472 51.5731 751.929
-22.2472 52.2472 751.929
-22.2472 52.9214 751.929
-22.2472 53.5956 751.929
-22.1726 54.0878 749.408
-22.1726 54.7597 749.408
-22.1974 55.4936 750.247
-22.2223 56.2291 751.087
-22.2472 56.9663 751.929
-22.2722 57.7052 752.773
-22.2722 58.3801 752.773
-22.3223 59.1879 754.466
-22.3474 59.9317 755.316
-22.4232 61.4939 757.876
-22.4232 62.1734 757.876
-22.4485 62.9239 758.734
-22.4994 63.7484 760.454
-22.525 64.5034 761.317
-22.525 65.1859 761.317
-22.474 65.7193 759.593
-22.4485 66.3252 758.734
-22.4485 67.0055 758.734
-22.4485 67.6858 758.734
-22.4232 68.2888 757.876
-22.4232 68.9683 757.876
-22.4232 69.6478 757.876
-22.4232 70.3272 757.876
-22.3726 73.5584 756.167
-22.4232 74.4042 757.876
-22.4232 75.0837 757.876
-22.4485 75.8489 758.734
-22.474 76.6158 759.593
-22.4994 77.3845 760.454
-22.525 78.1549 761.317
-22.525 78.8374 761.317
-22.5762 79.701 763.049
-22.6535 80.6604 765.663
-22.7054 81.533 767.415
-22.8098 82.5991 770.943
-22.7575 83.0992 769.175
-22.8098 83.9815 770.943
-22.6794 84.1888 766.538
-22.6535 84.7792 765.663
-22.6535 85.4657 765.663
-22.6277 86.0539 764.79
-22.3979 93.3245 757.021
-22.4232 94.1094 757.876
-22.3979 94.6819 757.021
-22.3726 95.2531 756.167
-22.3223 95.7153 754.466
-22.2722 96.1753 752.773
-22.2722 96.8502 752.773
-22.2972 97.6347 753.618
-22.4232 98.8658 757.876
-22.474 99.7708 759.593
-22.5506 100.794 762.182
-22.6019 101.709 763.918
-22.6277 102.51 764.79
-22.6277 103.196 764.79
-22.6277 103.882 764.79
-22.6277 104.567 764.79
-22.6277 105.253 764.79
-22.6535 106.06 765.663
-22.6535 106.746 765.663
-22.6535 107.433 765.663
-22.6794 108.243 766.538
-22.6794 108.93 766.538
-22.6535 109.492 765.663
-22.6019 109.928 763.918
-22.5762 110.487 763.049
-22.6277 111.424 764.79
-22.6535 112.238 765.663
-22.6535 112.925 765.663
-22.6535 113.611 765.663
-22.6277 114.167 764.79
-22.4994 114.202 760.454
-22.474 114.753 759.593
-22.474 115.434 759.593
-22.525 116.379 761.317
-22.6277 117.596 764.79
-22.6535 118.416 765.663
-22.6277 118.967 764.79
-22.4994 118.974 760.454
-22.474 119.521 759.593
-22.4994 120.338 760.454
-22.5762 121.433 763.049
-22.6794 122.675 766.538
-22.7836 123.929 770.058
-22.7836 124.619 770.058
-22.8098 125.454 770.943
-22.836 126.29 771.83
-22.836 126.982 771.83
-22.836 127.674 771.83
-22.8623 128.514 772.719
-22.8887 129.356 773.611
-22.9151 130.2 774.504
-22.9948 131.349 777.196
-23.0482 132.353 779.002
-23.1019 133.361 780.815
-23.2917 135.162 787.231
-23.1828 135.233 783.552
-23.1828 135.936 783.552
-23.075 136.003 779.907
-23.0482 136.543 779.002
-23.0215 137.082 778.098
-22.9416 137.302 775.399
-22.8623 137.52 772.719
-22.8887 138.373 773.611
-22.8623 138.906 772.719
-22.836 139.438 771.83
-22.836 140.13 771.83
-22.836 140.822 771.83
-22.836 141.514 771.83
-22.836 142.206 771.83
-22.836 142.898 771.83
-22.836 143.59 771.83
-22.8623 144.448 772.719
-22.8623 145.141 772.719
-22.8623 145.834 772.719
-22.8623 146.527 772.719
-22.836 147.05 771.83
-22.836 147.742 771.83
-22.8623 148.605 772.719
-22.8623 149.298 772.719
-22.9948 150.86 777.196
-23.075 152.085 779.907
-23.1019 152.962 780.815
-23.2371 154.562 785.387
-23.2917 155.631 787.231
-23.2917 156.337 787.231
-23.2917 157.042 787.231
-25.8392 273.661 873.334
-25.7721 273.731 871.065
-25.7387 274.156 869.936
-25.7053 274.58 868.809
-25.6721 275.002 867.685
-25.6721 275.78 867.685
-25.6389 276.201 866.564
-25.5399 275.908 863.218
-25.5071 276.327 862.109
-25.4743 276.744 861.002
-25.4417 277.16 859.898
-25.4091 277.575 858.797
-25.2475 276.575 853.334
-25.1834 276.636 851.168
-25.0879 276.347 847.94
-25.0246 276.408 845.801
-24.9931 276.817 844.736
-24.9931 277.575 844.736
-24.9616 277.982 843.673
-24.9616 278.738 843.673
-24.9616 279.495 843.673
-24.9303 279.899 842.614
-24.9303 280.655 842.614
-24.9303 281.41 842.614
-24.9303 282.166 842.614
-24.899 282.566 841.556
-24.8678 282.966 840.502
-24.8678 283.719 840.502
-24.8678 284.473 840.502
-24.8678 285.226 840.502
-24.7438 284.553 836.31
-24.713 284.948 835.268
-24.6822 285.342 834.229
-24.6822 286.089 834.229
-24.6822 286.837 834.229
-24.6822 287.585 834.229
-24.621 287.618 832.159
-24.5297 287.295 829.073
-24.4692 287.328 827.029
-24.4692 288.069 827.029
-24.4692 288.811 827.029
-24.4692 289.552 827.029
-24.4391 289.936 826.01
-24.409 290.319 824.994
-24.409 291.059 824.994
-24.379 291.44 823.981
-24.3193 291.463 821.961
-24.2598 291.485 819.952
-24.2006 291.508 817.952
-24.2006 292.241 817.952
-24.2006 292.974 817.952
-24.1711 293.35 816.955
-24.1417 293.725 815.962
-24.054 293.385 812.994
-24.0248 293.758 812.01
-23.9668 293.775 810.049
-23.9668 294.501 810.049
-23.9379 294.871 809.072
-23.9379 295.597 809.072
-23.8229 294.899 805.187
-23.7659 294.913 803.258
-23.7375 295.28 802.297
-23.7091 295.645 801.339
-23.5963 294.954 797.527
-23.5403 294.968 795.635
-23.5683 296.032 796.58
-23.5963 297.099 797.527
-23.5963 297.814 797.527
-23.5683 298.175 796.58
-23.5683 298.889 796.58
-23.5963 299.959 797.527
-23.5963 300.674 797.527
-23.5403 300.674 795.635
-23.5683 301.746 796.58
-23.5963 302.82 797.527
-23.5963 303.535 797.527
-23.5125 303.168 794.692
-23.5125 303.881 794.692
-23.4846 304.233 793.752
-23.4846 304.944 793.752
-23.4569 305.295 792.814
-23.4569 306.006 792.814
-23.4569 306.716 792.814
-23.4846 307.791 793.752
-23.4846 308.503 793.752
-23.4569 308.849 792.814
-23.4846 309.926 793.752
-23.5125 311.006 794.692
-23.5403 312.088 795.635
-23.5403 312.801 795.635
-23.5403 313.515 795.635
-23.5125 313.856 794.692
-23.4846 314.196 793.752
-23.0181 -40.6414 802.297
-23.0181 -39.2028 802.297
-23.0181 -38.4834 802.297
-22.9632 -37.674 800.382
-22.9085 -36.8684 798.477
-22.8541 -33.9241 796.58
-22.8541 -33.2099 796.58
-22.827 -32.4571 795.635
-22.827 -28.1771 795.635
-22.8 -27.4312 794.692
-22.773 -26.6871 793.752
-22.8 -26.0062 794.692
-22.8 -25.2937 794.692
-22.6924 -24.4653 790.944
-22.6924 -23.7561 790.944
-22.639 -22.9927 789.083
-20.5151 -11.8603 715.054
-20.5809 -11.2552 717.348
-20.5589 -10.6007 716.582
-20.537 -9.94761 715.817
-20.537 -9.30583 715.817
-20.5151 -8.65481 715.054
-20.5151 -8.01371 715.054
-20.5151 -7.37261 715.054
-20.5151 -6.73152 715.054
-20.5151 -6.09042 715.054
-20.537 -5.45514 715.817
-20.5151 -4.80823 715.054
-20.4714 -4.15826 713.532
-20.3847 -3.50362 710.509
-20.3847 -2.8666 710.509
-21.5248 15.8073 750.247
-21.4767 16.4431 748.572
-21.5007 19.1491 749.408
-21.4289 19.7548 746.905
-21.4051 20.4017 746.074
-21.4051 21.0706 746.074
-21.3813 21.7154 745.245
-21.3813 22.3835 745.245
-21.3813 23.0517 745.245
-21.4051 23.7463 746.074
-21.4767 24.4969 748.572
-21.5489 25.2526 751.087
-21.4051 25.753 746.074
-21.4289 35.8265 746.905
-21.4528 36.5368 747.737
-21.4528 37.2072 747.737
-21.4289 37.8354 746.905
-21.4289 38.5051 746.905
-21.4289 39.1747 746.905
-21.4528 39.8888 747.737
-21.5007 40.6498 749.408
-21.5007 41.3217 749.408
-21.5489 42.0877 751.087
-21.5489 42.7611 751.087
-21.5248 43.3859 750.247
-21.5489 46.1281 751.087
-21.5489 46.8015 751.087
-21.5731 47.5281 751.929
-21.5731 48.2023 751.929
-21.5489 48.8217 751.087
-21.5489 49.4951 751.087
-21.5489 50.1685 751.087
-21.5489 50.8419 751.087
-21.5489 51.5153 751.087
-21.5731 52.2472 751.929
-21.5731 52.9214 751.929
-21.5489 53.5355 751.087
-21.4528 53.9672 747.737
-21.4528 54.6376 747.737
-21.4528 55.308 747.737
-21.4528 55.9784 747.737
-21.4767 56.712 748.572
-21.5248 57.5116 750.247
-21.5731 58.3147 751.929
-21.6215 59.1214 753.618
-21.6947 59.9993 756.167
-21.7437 61.4939 757.876
-21.7683 62.2437 758.734
-21.7929 62.9952 759.593
-21.8176 63.7484 760.454
-21.8424 64.5034 761.317
-21.8424 65.1859 761.317
-21.7929 65.7193 759.593
-21.7683 66.3252 758.734
-21.7683 67.0055 758.734
-21.7683 67.6858 758.734
-21.7683 68.366 758.734
-21.7683 69.0463 758.734
-21.7683 69.7265 758.734
-21.7437 70.3272 757.876
-21.7437 75.0837 757.876
-21.7683 75.8489 758.734
-21.7929 76.6158 759.593
-21.8424 77.4723 761.317
-21.8424 78.1549 761.317
-21.8424 78.8374 761.317
-21.8424 79.52 761.317
-21.9671 80.6604 765.663
-22.0173 81.533 767.415
-22.1186 82.5991 770.943
-22.1186 83.2903 770.943
-22.144 84.0781 771.83
-21.9922 84.1888 766.538
-21.9671 84.7792 765.663
-21.9671 85.4657 765.663
-21.942 86.0539 764.79
-21.7437 93.4299 757.876
-21.7437 94.1094 757.876
-21.7437 94.7889 757.876
-21.7437 95.4684 757.876
-21.7191 96.0393 757.021
-21.6459 96.3917 754.466
-21.6459 97.0681 754.466
-21.6459 97.7446 754.466
-21.7437 98.8658 757.876
-21.7929 99.7708 759.593
-21.8921 100.909 763.049
-21.942 101.825 764.79
-21.942 102.51 764.79
-21.917 103.079 763.918
-21.917 103.763 763.918
-21.917 104.448 763.918
-21.942 105.253 764.79
-21.942 105.939 764.79
-21.9671 106.746 765.663
-21.9671 107.433 765.663
-21.9922 108.243 766.538
-21.9671 108.806 765.663
-21.9671 109.492 765.663
-21.8921 109.803 763.049
-21.8921 110.487 763.049
-21.9671 111.552 765.663
-21.9922 112.366 766.538
-21.9922 113.054 766.538
-21.9922 113.741 766.538
-21.9671 114.297 765.663
-21.7929 114.072 759.593
-21.7683 114.624 758.734
-21.7683 115.304 758.734
-21.7929 116.115 759.593
-21.917 117.462 763.918
-21.942 118.281 764.79
-21.8672 118.561 762.182
-21.7929 118.84 759.593
-21.7929 119.521 759.593
-21.7929 120.202 759.593
-21.917 121.571 763.918
-21.9671 122.535 765.663
-22.0678 123.787 769.175
-22.1186 124.763 770.943
-22.144 125.598 771.83
-22.1695 126.436 772.719
-22.1695 127.128 772.719
-22.144 127.674 771.83
-22.1951 128.662 773.611
-22.2464 129.655 775.399
-22.298 130.652 777.196
-22.3498 131.654 779.002
-22.3758 132.507 779.907
-22.4279 133.516 781.725
-22.5594 135.004 786.308
-22.4803 135.233 783.552
-22.533 136.254 785.387
-22.4541 136.479 782.638
-22.4018 136.861 780.815
-22.3758 137.401 779.907
-22.3758 138.1 779.907
-22.2722 138.157 776.297
-22.1951 138.373 773.611
-22.1695 138.906 772.719
-22.1695 139.599 772.719
-22.1695 140.292 772.719
-22.1695 140.984 772.719
-22.144 141.514 771.83
-22.144 142.206 771.83
-22.144 142.898 771.83
-22.144 143.59 771.83
-22.1695 144.448 772.719
-22.1695 145.141 772.719
-22.1695 145.834 772.719
-22.1695 146.527 772.719
-22.1695 147.22 772.719
-22.1695 147.912 772.719
-22.1695 148.605 772.719
-22.1951 149.47 773.611
-22.298 150.86 777.196
-22.3758 152.085 779.907
-22.4018 152.962 780.815
-22.5594 154.743 786.308
-22.6924 156.365 790.944
-22.6924 157.074 790.944
-22.5859 157.042 787.231
-22.6924 158.492 790.944
-22.8 159.956 794.692
-22.8 160.668 794.692
-24.9911 272.95 871.065
-24.9264 273.022 868.809
-24.9587 274.156 869.936
-24.9587 274.936 869.936
-24.9264 275.359 868.809
-24.9264 276.138 868.809
-24.9264 276.916 868.809
-24.8941 277.336 867.685
-24.862 277.755 866.564
-24.8299 278.172 865.446
-24.7341 277.873 862.109
-24.6707 277.931 859.898
-24.5762 277.634 856.603
-24.4203 276.636 851.168
-24.2969 277.516 846.869
-24.2663 277.925 845.801
-24.2357 278.332 844.736
-24.2052 278.738 843.673
-24.2357 279.847 844.736
-24.2357 280.604 844.736
-24.2052 281.008 843.673
-24.1748 281.41 842.614
-24.1445 281.812 841.556
-24.1142 282.212 840.502
-24.1142 282.966 840.502
-24.0841 283.364 839.45
-24.0841 284.117 839.45
-24.054 284.513 838.401
-23.9641 284.199 835.268
-23.9343 284.594 834.229
-23.9045 284.987 833.193
-23.9045 285.734 833.193
-23.9045 286.481 833.193
-23.9045 287.228 833.193
-23.8158 286.906 830.1
-23.7277 286.586 827.029
-23.7277 287.328 827.029
-23.7277 288.069 827.029
-23.7277 288.811 827.029
-23.7277 289.552 827.029
-23.7277 290.294 827.029
-23.6985 290.677 826.01
-23.6693 291.059 824.994
-23.6693 291.798 824.994
-23.5823 291.463 821.961
-23.5534 291.842 820.955
-23.4673 291.508 817.952
-23.4673 292.241 817.952
-23.4673 292.974 817.952
-23.4387 293.35 816.955
-23.3817 293.368 814.97
-23.325 293.385 812.994
-23.2968 293.758 812.01
-23.2686 294.13 811.028
-23.2405 294.501 810.049
-23.2405 295.227 810.049
-23.2125 295.597 809.072
-23.101 294.899 805.187
-23.0457 294.913 803.258
-23.0181 295.28 802.297
-22.9906 295.645 801.339
-22.8541 294.604 796.58
-22.827 294.968 795.635
-22.8541 296.032 796.58
-22.8541 296.746 796.58
-22.8541 297.461 796.58
-22.827 297.821 795.635
-22.8541 298.889 796.58
-22.8541 299.603 796.58
-22.827 299.961 795.635
-22.8 300.318 794.692
-22.827 301.388 795.635
-22.827 302.101 795.635
-22.827 302.814 795.635
-22.773 302.809 793.752
-22.7461 303.162 792.814
-22.773 304.233 793.752
-22.7461 304.584 792.814
-22.7192 304.934 791.878
-22.7461 306.006 792.814
-22.7461 306.716 792.814
-22.773 307.791 793.752
-22.773 308.503 793.752
-22.773 309.214 793.752
-22.8 310.293 794.692
-22.9632 313.232 800.382
-22.9358 313.576 799.428
-22.9632 314.668 800.382
-22.9358 315.009 799.428
-22.9085 315.35 798.477
-22.1926 -43.3114 798.477
-22.2988 -42.7994 802.297
-22.2988 -41.3607 802.297
-22.3523 -40.7389 804.221
-22.2988 -39.2028 802.297
-22.2988 -38.4834 802.297
-22.2988 -37.7641 802.297
-22.1926 -36.8684 798.477
-22.0875 -33.8437 794.692
-22.1137 -33.1705 795.635
-22.1137 -32.4571 795.635
-22.1137 -28.1771 795.635
-22.0352 -27.3663 792.814
-22.0613 -26.6871 793.752
-22.0875 -26.0062 794.692
-22.0875 -25.2937 794.692
-22.0352 -24.5231 792.814
-21.9833 -23.7561 790.944
-21.9315 -22.9927 789.083
-19.874 -11.8603 715.054
-19.9378 -11.2552 717.348
-19.9378 -10.612 717.348
-19.9378 -9.96889 717.348
-19.9165 -9.31577 716.582
-19.9378 -8.68258 717.348
-19.9378 -8.03942 717.348
-19.9591 -7.40419 718.116
-19.9591 -6.76035 718.116
-19.9805 -6.12306 718.886
-19.9805 -5.47853 718.886
-19.9805 -4.83399 718.886
-19.9165 -4.17603 716.582
-19.874 -3.52603 715.054
-19.8317 -2.8788 713.532
-19.7477 -2.22958 710.509
-20.8989 15.8427 751.929
-20.8989 16.5169 751.929
-20.8521 18.4979 750.247
-20.8755 19.192 751.087
-20.8288 19.821 749.408
-20.7824 20.4472 747.737
-20.7593 21.0941 746.905
-20.7362 21.7395 746.074
-20.7362 22.4084 746.074
-20.7362 23.0773 746.074
-20.7593 23.7727 746.905
-20.8056 24.4969 748.572
-20.8056 25.1681 748.572
-20.7362 25.753 746.074
-20.7824 35.8664 747.737
-20.7824 36.5368 747.737
-20.7824 37.2072 747.737
-20.7593 37.8354 746.905
-20.7593 38.5051 746.905
-20.7593 39.1747 746.905
-20.7593 39.8444 746.905
-20.8056 40.6045 748.572
-20.8288 41.3217 749.408
-20.8521 42.0406 750.247
-20.8521 42.7133 750.247
-20.8288 43.3374 749.408
-20.8056 43.9602 748.572
-20.7824 44.5816 747.737
-20.8056 45.3025 748.572
-20.8521 46.0765 750.247
-20.8755 46.8015 751.087
-20.8755 47.4749 751.087
-20.8755 48.1483 751.087
-20.8755 48.8217 751.087
-20.8755 49.4951 751.087
-20.8755 50.1685 751.087
-20.8755 50.8419 751.087
-20.8755 51.5153 751.087
-20.8755 52.1887 751.087
-20.8989 52.9214 751.929
-20.8755 53.5355 751.087
-20.8056 54.0274 748.572
-20.7824 54.6376 747.737
-20.7824 55.308 747.737
-20.7362 55.8539 746.074
-20.7362 56.5228 746.074
-20.8056 57.3832 748.572
-20.8989 58.3147 751.929
-20.9459 59.1214 753.618
-21.0404 60.067 757.021
-21.088 61.5634 758.734
-21.088 62.2437 758.734
-21.1119 62.9952 759.593
-21.1598 63.8208 761.317
-21.1598 64.5034 761.317
-21.1598 65.1859 761.317
-21.1119 65.7193 759.593
-21.1119 66.4004 759.593
-21.088 67.0055 758.734
-21.088 67.6858 758.734
-21.088 68.366 758.734
-21.088 69.0463 758.734
-21.088 69.7265 758.734
-21.088 70.4068 758.734
-21.0642 75.0837 757.876
-21.088 75.8489 758.734
-21.1358 76.7027 760.454
-21.1598 77.4723 761.317
-21.1358 78.0663 760.454
-21.1119 78.6589 759.593
-21.1598 79.52 761.317
-21.2563 80.5684 764.79
-21.3293 81.533 767.415
-21.4274 82.5991 770.943
-21.4274 83.2903 770.943
-21.4767 84.175 772.719
-21.2806 84.0927 765.663
-21.2563 84.6825 764.79
-21.2563 85.3682 764.79
-21.2563 86.0539 764.79
-21.0642 93.4299 757.876
-21.088 94.2159 758.734
-21.088 94.8961 758.734
-21.0642 95.4684 757.876
-21.0642 96.1479 757.876
-20.993 96.5002 755.316
-20.9694 97.0681 754.466
-21.0167 97.9649 756.167
-21.0642 98.8658 757.876
-21.1119 99.7708 759.593
-21.1839 100.794 762.182
-21.2321 101.709 763.918
-21.2563 102.51 764.79
-21.2563 103.196 764.79
-21.2321 103.763 763.918
-21.2321 104.448 763.918
-21.2321 105.133 763.918
-21.2321 105.818 763.918
-21.2563 106.625 764.79
-21.2806 107.433 765.663
-21.3049 108.243 766.538
-21.2806 108.806 765.663
-21.2806 109.492 765.663
-21.1598 109.553 761.317
-21.1839 110.361 762.182
-21.2563 111.424 764.79
-21.2806 112.238 765.663
-21.3049 113.054 766.538
-21.3049 113.741 766.538
-21.2321 114.037 763.918
-21.088 113.943 758.734
-21.0642 114.494 757.876
-21.088 115.304 758.734
-21.088 115.984 758.734
-21.1358 116.929 760.454
-21.1358 117.611 760.454
-21.1119 118.159 759.593
-21.088 118.705 758.734
-21.088 119.385 758.734
-21.1119 120.202 759.593
-21.2563 121.71 764.79
-21.3293 122.816 767.415
-21.452 124.214 771.83
-21.452 124.906 771.83
-21.4767 125.743 772.719
-21.4767 126.436 772.719
-21.4767 127.128 772.719
-21.452 127.674 771.83
-21.4767 128.514 772.719
-21.5263 129.505 774.504
-21.5762 130.501 776.297
-21.6765 131.807 779.907
-21.7271 132.815 781.725
-21.8033 133.985 784.468
-21.8544 135.004 786.308
-21.8288 135.55 785.387
-21.8544 136.414 786.308
-21.8544 137.119 786.308
-21.8033 137.501 784.468
-21.7778 138.043 783.552
-21.7018 138.261 780.815
-21.6765 138.8 779.907
-21.5263 138.532 774.504
-21.5263 139.227 774.504
-21.5015 139.76 773.611
-21.4767 140.292 772.719
-21.4767 140.984 772.719
-21.4767 141.677 772.719
-21.452 142.206 771.83
-21.452 142.898 771.83
-21.4767 143.756 772.719
-21.4767 144.448 772.719
-21.5015 145.309 773.611
-21.4767 145.834 772.719
-21.4767 146.527 772.719
-21.4767 147.22 772.719
-21.4767 147.912 772.719
-21.4767 148.605 772.719
-21.4767 149.298 772.719
-21.6012 150.86 777.196
-21.6765 152.085 779.907
-21.7524 153.319 782.638
-21.9833 155.656 790.944
-22.0352 156.735 792.814
-21.9833 157.074 790.944
-21.9833 157.783 790.944
-22.0352 158.867 792.814
-22.0352 159.578 792.814
-22.1926 161.434 798.477
-24.2732 273.661 873.334
-24.2732 274.444 873.334
-24.2732 275.227 873.334
-24.2416 275.651 872.198
-24.2416 276.433 872.198
-24.2416 277.215 872.198
-24.1787 277.276 869.936
-24.1474 277.695 868.809
-24.1474 278.474 868.809
-24.1162 278.892 867.685
-23.9304 277.516 861.002
-23.8692 277.575 858.797
-23.7475 276.927 854.421
-23.6571 276.636 851.168
-23.5972 278.219 849.013
-23.5674 278.627 847.94
-23.508 278.683 845.801
-23.4488 278.738 843.673
-23.4784 279.847 844.736
-23.4784 280.604 844.736
-23.4488 281.008 843.673
-23.4194 281.41 842.614
-23.3607 281.458 840.502
-23.3023 281.506 838.401
-23.2732 281.906 837.354
-23.2442 282.304 836.31
-23.2152 282.701 835.268
-23.2152 283.45 835.268
-23.1863 283.846 834.229
-23.1575 284.24 833.193
-23.1575 284.987 833.193
-23.1288 285.38 832.159
-23.1575 286.481 833.193
-23.1575 287.228 833.193
-23.043 286.551 829.073
-22.9862 286.586 827.029
-22.9862 287.328 827.029
-22.9862 288.069 827.029
-22.9862 288.811 827.029
-22.9862 289.552 827.029
-22.9579 289.936 826.01
-22.9579 290.677 826.01
-22.9579 291.417 826.01
-22.9015 291.44 823.981
-22.8454 291.463 821.961
-22.8454 292.2 821.961
-22.7617 291.863 818.95
-22.7339 292.241 817.952
-22.7339 292.974 817.952
-22.7062 293.35 816.955
-22.651 293.368 814.97
-22.5961 293.385 812.994
-22.5961 294.114 812.994
-22.5415 294.13 811.028
-22.5143 294.501 810.049
-22.5143 295.227 810.049
-22.46 295.241 808.097
-22.3255 294.193 803.258
-22.3255 294.913 803.258
-22.2988 295.28 802.297
-22.2722 295.645 801.339
-22.1662 294.954 797.527
-22.1137 294.968 795.635
-22.1399 296.032 796.58
-22.1399 296.746 796.58
-22.1137 297.108 795.635
-22.1137 297.821 795.635
-22.1137 298.534 795.635
-22.1137 299.248 795.635
-22.1137 299.961 795.635
-22.0875 300.318 794.692
-22.0875 301.031 794.692
-22.0875 301.743 794.692
-22.0875 302.456 794.692
-22.0092 302.094 791.878
-21.9574 302.091 790.012
-22.0092 303.514 791.878
-22.0092 304.224 791.878
-21.9833 304.575 790.944
-22.0092 305.644 791.878
-22.0092 306.354 791.878
-22.0092 307.064 791.878
-21.9833 307.411 790.944
-21.9058 307.034 788.156
-21.9058 307.741 788.156
-22.3255 314.358 803.258
-22.2988 314.701 802.297
-22.2988 315.42 802.297
-22.2988 316.14 802.297
-22.1926 315.35 798.477
-21.6833 -43.7279 806.154
-21.6833 -43.0051 806.154
-21.5795 -42.08 802.297
-21.6313 -41.4599 804.221
-21.6313 -40.7389 804.221
-21.6833 -40.114 806.154
-21.5795 -39.2028 802.297
-21.5795 -38.4834 802.297
-21.5795 -37.7641 802.297
-21.5795 -37.0448 802.297
-21.375 -33.8437 794.692
-21.375 -33.1312 794.692
-21.375 -32.4187 794.692
-21.3497 -27.3987 793.752
-21.3497 -26.6871 793.752
-21.3244 -25.9447 792.814
-21.375 -24.5812 794.692
-21.3244 -23.8123 792.814
-21.3244 -23.1015 792.814
-19.2329 -11.8603 715.054
-19.2946 -11.2552 717.348
-19.2946 -10.612 717.348
-19.2946 -9.96889 717.348
-19.2946 -9.32573 717.348
-19.3153 -8.69187 718.116
-19.3153 -8.04803 718.116
-19.3153 -7.40419 718.116
-19.336 -6.76759 718.886
-19.336 -6.12306 718.886
-19.3567 -5.4844 719.657
-19.3567 -4.83918 719.657
-19.3567 -4.19396 719.657
-19.3567 -3.54873 719.657
-19.3775 -2.90663 720.43
-20.3158 15.9141 755.316
-20.2702 16.554 753.618
-20.2247 18.5393 751.929
-20.2247 19.2135 751.929
-20.2021 19.8654 751.087
-20.1795 20.5158 750.247
