ply
format ascii 1.0
element vertex 1896
property float x
property float y
property float z
end_header
-48.9988 -167.536 552.033
-48.9988 -167.041 552.033
-49.0392 -166.684 552.488
-49.0392 -166.188 552.488
-49.0392 -165.693 552.488
-48.9988 -165.062 552.033
-49.0392 -164.702 552.488
-49.0392 -164.207 552.488
-49.0392 -163.712 552.488
-48.9988 -163.082 552.033
-48.9988 -162.587 552.033
-48.9585 -160.97 551.579
-48.9585 -160.475 551.579
-48.9585 -159.981 551.579
-48.8781 -159.224 550.674
-48.838 -158.6 550.222
-48.798 -157.977 549.771
-48.838 -157.614 550.222
-48.758 -155.878 549.321
-48.6385 -155.005 547.974
-48.6385 -154.513 547.974
-48.4801 -153.52 546.189
-48.4406 -152.906 545.745
-48.5592 -152.79 547.08
-48.7181 -152.798 548.871
-48.7181 -152.306 548.871
-48.6783 -151.689 548.422
-48.6783 -151.198 548.422
-48.6783 -150.706 548.422
-48.7181 -150.337 548.871
-48.7181 -149.845 548.871
-48.758 -149.475 549.321
-48.758 -148.983 549.321
-48.758 -148.49 549.321
-48.6783 -147.756 548.422
-48.5592 -146.904 547.08
-48.5196 -146.294 546.634
-48.4801 -145.685 546.189
-48.4801 -145.195 546.189
-48.6385 -145.179 547.974
-48.4801 -144.216 546.189
-48.4801 -143.726 546.189
-48.3227 -142.772 544.416
-48.6385 -143.213 547.974
-48.798 -143.19 549.771
-48.4801 -141.768 546.189
-48.4801 -141.278 546.189
-48.4801 -140.788 546.189
-48.4801 -140.298 546.189
-48.798 -140.725 549.771
-48.0109 -136.031 540.904
-47.9336 -135.328 540.033
-47.9336 -134.844 540.033
-47.9336 -134.359 540.033
-48.0109 -134.091 540.904
-48.0109 -133.606 540.904
-48.0885 -133.336 541.777
-48.0885 -132.85 541.777
-48.0109 -132.151 540.904
-48.0885 -131.879 541.777
-48.0109 -131.181 540.904
-48.0109 -130.696 540.904
-48.0109 -130.211 540.904
-48.1663 -130.146 542.654
-48.2053 -129.765 543.093
-48.2053 -129.278 543.093
-48.2053 -128.791 543.093
-48.2444 -125.484 543.534
-48.2053 -124.896 543.093
-48.2444 -124.509 543.534
-48.2053 -123.922 543.093
-48.2444 -123.047 543.534
-48.2444 -122.56 543.534
-48.2444 -122.073 543.534
-48.2835 -121.684 543.974
-48.2835 -121.196 543.974
-48.2835 -120.709 543.974
-48.2835 -120.221 543.974
-48.3227 -119.83 544.416
-48.3227 -119.342 544.416
-48.2053 -118.566 543.093
-48.1663 -117.983 542.654
-48.1663 -117.497 542.654
-48.1663 -117.01 542.654
-48.1663 -116.523 542.654
-48.2053 -115.644 543.093
-48.2053 -115.157 543.093
-48.2053 -114.67 543.093
-48.1663 -114.091 542.654
-48.1663 -113.604 542.654
-48.2053 -113.209 543.093
-48.2444 -112.814 543.534
-48.3619 -112.6 544.858
-48.4406 -107.89 545.745
-48.3619 -107.227 544.858
-48.3619 -106.738 544.858
-48.3619 -106.25 544.858
-48.6783 -102.028 548.422
-48.758 -101.702 549.321
-48.758 -101.21 549.321
-48.7181 -100.635 548.871
-48.7181 -100.143 548.871
-48.6783 -99.5692 548.422
-48.6783 -99.0775 548.422
-48.6783 -98.5858 548.422
-48.6783 -98.0941 548.422
-48.7181 -97.6823 548.871
-48.7181 -97.1902 548.871
-48.7181 -96.6981 548.871
-48.7181 -96.206 548.871
-48.7181 -95.7139 548.871
-48.758 -95.2998 549.321
-48.8781 -94.547 550.674
-48.9183 -94.1306 551.126
-48.9988 -93.7906 552.033
-48.9988 -93.2957 552.033
-49.1201 -90.5496 553.4
-49.1606 -90.1278 553.857
-48.9585 -81.3502 551.579
-49.0392 -80.9889 552.488
-49.1201 -80.6264 553.4
-49.2827 -80.3956 555.232
-49.2013 -79.7657 554.314
-49.2827 -79.3999 555.232
-49.4465 -78.6648 557.077
-49.4465 -78.1654 557.077
-49.6113 -77.9248 558.934
-49.6113 -77.4237 558.934
-49.6113 -76.9225 558.934
-49.6113 -76.4214 558.934
-49.5287 -75.794 558.004
-49.6113 -75.4192 558.934
-49.6113 -74.918 558.934
-49.6113 -74.4169 558.934
-49.6113 -73.9158 558.934
-49.6113 -73.4147 558.934
-49.6941 -73.0353 559.867
-49.6941 -72.5333 559.867
-49.7772 -72.1518 560.803
-49.8606 -71.769 561.742
-49.9862 -63.8712 563.157
-49.9862 -63.3663 563.157
-50.0703 -62.9671 564.105
-50.1546 -62.5666 565.055
-50.1969 -62.1123 565.532
-50.2817 -61.7094 566.487
-50.3242 -61.2532 566.966
-50.3242 -60.7449 566.966
-50.3242 -60.2365 566.966
-50.2817 -59.6778 566.487
-50.3668 -59.27 567.445
-50.4094 -58.811 567.926
-51.1456 -58.6367 576.22
-51.322 -58.3205 578.207
-51.2337 -57.7026 577.212
-51.322 -57.2837 578.207
-51.322 -56.7653 578.207
-51.4996 -56.4415 580.208
-51.4996 -55.4011 580.208
-52.2224 -52.4861 588.351
-52.3142 -52.05 589.385
-52.3142 -51.5215 589.385
-52.2224 -47.7387 588.351
-52.2224 -47.2112 588.351
-52.1309 -46.6019 587.321
-52.1309 -45.0222 587.321
-52.0398 -44.4178 586.294
-52.1309 -43.969 587.321
-52.2224 -43.5187 588.351
-53.0129 -42.0355 597.258
-53.1549 -41.6112 598.858
-53.1549 -41.0743 598.858
-53.6338 -39.2773 604.253
-53.6338 -38.7355 604.253
-53.7306 -38.2627 605.343
-54.1214 -37.9943 609.746
-54.1214 -37.4476 609.746
-53.9253 -36.7673 607.537
-54.1214 -36.3543 609.746
-54.1214 -35.8076 609.746
-56.1637 64.957 632.755
-55.6909 64.9727 627.428
-55.6909 65.5352 627.428
-55.6909 66.0977 627.428
-55.6909 66.6603 627.428
-55.743 67.2858 628.015
-55.743 67.8488 628.015
-55.743 68.4119 628.015
-55.6388 68.846 626.842
-55.4316 69.1495 624.507
-55.3286 69.5799 623.346
-55.2772 70.0736 622.767
-55.1747 70.501 621.613
-54.9709 71.9064 619.317
-54.9202 72.3949 618.746
-54.8696 72.8824 618.175
-54.6681 73.1669 615.905
-54.5179 73.5165 614.213
-54.3685 73.8643 612.53
-54.22 74.2102 610.857
-54.22 74.7579 610.857
-54.1706 75.237 610.301
-54.1214 75.7153 609.746
-54.1214 76.262 609.746
-54.1214 76.8086 609.746
-54.0722 77.2851 609.192
-54.0722 77.8312 609.192
-53.9253 78.1645 607.537
-53.8278 78.5668 606.438
-53.5374 78.6837 603.166
-53.3455 78.9405 601.004
-52.9658 82.1237 596.726
-52.9187 82.5852 596.196
-52.8717 83.046 595.666
-52.778 83.4318 594.61
-52.8717 84.1141 595.666
-52.8717 84.6481 595.666
-52.8717 85.1822 595.666
-52.778 85.5643 594.61
-52.7312 86.0211 594.084
-52.6845 86.4772 593.558
-52.6845 87.0093 593.558
-52.638 87.4641 593.033
-52.6845 88.0737 593.558
-52.6845 88.6058 593.558
-52.638 89.0592 593.033
-52.5915 89.5117 592.509
-52.545 89.9635 591.986
-52.4987 90.4144 591.464
-52.4063 90.7846 590.423
-52.3142 91.1535 589.385
-52.2224 91.5211 588.351
-52.1309 91.8874 587.321
-51.9037 92.0111 584.761
-51.949 92.6161 585.271
-51.9037 93.0596 584.761
-51.9037 93.5839 584.761
-51.9037 94.1082 584.761
-51.9037 94.6325 584.761
-51.8585 95.0739 584.251
-51.8585 95.5977 584.251
-51.8585 96.1215 584.251
-51.8585 96.6453 584.251
-51.8585 97.1692 584.251
-51.9037 97.7782 584.761
-51.1456 101.516 576.22
-50.9705 101.684 574.247
-50.8834 102.024 573.265
-50.7965 102.363 572.287
-50.8399 102.964 572.776
-50.7965 103.389 572.287
-50.7965 103.902 572.287
-50.7532 104.326 571.799
-50.7532 104.839 571.799
-50.7532 105.351 571.799
-50.7965 105.954 572.287
-50.7532 106.377 571.799
-50.7965 106.981 572.287
-50.7965 107.494 572.287
-50.7965 108.007 572.287
-50.7965 108.52 572.287
-50.7965 109.033 572.287
-50.7965 109.546 572.287
-50.7965 110.059 572.287
-50.7965 110.572 572.287
-50.7532 110.991 571.799
-50.6237 111.219 570.34
-50.4521 111.351 568.407
-50.4094 111.766 567.926
-50.3668 112.181 567.445
-50.3668 112.689 567.445
-50.3242 113.102 566.966
-50.3242 113.611 566.966
-50.3242 114.119 566.966
-50.3242 114.627 566.966
-50.3242 115.136 566.966
-50.3242 115.644 566.966
-50.3668 116.251 567.445
-50.4094 116.858 567.926
-50.4094 117.367 567.926
-49.9442 119.311 562.685
-49.9024 119.715 562.213
-49.8606 120.119 561.742
-49.8189 120.521 561.272
-49.7772 120.923 560.803
-49.7772 121.426 560.803
-49.7772 121.929 560.803
-49.7772 122.432 560.803
-49.7772 122.935 560.803
-49.7772 123.437 560.803
-49.7772 123.94 560.803
-49.8189 124.547 561.272
-49.8606 125.155 561.742
-49.8189 125.554 561.272
-49.8606 126.162 561.742
-50.1124 128.824 564.579
-50.0703 129.222 564.105
-50.0703 129.727 564.105
-49.9862 130.015 563.157
-49.4876 135.216 557.54
-49.4465 135.603 557.077
-49.3236 135.764 555.692
-49.3645 136.376 556.153
-49.4054 136.988 556.615
-49.4054 137.487 556.615
-49.4465 138.1 557.077
-49.4465 138.6 557.077
-49.4465 139.099 557.077
-49.4465 139.599 557.077
-49.4465 140.098 557.077
-49.4465 140.598 557.077
-49.4876 141.215 557.54
-49.57 141.95 558.468
-49.7356 142.927 560.335
-49.8189 143.67 561.272
-49.9024 144.414 562.213
-49.7356 144.434 560.335
-49.7356 144.937 560.335
-49.7356 145.439 560.335
-49.7356 145.941 560.335
-49.7356 146.444 560.335
-49.6941 146.823 559.867
-49.4465 149.089 557.077
-49.242 149.964 554.773
-49.2013 150.337 554.314
-49.2013 150.834 554.314
-49.242 151.456 554.773
-49.2827 152.08 555.232
-49.3236 152.704 555.692
-49.4054 153.456 556.615
-49.4054 153.955 556.615
-49.4054 154.454 556.615
-49.2827 154.569 555.232
-49.2013 154.81 554.314
-49.2013 155.307 554.314
-49.1201 157.035 553.4
-49.1201 157.532 553.4
-49.1201 158.028 553.4
-49.0796 158.393 552.943
-49.0796 158.889 552.943
-48.9585 158.991 551.579
-49.2827 163.031 555.232
-49.2827 163.529 555.232
-50.1546 190.74 565.055
-50.1546 191.246 565.055
-50.2817 195.794 566.487
-50.4521 200.025 568.407
-50.5378 200.875 569.372
-50.1124 -190.478 570.34
-50.1124 -189.967 570.34
-50.0273 -189.134 569.372
-49.9849 -188.463 568.889
-49.858 -187.476 567.445
-49.7738 -186.652 566.487
-49.6899 -185.83 565.532
-49.6899 -185.323 565.532
-49.6062 -184.505 564.579
-49.5645 -183.844 564.105
-49.5228 -183.184 563.631
-49.5228 -182.679 563.631
-49.3569 -181.563 561.742
-49.3156 -180.908 561.272
-49.2744 -180.254 560.803
-49.2744 -179.751 560.803
-49.2744 -177.74 560.803
-49.2744 -177.237 560.803
-49.2332 -176.587 560.335
-49.2332 -176.084 560.335
-49.1102 -175.143 558.934
-49.0284 -174.351 558.004
-48.947 -173.562 557.077
-48.6239 -171.92 553.4
-48.5838 -171.283 552.943
-48.5838 -170.787 552.943
-48.5838 -170.291 552.943
-48.5838 -169.796 552.943
-48.5438 -169.16 552.488
-48.5838 -168.804 552.943
-48.5438 -168.17 552.488
-48.5438 -167.674 552.488
-48.5039 -167.041 552.033
-48.5438 -166.684 552.488
-48.5438 -166.188 552.488
-48.5438 -165.693 552.488
-48.464 -164.926 551.579
-48.5039 -164.567 552.033
-48.5039 -164.072 552.033
-48.5039 -163.577 552.033
-48.464 -162.948 551.579
-48.5039 -162.587 552.033
-48.5838 -160.872 552.943
-48.6239 -160.509 553.4
-48.5838 -159.88 552.943
-48.5438 -159.253 552.488
-48.464 -158.497 551.579
-48.464 -158.002 551.579
-48.3051 -156.499 549.771
-48.3051 -156.006 549.771
-48.3051 -155.513 549.771
-47.9904 -154.01 546.189
-47.9513 -153.395 545.745
-47.9513 -152.906 545.745
-48.0687 -152.79 547.08
-48.1472 -152.548 547.974
-48.226 -152.306 548.871
-48.226 -151.814 548.871
-48.226 -151.321 548.871
-48.226 -150.829 548.871
-48.2655 -150.46 549.321
-48.2655 -149.968 549.321
-48.2655 -149.475 549.321
-48.2655 -148.983 549.321
-48.2655 -148.49 549.321
-48.226 -147.877 548.871
-48.1472 -147.144 547.974
-47.9904 -146.175 546.189
-47.9904 -145.685 546.189
-48.1472 -145.67 547.974
-48.1472 -145.179 547.974
-47.9904 -144.216 546.189
-47.9904 -143.726 546.189
-47.9904 -143.237 546.189
-47.9904 -142.747 546.189
-48.1472 -142.722 547.974
-48.1472 -142.231 547.974
-48.1472 -141.739 547.974
-48.1472 -141.248 547.974
-48.1472 -140.757 547.974
-48.1472 -140.266 547.974
-47.526 -136.031 540.904
-47.526 -135.546 540.904
-47.526 -135.061 540.904
-47.526 -134.576 540.904
-47.526 -134.091 540.904
-47.526 -133.606 540.904
-47.6027 -133.336 541.777
-47.5643 -132.743 541.34
-47.6027 -132.365 541.777
-47.5643 -131.773 541.34
-47.526 -131.181 540.904
-47.5643 -130.802 541.34
-47.6027 -130.422 541.777
-47.6412 -130.041 542.215
-47.6798 -129.66 542.654
-47.757 -129.383 543.534
-47.757 -128.895 543.534
-47.757 -125.484 543.534
-47.757 -124.997 543.534
-47.7184 -124.409 543.093
-47.7184 -123.922 543.093
-47.757 -121.586 543.534
-47.757 -121.098 543.534
-47.757 -120.611 543.534
-47.7184 -120.026 543.093
-47.7184 -119.539 543.093
-47.7184 -119.052 543.093
-47.6798 -118.47 542.654
-47.6798 -117.983 542.654
-47.6412 -117.402 542.215
-47.6798 -117.01 542.654
-47.6798 -116.523 542.654
-47.7184 -115.644 543.093
-47.7184 -115.157 543.093
-47.7184 -114.67 543.093
-47.6798 -114.091 542.654
-47.6798 -113.604 542.654
-47.7184 -113.209 543.093
-47.757 -112.814 543.534
-47.8346 -112.509 544.416
-47.9513 -107.89 545.745
-47.8346 -107.14 544.416
-47.8734 -106.738 544.858
-47.9904 -106.509 546.189
-48.1866 -102.028 548.422
-48.2655 -101.702 549.321
-48.2655 -101.21 549.321
-48.226 -100.635 548.871
-48.226 -100.143 548.871
-48.1866 -99.5692 548.422
-48.1866 -99.0775 548.422
-48.1866 -98.5858 548.422
-48.226 -98.1744 548.871
-48.226 -97.6823 548.871
-48.226 -97.1902 548.871
-48.226 -96.6981 548.871
-48.1866 -96.1273 548.422
-48.1866 -95.6356 548.422
-48.2655 -95.2998 549.321
-48.3844 -94.547 550.674
-48.464 -94.208 551.579
-48.5039 -93.7906 552.033
-48.5039 -93.2957 552.033
-48.6239 -91.0458 553.4
-48.6239 -90.5496 553.4
-48.6641 -90.1278 553.857
-48.6239 -81.6187 553.4
-48.6239 -81.1226 553.4
-48.7043 -80.7597 554.314
-48.7849 -80.3956 555.232
-48.7043 -79.7657 554.314
-48.7849 -79.3999 555.232
-48.7849 -78.9021 555.232
-48.6239 -78.1456 553.4
-48.7849 -77.9065 555.232
-48.947 -77.6659 557.077
-49.1102 -77.4237 558.934
-49.1102 -76.9225 558.934
-49.0284 -76.2943 558.004
-49.0284 -75.794 558.004
-49.1102 -75.4192 558.934
-49.1102 -74.918 558.934
-49.1102 -74.4169 558.934
-49.1102 -73.9158 558.934
-49.3569 -73.7836 561.742
-49.2744 -73.1574 560.803
-49.2744 -72.6546 560.803
-49.2744 -72.1518 560.803
-49.6062 -67.5758 564.579
-49.5645 -67.0132 564.105
-49.5645 -66.5075 564.105
-49.5228 -65.9462 563.631
-49.5228 -64.4302 563.631
-49.5645 -63.9787 564.105
-49.5645 -63.4729 564.105
-49.6062 -63.0201 564.579
-49.648 -62.5666 565.055
-49.6899 -62.1123 565.532
-49.7738 -61.7094 566.487
-49.858 -61.305 567.445
-49.858 -60.7963 567.445
-49.858 -60.2875 567.445
-49.9002 -59.8294 567.926
-49.9002 -59.3202 567.926
-49.9425 -58.8608 568.407
-50.8036 -57.8021 578.207
-50.8036 -57.2837 578.207
-50.8036 -56.7653 578.207
-50.9794 -56.4415 580.208
-51.6949 -53.0136 588.351
-51.7403 -52.5322 588.868
-51.7403 -52.0043 588.868
-51.7858 -51.5215 589.385
-51.6496 -47.6968 587.836
-51.6496 -47.1698 587.836
-51.6044 -46.6019 587.321
-51.3347 -45.3107 584.251
-51.6044 -45.0222 587.321
-51.6044 -44.4956 587.321
-51.6949 -44.0462 588.351
-52.2448 -42.9154 594.61
-52.5242 -42.073 597.79
-52.618 -41.6112 598.858
-52.8066 -41.2215 601.004
-53.1879 -39.3482 605.343
-53.1399 -38.7705 604.797
-53.3806 -38.4014 607.537
-53.3806 -37.8567 607.537
-53.5747 -37.4476 609.746
-53.5747 -36.901 609.746
-53.5261 -36.3213 609.192
-53.5747 -35.8076 609.746
-53.7702 -35.3896 611.971
-55.3874 64.7128 630.376
-55.2835 65.1555 629.194
-55.2317 65.6581 628.604
-55.2317 66.2216 628.604
-55.2317 66.7852 628.604
-55.2317 67.3488 628.604
-55.2317 67.9124 628.604
-55.2317 68.476 628.604
-55.18 68.9749 628.015
-55.1283 69.4729 627.428
-54.8717 69.7094 624.507
-54.7188 70.0736 622.767
-54.5164 70.3706 620.463
-54.3655 71.8401 618.746
-54.3154 72.3281 618.175
-54.2654 72.8153 617.606
-54.0662 73.0997 615.34
-53.9672 73.5165 614.213
-53.8685 73.9318 613.09
-53.6723 74.2102 610.857
-53.6235 74.6898 610.301
-53.5747 75.1686 609.746
-53.5747 75.7153 609.746
-53.5261 76.1927 609.192
-53.5261 76.7389 609.192
-53.5261 77.2851 609.192
-53.5261 77.8312 609.192
-53.3806 78.1645 607.537
-53.2359 78.4958 605.89
-52.9014 78.5424 602.083
-52.8066 78.9405 601.004
-52.4308 81.5887 596.726
-52.4308 82.1237 596.726
-52.4308 82.6587 596.726
-52.3842 83.1198 596.196
-52.3376 83.58 595.666
-52.3842 84.1888 596.196
-52.3842 84.7234 596.196
-52.3376 85.1822 595.666
-52.2912 85.6402 595.138
-52.1986 86.0211 594.084
-52.1524 86.4772 593.558
-52.1524 87.0093 593.558
-52.1524 87.5415 593.558
-52.1524 88.0737 593.558
-52.1524 88.6058 593.558
-52.1063 89.0592 593.033
-52.0602 89.5117 592.509
-52.0143 89.9635 591.986
-51.8769 90.2552 590.423
-51.8769 90.7846 590.423
-51.7403 91.0735 588.868
-51.6949 91.5211 588.351
-51.6044 91.8874 587.321
-51.4242 92.0914 585.271
-51.4242 92.6161 585.271
-51.4242 93.1409 585.271
-51.3794 93.5839 584.761
-51.3794 94.1082 584.761
-51.3794 94.6325 584.761
-51.3347 95.0739 584.251
-51.3347 95.5977 584.251
-51.3347 96.1215 584.251
-51.3347 96.6453 584.251
-51.3347 97.1692 584.251
-50.629 101.516 576.22
-50.629 102.033 576.22
-50.4556 102.198 574.247
-50.2834 102.876 572.287
-50.2834 103.389 572.287
-50.2834 103.902 572.287
-50.2406 104.326 571.799
-50.2406 104.839 571.799
-50.2834 105.441 572.287
-50.2406 105.864 571.799
-50.2406 106.377 571.799
-50.2406 106.889 571.799
-50.2834 107.494 572.287
-50.2834 108.007 572.287
-50.2834 108.52 572.287
-50.2834 109.033 572.287
-50.2834 109.546 572.287
-50.2834 110.059 572.287
-50.2834 110.572 572.287
-50.2834 111.085 572.287
-50.1124 111.219 570.34
-49.9002 111.257 567.926
-49.9002 111.766 567.926
-49.9002 112.276 567.926
-49.858 112.689 567.445
-49.858 113.198 567.445
-49.858 113.707 567.445
-49.858 114.216 567.445
-49.858 114.724 567.445
-49.858 115.233 567.445
-49.858 115.742 567.445
-49.9002 116.349 567.926
-49.9002 116.858 567.926
-49.9002 117.367 567.926
-49.6062 119.207 564.579
-49.5228 119.512 563.631
-49.4398 119.816 562.685
-49.3983 120.219 562.213
-49.3156 120.521 561.272
-49.3156 121.025 561.272
-49.3156 121.528 561.272
-49.3156 122.031 561.272
-49.3156 122.534 561.272
-49.2744 122.935 560.803
-49.2744 123.437 560.803
-49.3156 124.044 561.272
-49.3569 124.651 561.742
-49.3569 125.155 561.742
-49.5645 129.222 564.105
-49.5645 129.727 564.105
-49.6062 130.343 564.579
-48.947 135.104 557.077
-48.947 135.603 557.077
-48.9064 135.99 556.615
-48.9064 136.489 556.615
-48.9064 136.988 556.615
-48.9064 137.487 556.615
-48.947 138.1 557.077
-48.947 138.6 557.077
-48.9064 138.984 556.615
-48.9064 139.483 556.615
-48.9064 139.982 556.615
-48.947 140.598 557.077
-48.947 141.097 557.077
-48.9877 141.714 557.54
-49.1921 142.808 559.867
-49.3156 143.67 561.272
-49.3569 144.293 561.742
-49.2744 144.555 560.803
-49.2332 144.937 560.335
-49.2332 145.439 560.335
-49.2332 145.941 560.335
-49.2332 146.444 560.335
-49.2332 146.946 560.335
-48.6641 150.213 553.857
-48.6641 150.71 553.857
-48.6641 151.206 553.857
-48.7043 151.828 554.314
-48.7849 152.577 555.232
-48.9064 153.456 556.615
-48.947 154.083 557.077
-48.947 154.583 557.077
-48.9064 154.953 556.615
-48.8658 155.324 556.153
-48.8658 155.822 556.153
-48.6239 157.532 553.4
-48.6239 158.028 553.4
-48.6641 158.655 553.857
-48.5838 158.889 552.943
-48.5838 159.385 552.943
-48.6239 160.012 553.4
-48.6239 160.509 553.4
-48.6239 161.005 553.4
-48.6239 161.501 553.4
-48.8658 163.302 556.153
-48.8658 163.8 556.153
-49.6062 189.06 564.579
-49.7738 195.286 566.487
-49.9425 200.025 568.407
-49.601 -190.478 570.34
-49.4748 -189.484 568.889
-49.5168 -189.134 569.372
-49.4748 -188.463 568.889
-49.4329 -187.794 568.407
-49.2659 -186.652 566.487
-49.1828 -185.83 565.532
-49.1414 -185.167 565.055
-49.1 -184.505 564.579
-49.0175 -183.689 563.631
-49.0587 -183.338 564.105
-49.0175 -182.679 563.631
-48.9353 -181.868 562.685
-48.8124 -180.908 561.272
-48.8124 -180.405 561.272
-48.8533 -180.052 561.742
-48.8124 -177.889 561.272
-48.9353 -177.832 562.685
-48.9353 -177.327 562.685
-48.7716 -176.231 560.803
-48.6902 -175.435 559.867
-48.5281 -174.351 558.004
-48.2871 -172.987 555.232
-48.1278 -171.92 553.4
-48.0485 -171.142 552.488
-48.0881 -170.787 552.943
-48.0881 -170.291 552.943
-48.0881 -169.796 552.943
-48.0485 -169.16 552.488
-48.0881 -168.804 552.943
-48.0485 -168.17 552.488
-48.0485 -167.674 552.488
-48.0485 -167.179 552.488
-48.0485 -166.684 552.488
-48.0881 -166.325 552.943
-48.0485 -165.693 552.488
-47.9694 -164.926 551.579
-48.0089 -164.567 552.033
-48.0485 -164.207 552.488
-48.0485 -163.712 552.488
-48.0485 -163.216 552.488
-48.1675 -160.641 553.857
-48.1675 -160.145 553.857
-48.1278 -159.516 553.4
-47.773 -157.848 549.321
-47.773 -157.355 549.321
-47.7339 -156.735 548.871
-47.5782 -155.733 547.08
-47.5394 -155.116 546.634
-47.5394 -154.626 546.634
-47.5007 -154.01 546.189
-47.462 -153.395 545.745
-47.462 -152.906 545.745
-47.5782 -152.79 547.08
-47.6559 -152.548 547.974
-47.7339 -152.306 548.871
-47.6949 -151.689 548.422
-47.6949 -151.198 548.422
-47.6949 -150.706 548.422
-47.7339 -150.337 548.871
-47.773 -149.968 549.321
-47.773 -149.475 549.321
-47.773 -148.983 549.321
-47.773 -148.49 549.321
-47.6949 -147.756 548.422
-47.6559 -147.144 547.974
-47.5394 -146.294 546.634
-47.5007 -145.685 546.189
-47.5007 -145.195 546.189
-47.5007 -144.706 546.189
-47.5782 -144.451 547.08
-47.5007 -143.726 546.189
-47.5007 -143.237 546.189
-47.6559 -141.739 547.974
-47.041 -139.426 540.904
-46.9652 -135.812 540.033
-47.041 -135.546 540.904
-46.9652 -134.844 540.033
-47.041 -134.576 540.904
-46.9652 -133.875 540.033
-47.041 -133.606 540.904
-47.041 -133.121 540.904
-47.041 -132.636 540.904
-47.079 -132.258 541.34
-47.117 -131.879 541.777
-47.079 -131.287 541.34
-47.1551 -131.013 542.215
-47.1551 -130.527 542.215
-47.1932 -130.146 542.654
-47.2314 -129.765 543.093
-47.2314 -129.278 543.093
-47.2697 -128.895 543.534
-47.2314 -125.382 543.093
-47.2314 -124.896 543.093
-47.2314 -124.409 543.093
-47.2314 -123.922 543.093
-47.2314 -121 543.093
-47.2314 -120.513 543.093
-47.1932 -119.929 542.654
-47.1932 -119.443 542.654
-47.1551 -118.86 542.215
-47.1551 -118.374 542.215
-47.1551 -117.888 542.215
-47.1551 -117.402 542.215
-47.1551 -116.915 542.215
-47.1932 -116.523 542.654
-47.2314 -115.644 543.093
-47.2314 -115.157 543.093
-47.2314 -114.67 543.093
-47.1932 -114.091 542.654
-47.1932 -113.604 542.654
-47.2314 -113.209 543.093
-47.2697 -112.814 543.534
-47.462 -107.89 545.745
-47.3081 -107.053 543.974
-47.3081 -106.565 543.974
-47.6949 -102.028 548.422
-47.773 -101.702 549.321
-47.773 -101.21 549.321
-47.773 -100.717 549.321
-47.7339 -100.143 548.871
-47.7339 -99.6507 548.871
-47.7339 -99.1586 548.871
-47.7339 -98.6665 548.871
-47.7339 -98.1744 548.871
-47.7339 -97.6823 548.871
-47.7339 -97.1902 548.871
-47.7339 -96.6981 548.871
-47.6949 -96.1273 548.422
-47.6949 -95.6356 548.422
-47.7339 -95.2218 548.871
-47.8907 -94.547 550.674
-47.9694 -94.208 551.579
-48.0089 -93.7906 552.033
-48.0485 -93.3725 552.488
-48.1675 -91.121 553.857
-48.1675 -90.6244 553.857
-48.1675 -90.1278 553.857
-48.1278 -89.5573 553.4
-48.1278 -88.0688 553.4
-48.1278 -87.5727 553.4
-48.1278 -87.0765 553.4
-48.1278 -86.5803 553.4
-48.1278 -86.0842 553.4
-47.9694 -81.8448 551.579
-48.1278 -81.6187 553.4
-48.2073 -81.2566 554.314
-48.2073 -80.7597 554.314
-48.2871 -80.3956 555.232
-48.2073 -79.7657 554.314
-48.2871 -79.3999 555.232
-48.2871 -78.9021 555.232
-48.1675 -78.2101 553.857
-48.2073 -77.7778 554.314
-48.2871 -77.4087 555.232
-48.2871 -76.9109 555.232
-48.3672 -76.5398 556.153
-48.4475 -76.1675 557.077
-48.4475 -75.6681 557.077
-48.609 -75.4192 558.934
-48.6902 -75.0431 559.867
-48.609 -74.4169 558.934
-48.609 -73.9158 558.934
-48.7716 -73.6602 560.803
-48.7716 -73.1574 560.803
-48.7716 -72.6546 560.803
-49.2659 -67.8041 566.487
-49.2659 -67.2962 566.487
-49.0587 -66.5075 564.105
-49.2659 -66.2804 566.487
-49.0587 -65.4959 564.105
-49.1 -65.0449 564.579
-49.1 -64.5387 564.579
-49.1 -64.0325 564.579
-49.1 -63.5263 564.579
-49.1414 -63.0732 565.055
-49.2243 -62.6722 566.009
-49.3076 -62.2698 566.966
-49.3076 -61.7615 566.966
-49.3076 -61.2532 566.966
-49.3076 -60.7449 566.966
-49.3493 -60.2875 567.445
-49.3493 -59.7788 567.445
-49.3911 -59.3202 567.926
-49.4329 -58.8608 568.407
-50.2852 -58.3205 578.207
-50.2852 -57.8021 578.207
-50.2852 -57.2837 578.207
-50.3721 -56.8633 579.206
-51.1674 -51.9586 588.351
-51.1674 -51.4311 588.351
-51.1674 -50.9036 588.351
-51.1226 -48.2239 587.836
-51.1226 -47.6968 587.836
-51.0778 -47.1285 587.321
-51.0778 -46.6019 587.321
-50.9885 -45.9948 586.294
-50.8995 -45.3898 585.271
-51.1226 -45.0616 587.836
-51.1674 -44.5737 588.351
-51.4381 -43.2186 591.464
-51.7117 -42.9154 594.61
-51.6202 -42.3073 593.558
-51.8036 -41.9235 595.666
-51.9883 -41.537 597.79
-52.3616 -39.6761 602.083
-52.5503 -39.2773 604.253
-52.5977 -38.7705 604.797
-52.8359 -38.4014 607.537
-53.028 -37.9943 609.746
-53.028 -37.4476 609.746
-53.028 -36.901 609.746
-52.9799 -36.3213 609.192
-53.028 -35.8076 609.746
-53.0763 -35.293 610.301
-52.9318 -34.6512 608.639
-55.0811 65.0184 633.353
-54.9255 65.4009 631.564
-54.7707 65.7813 629.784
-54.7194 66.2838 629.194
-54.7194 66.8479 629.194
-54.7707 67.4753 629.784
-54.8222 68.1039 630.376
-54.7707 68.6046 629.784
-54.6681 69.0396 628.604
-54.6169 69.538 628.015
-54.5148 69.97 626.842
-54.2108 70.1387 623.346
-54.2108 70.6976 623.346
-53.8107 71.8401 618.746
-53.7611 72.3281 618.175
-53.7116 72.8153 617.606
-53.5637 73.1669 615.905
-53.4655 73.5839 614.776
-53.3676 73.9995 613.651
-53.1246 74.2102 610.857
-53.028 74.6219 609.746
-53.028 75.1686 609.746
-53.028 75.7153 609.746
-52.9799 76.1927 609.192
-52.9799 76.7389 609.192
-52.9799 77.2851 609.192
-52.9799 77.8312 609.192
-52.8359 78.1645 607.537
-52.6927 78.4958 605.89
-52.4558 78.6837 603.166
-52.3147 79.0113 601.543
-51.9883 81.7341 597.79
-51.8958 82.1237 596.726
-51.8958 82.6587 596.726
-51.8958 83.1937 596.726
-51.8496 83.6543 596.196
-51.8496 84.1888 596.196
-51.8958 84.7988 596.726
-51.8496 85.2579 596.196
-51.8036 85.7162 595.666
-51.7576 86.1738 595.138
-51.7117 86.6305 594.61
-51.7117 87.1636 594.61
-51.6659 87.619 594.084
-51.6202 88.0737 593.558
-51.6202 88.6058 593.558
-51.5746 89.0592 593.033
-51.529 89.5117 592.509
-51.529 90.043 592.509
-51.4835 90.4942 591.986
-51.4381 90.9447 591.464
-51.3476 91.314 590.423
-51.2573 91.6819 589.385
-51.1226 91.9679 587.836
-50.9885 92.2524 586.294
-50.944 92.697 585.782
-50.944 93.2222 585.782
-50.8995 93.6656 585.271
-50.8551 94.1082 584.761
-50.8551 94.6325 584.761
-50.8551 95.1568 584.761
-50.8108 95.5977 584.251
-50.8108 96.1215 584.251
-50.8108 96.6453 584.251
-50.8108 97.1692 584.251
-50.2852 98.756 578.207
-50.2852 99.2744 578.207
-50.1124 101 576.22
-50.1124 101.516 576.22
-49.9408 101.684 574.247
-49.8554 102.024 573.265
-49.7703 102.363 572.287
-49.7703 102.876 572.287
-49.7703 103.389 572.287
-49.7279 103.813 571.799
-49.7703 104.415 572.287
-49.7279 104.839 571.799
-49.7279 105.351 571.799
-49.7279 105.864 571.799
-49.7703 106.467 572.287
-49.7703 106.981 572.287
-49.7703 107.494 572.287
-49.7703 108.007 572.287
-49.7703 108.52 572.287
-49.7703 109.033 572.287
-49.7703 109.546 572.287
-49.7703 110.059 572.287
-49.7703 110.572 572.287
-49.7703 111.085 572.287
-49.4329 110.842 568.407
-49.3911 111.257 567.926
-49.3911 111.766 567.926
-49.3911 112.276 567.926
-49.3911 112.785 567.926
-49.3911 113.294 567.926
-49.3911 113.803 567.926
-49.3911 114.312 567.926
-49.3911 114.821 567.926
-49.3493 115.233 567.445
-49.3911 115.84 567.926
-49.4329 116.448 568.407
-49.4329 116.957 568.407
-49.3911 117.367 567.926
-49.1 119.207 564.579
-49.0175 119.512 563.631
-48.9763 119.916 563.157
-48.9353 120.32 562.685
-48.8533 120.622 561.742
-48.8124 121.025 561.272
-48.8124 121.528 561.272
-48.8124 122.031 561.272
-48.8124 122.534 561.272
-48.8124 123.037 561.272
-48.8124 123.541 561.272
-48.8124 124.044 561.272
-48.8533 124.651 561.742
-49.1 129.33 564.579
-49.1 129.837 564.579
-48.4878 135.216 557.54
-48.4878 135.716 557.54
-48.4475 136.103 557.077
-48.4475 136.602 557.077
-48.4475 137.102 557.077
-48.4475 137.601 557.077
-48.4475 138.1 557.077
-48.4475 138.6 557.077
-48.4475 139.099 557.077
-48.4878 139.715 557.54
-48.4878 140.215 557.54
-48.7716 143.047 560.803
-48.7716 143.549 560.803
-48.8533 144.293 561.742
-48.7716 144.555 560.803
-48.7309 144.937 560.335
-48.7309 145.439 560.335
-48.7309 145.941 560.335
-48.7309 146.444 560.335
-48.7716 147.069 560.803
-48.1675 150.213 553.857
-48.2073 150.834 554.314
-48.2073 151.331 554.314
-48.3672 152.332 556.153
-48.3672 152.83 556.153
-48.4475 153.584 557.077
-48.4475 154.083 557.077
-48.4475 154.583 557.077
-48.4073 154.953 556.615
-48.4073 155.452 556.615
-48.2871 158.551 555.232
-48.2871 159.049 555.232
-48.1278 159.02 553.4
-48.1278 159.516 553.4
-48.2073 160.277 554.314
-48.1278 160.509 553.4
-48.2073 161.271 554.314
-48.2871 162.036 555.232
-48.4475 163.573 557.077
-48.4475 164.072 557.077
-49.1 188.048 564.579
-49.1 188.554 564.579
-49.1414 189.22 565.055
-49.2659 195.286 566.487
-49.3493 199.178 567.445
-49.3493 199.686 567.445
-49.4329 200.535 568.407
-49.3493 200.704 567.445
-49.0064 -189.644 569.372
-49.0064 -189.134 569.372
-48.9648 -188.463 568.889
-48.9648 -187.953 568.889
-48.9233 -187.285 568.407
-48.8405 -186.459 567.445
-48.758 -185.636 566.487
-48.6348 -184.66 565.055
-48.5938 -183.999 564.579
-48.553 -183.338 564.105
-48.5938 -182.986 564.579
-48.5122 -182.173 563.631
-48.4308 -181.363 562.685
-48.4308 -180.859 562.685
-48.5122 -180.657 563.631
-48.4308 -178.336 562.685
-48.4308 -177.832 562.685
-48.3497 -177.03 561.742
-48.3497 -176.527 561.742
-48.2688 -175.729 560.803
-48.2688 -175.226 560.803
-47.9481 -173.562 557.077
-47.4749 -171.355 551.579
-47.4749 -170.86 551.579
-47.5923 -170.787 552.943
-47.5531 -170.151 552.488
-47.5531 -169.656 552.488
-47.5531 -169.16 552.488
-47.5531 -168.665 552.488
-47.514 -168.031 552.033
-47.5531 -167.674 552.488
-47.514 -167.041 552.033
-47.5531 -166.684 552.488
-47.5531 -166.188 552.488
-47.5531 -165.693 552.488
-47.514 -165.062 552.033
-47.514 -164.567 552.033
-47.5531 -164.207 552.488
-47.5531 -163.712 552.488
-47.5531 -163.216 552.488
-47.3193 -159.456 549.771
-47.3193 -158.963 549.771
-47.3193 -158.47 549.771
-47.2418 -157.719 548.871
-47.2418 -157.227 548.871
-47.1646 -156.478 547.974
-47.0877 -155.733 547.08
-47.0493 -155.116 546.634
-47.0493 -154.626 546.634
-47.0493 -154.135 546.634
-46.9727 -153.395 545.745
-46.9727 -152.906 545.745
-47.0493 -152.665 546.634
-47.1646 -152.548 547.974
-47.2418 -152.306 548.871
-47.2418 -151.814 548.871
-47.2418 -151.321 548.871
-47.2805 -150.953 549.321
-47.2805 -150.46 549.321
-47.2805 -149.968 549.321
-47.3193 -149.598 549.771
-47.3193 -149.105 549.771
-47.3193 -148.612 549.771
-47.2418 -147.877 548.871
-47.2418 -147.385 548.871
-47.1646 -146.652 547.974
-47.011 -145.685 546.189
-47.011 -145.195 546.189
-47.011 -144.706 546.189
-47.1646 -144.687 547.974
-47.011 -143.726 546.189
-46.7067 -140.85 542.654
-46.6313 -140.137 541.777
-46.556 -139.426 540.904
-46.556 -138.941 540.904
-46.556 -138.456 540.904
-46.3691 -135.485 538.731
-46.4063 -135.11 539.164
-46.4063 -134.627 539.164
-46.4437 -134.251 539.598
-46.4437 -133.767 539.598
-46.4811 -133.391 540.033
-46.4811 -132.907 540.033
-46.4811 -132.423 540.033
-46.556 -132.151 540.904
-46.6313 -131.879 541.777
-46.556 -131.181 540.904
-46.6313 -130.908 541.777
-46.6313 -130.422 541.777
-46.6689 -130.041 542.215
-46.6689 -129.555 542.215
-46.7067 -129.173 542.654
-46.7445 -128.791 543.093
-46.7067 -128.2 542.654
-46.7067 -127.714 542.654
-46.7067 -127.227 542.654
-46.9345 -126.381 545.301
-46.8584 -125.688 544.416
-46.8584 -125.2 544.416
-46.8584 -124.712 544.416
-46.8584 -124.223 544.416
-46.7445 -121 543.093
-46.7445 -120.513 543.093
-46.7445 -119.052 543.093
-46.6689 -118.374 542.215
-46.6689 -117.888 542.215
-46.7067 -117.497 542.654
-46.7067 -117.01 542.654
-46.7067 -116.523 542.654
-46.7445 -115.644 543.093
-46.7445 -115.157 543.093
-46.7445 -114.67 543.093
-46.7067 -114.091 542.654
-46.7067 -113.604 542.654
-46.7445 -113.209 543.093
-46.7824 -112.814 543.534
-46.9727 -107.89 545.745
-46.7824 -106.966 543.534
-46.7824 -106.479 543.534
-47.2418 -102.111 548.871
-47.2805 -101.702 549.321
-47.2805 -101.21 549.321
-47.2805 -100.717 549.321
-47.2418 -100.143 548.871
-47.2418 -99.6507 548.871
-47.2418 -99.1586 548.871
-47.2418 -98.6665 548.871
-47.2418 -98.1744 548.871
-47.2418 -97.6823 548.871
-47.2418 -97.1902 548.871
-47.2418 -96.6981 548.871
-47.2418 -96.206 548.871
-47.2032 -95.6356 548.422
-47.2418 -95.2218 548.871
-47.397 -94.547 550.674
-47.4359 -94.1306 551.126
-47.5531 -93.8679 552.488
-47.5531 -93.3725 552.488
-47.6316 -91.0458 553.4
-47.6709 -90.6244 553.857
-47.7103 -90.2023 554.314
-47.7893 -89.8539 555.232
-47.6316 -89.0612 553.4
-47.6316 -88.565 553.4
-47.7893 -88.3604 555.232
-47.7893 -87.8626 555.232
-47.7893 -87.3648 555.232
-47.7893 -86.867 555.232
-47.7893 -86.3692 555.232
-47.6316 -85.588 553.4
-47.5923 -83.0387 552.943
-47.5531 -81.9796 552.488
-47.6316 -81.6187 553.4
-47.7103 -81.2566 554.314
-47.7103 -80.7597 554.314
-47.7893 -80.3956 555.232
-47.7893 -79.8978 555.232
-47.8686 -79.5316 556.153
-47.8686 -79.033 556.153
-47.7103 -78.2747 554.314
-47.7893 -77.9065 555.232
-47.7893 -77.4087 555.232
-47.9481 -77.1664 557.077
-47.9879 -76.7307 557.54
-47.9879 -76.2308 557.54
-47.9879 -75.731 557.54
-47.9481 -75.1686 557.077
-47.9481 -74.6691 557.077
-47.9481 -73.6702 557.077
-48.2688 -73.6602 560.803
-48.2688 -73.1574 560.803
-48.2688 -72.6546 560.803
-48.6758 -67.6898 565.532
-48.6758 -67.1827 565.532
-48.6348 -66.6195 565.055
-48.6758 -66.1687 565.532
-48.758 -65.7725 566.487
-48.6758 -65.1546 565.532
-48.6348 -64.5931 565.055
-48.6348 -64.0865 565.055
-48.6348 -63.5798 565.055
-48.758 -63.233 566.487
-48.7992 -62.7782 566.966
-48.8819 -62.3753 567.926
-48.8819 -61.8661 567.926
-48.8819 -61.3569 567.926
-48.8819 -60.8477 567.926
-48.8405 -60.2875 567.445
-48.8405 -59.7788 567.445
-48.9233 -59.3705 568.407
-49.0897 -59.061 570.34
-49.7668 -57.2837 578.207
-49.7668 -56.7653 578.207
-49.8528 -56.344 579.206
-49.8958 -54.8335 579.706
-50.7289 -52.05 589.385
-50.6844 -51.4763 588.868
-50.6844 -50.9483 588.868
-50.6399 -48.2662 588.351
-50.6399 -47.7387 588.351
-50.5955 -47.1698 587.836
-50.5955 -46.6427 587.836
-50.6399 -46.1562 588.351
-50.6399 -45.6287 588.351
-50.6399 -45.1012 588.351
-50.6399 -44.5737 588.351
-51.0429 -43.3333 593.033
-50.9978 -42.7638 592.509
-51.088 -42.3073 593.558
-51.2695 -41.9235 595.666
-51.3151 -41.4263 596.196
-51.3608 -40.9281 596.726
-52.0085 -39.2773 604.253
-52.0085 -38.7355 604.253
-52.2912 -38.4014 607.537
-52.4814 -37.9943 609.746
-52.4814 -37.4476 609.746
-52.4814 -36.901 609.746
-52.4337 -36.3213 609.192
-52.3861 -35.7426 608.639
-52.3861 -35.1969 608.639
-52.3861 -34.6512 608.639
-52.4814 -34.1675 609.746
-52.5291 -33.6515 610.301
-54.4618 64.957 632.755
-54.4618 65.5243 632.755
-54.3592 65.9672 631.564
-54.3081 66.4708 630.969
-54.3081 67.0365 630.969
-54.3592 67.6659 631.564
-54.3592 68.2321 631.564
-54.3592 68.7984 631.564
-54.2061 69.1692 629.784
-54.1045 69.6032 628.604
-54.0538 70.1011 628.015
-53.6021 70.0736 622.767
-53.6021 70.632 622.767
-53.256 71.8401 618.746
-53.256 72.3949 618.746
-53.2069 72.8824 618.175
-53.109 73.3015 617.038
-52.8175 73.4493 613.651
-52.6249 73.7296 611.413
-52.4814 74.0752 609.746
-52.4814 74.6219 609.746
-52.4337 75.1003 609.192
-52.4337 75.6465 609.192
-52.3861 76.1236 608.639
-52.3861 76.6693 608.639
-52.3861 77.2149 608.639
-52.4337 77.8312 609.192
-52.3861 78.3063 608.639
-52.2439 78.6379 606.987
-52.1024 78.9677 605.343
-51.915 79.2245 603.166
-51.8218 79.622 602.083
-51.3608 81.5887 596.726
-51.3608 82.1237 596.726
-51.3151 82.5852 596.196
-51.3608 83.1937 596.726
-51.3608 83.7287 596.726
-51.3151 84.1888 596.196
-51.1786 84.498 594.61
-51.3151 85.2579 596.196
-51.3608 85.8688 596.726
-51.3151 86.327 596.196
-51.3608 86.9388 596.726
-51.1786 87.1636 594.61
-51.2695 87.8525 595.666
-51.2695 88.3865 595.666
-51.224 88.8417 595.138
-51.088 89.138 593.558
-51.0429 89.5909 593.033
-51.0429 90.1226 593.033
-50.9528 90.4942 591.986
-50.9528 91.025 591.986
-50.9078 91.475 591.464
-50.8182 91.8433 590.423
-50.6399 92.0486 588.351
-50.5512 92.4139 587.321
-50.507 92.8592 586.807
-50.507 93.3853 586.807
-50.4628 93.8293 586.294
-50.4188 94.2726 585.782
-50.4188 94.7978 585.782
-50.3309 95.1568 584.761
-50.3309 95.681 584.761
-50.3309 96.2053 584.761
-50.287 96.6453 584.251
-50.287 97.1692 584.251
-49.7668 98.2376 578.207
-49.6811 98.586 577.212
-49.5958 98.9332 576.22
-49.5958 101 576.22
-49.5532 101.429 575.726
-49.4259 101.684 574.247
-49.3414 102.024 573.265
-49.3414 102.538 573.265
-49.2572 102.876 572.287
-49.2572 103.389 572.287
-49.2572 103.902 572.287
-49.2572 104.415 572.287
-49.2572 104.928 572.287
-49.2572 105.441 572.287
-49.2153 105.864 571.799
-49.2572 106.467 572.287
-49.2572 106.981 572.287
-49.2572 107.494 572.287
-49.2572 108.007 572.287
-49.2572 108.52 572.287
-49.2572 109.033 572.287
-49.2572 109.546 572.287
-49.2572 110.059 572.287
-49.2572 110.572 572.287
-49.2572 111.085 572.287
-49.0897 111.219 570.34
-48.9648 111.446 568.889
-48.8819 111.766 567.926
-48.9233 112.371 568.407
-48.8819 112.785 567.926
-48.8819 113.294 567.926
-48.8819 113.803 567.926
-48.8819 114.312 567.926
-48.8819 114.821 567.926
-48.8819 115.331 567.926
-48.8819 115.84 567.926
-48.9233 116.448 568.407
-48.9233 116.957 568.407
-48.9233 117.467 568.407
-48.6758 119.408 565.532
-48.553 119.612 564.105
-48.553 120.118 564.105
-48.5122 120.522 563.631
-48.4308 120.825 562.685
-48.3092 121.025 561.272
-48.3497 121.63 561.742
-48.3497 122.133 561.742
-48.3497 122.637 561.742
-48.3092 123.037 561.272
-48.3092 123.541 561.272
-48.3092 124.044 561.272
-48.3497 124.651 561.742
-47.9879 135.716 557.54
-47.9481 136.103 557.077
-47.9481 136.602 557.077
-47.9481 137.102 557.077
-47.9481 137.601 557.077
-47.9481 138.1 557.077
-47.9481 138.6 557.077
-47.9879 139.215 557.54
-48.3092 144.173 561.272
-48.2285 144.434 560.335
-48.1882 144.816 559.867
-48.2285 145.439 560.335
-48.2285 145.941 560.335
-48.2285 146.444 560.335
-48.2285 146.946 560.335
-47.7103 150.337 554.314
-47.8686 151.334 556.153
-47.8686 151.833 556.153
-47.9083 152.458 556.615
-47.8686 152.83 556.153
-47.9083 153.456 556.615
-47.9083 153.955 556.615
-47.9083 154.454 556.615
-47.9481 155.082 557.077
-47.9481 155.582 557.077
-47.7893 158.551 555.232
-47.7893 159.049 555.232
-47.6709 159.151 553.857
-47.6709 159.648 553.857
-47.6709 160.145 553.857
-47.6709 160.641 553.857
-47.7103 161.271 554.314
-47.9481 163.573 557.077
-48.5938 188.048 564.579
-48.5938 188.554 564.579
-48.5938 192.098 564.579
-48.758 193.254 566.487
-48.8405 195.108 567.445
-48.8405 195.616 567.445
-48.8405 196.125 567.445
-48.9233 199.515 568.407
-48.9233 200.025 568.407
-48.9233 200.535 568.407
-48.9233 201.044 568.407
-48.9233 201.554 568.407
-48.9233 202.063 568.407
-48.5783 -189.967 570.34
-48.4959 -189.134 569.372
-48.4959 -188.113 569.372
-48.4137 -187.285 568.407
-48.4137 -186.775 568.407
-48.3318 -185.95 567.445
-48.2501 -185.128 566.487
-48.1688 -184.309 565.532
-48.0877 -183.492 564.579
-48.0877 -182.986 564.579
-47.9263 -181.868 562.685
-47.846 -181.059 561.742
-47.9263 -180.859 562.685
-48.0877 -180.961 564.579
-47.4486 -173.562 557.077
-46.9804 -171.355 551.579
-47.0578 -171.142 552.488
-47.0966 -170.787 552.943
-47.0966 -170.291 552.943
-47.0966 -169.796 552.943
-47.0578 -169.16 552.488
-47.0966 -168.804 552.943
-47.0966 -168.308 552.943
-47.0578 -167.674 552.488
-47.0578 -167.179 552.488
-47.0966 -166.821 552.943
-47.0966 -166.325 552.943
-47.0578 -165.693 552.488
-47.019 -165.062 552.033
-47.019 -164.567 552.033
-47.0578 -164.207 552.488
-47.0966 -163.846 552.943
-47.019 -163.082 552.033
-46.788 -159.325 549.321
-46.7497 -158.703 548.871
-46.6733 -157.952 547.974
-46.6733 -157.461 547.974
-46.7115 -157.098 548.422
-46.6733 -156.478 547.974
-46.5972 -155.733 547.08
-46.5592 -155.116 546.634
-46.5592 -154.626 546.634
-46.5592 -154.135 546.634
-46.4834 -153.395 545.745
-46.4834 -152.906 545.745
-46.5592 -152.665 546.634
-46.6733 -152.548 547.974
-46.7497 -152.306 548.871
-46.7497 -151.814 548.871
-46.7497 -151.321 548.871
-46.788 -150.953 549.321
-46.788 -150.46 549.321
-46.788 -149.968 549.321
-46.8263 -149.598 549.771
-46.8263 -149.105 549.771
-46.8263 -148.612 549.771
-46.788 -147.998 549.321
-46.7497 -147.385 548.871
-46.6733 -146.652 547.974
-46.5972 -145.923 547.08
-46.6733 -145.67 547.974
-46.6733 -145.179 547.974
-46.6733 -144.687 547.974
-46.5213 -143.726 546.189
-46.1455 -140.622 541.777
-46.2202 -139.877 542.654
-46.1455 -139.165 541.777
-46.0711 -138.456 540.904
-45.9969 -137.749 540.033
-45.9229 -136.56 539.164
-45.9229 -136.077 539.164
-45.8861 -135.485 538.731
-45.9229 -135.11 539.164
-45.9229 -134.627 539.164
-45.9229 -134.143 539.164
-45.9229 -133.66 539.164
-45.9599 -133.284 539.598
-45.9229 -132.693 539.164
-45.9599 -132.316 539.598
-45.9599 -131.832 539.598
-45.9969 -131.454 540.033
-45.9969 -130.97 540.033
-46.034 -130.591 540.468
-45.9969 -130.002 540.033
-46.0711 -129.726 540.904
-46.1455 -129.45 541.777
-46.1828 -129.069 542.215
-46.3702 -129.105 544.416
-46.3702 -128.616 544.416
-46.3702 -128.128 544.416
-46.3702 -127.64 544.416
-46.3702 -127.152 544.416
-46.5213 -127.077 546.189
-46.4456 -126.381 545.301
-46.4456 -125.892 545.301
-46.3702 -125.2 544.416
-46.3702 -124.712 544.416
-46.3702 -124.223 544.416
-46.3702 -123.735 544.416
-46.3702 -121.295 544.416
-46.2576 -119.052 543.093
-46.2202 -118.47 542.654
-46.2202 -117.983 542.654
-46.2202 -117.497 542.654
-46.2202 -117.01 542.654
-46.2202 -116.523 542.654
-46.2576 -115.644 543.093
-46.2576 -115.157 543.093
-46.2576 -114.67 543.093
-46.2202 -114.091 542.654
-46.2202 -113.604 542.654
-46.2576 -113.209 543.093
-46.2951 -112.814 543.534
-46.4456 -107.803 545.301
-46.2576 -106.879 543.093
-46.2576 -106.392 543.093
-46.7497 -102.111 548.871
-46.788 -101.702 549.321
-46.788 -101.21 549.321
-46.7497 -100.635 548.871
-46.7497 -100.143 548.871
-46.7497 -99.6507 548.871
-46.7497 -99.1586 548.871
-46.7497 -98.6665 548.871
-46.7497 -98.1744 548.871
-46.7497 -97.6823 548.871
-46.7497 -97.1902 548.871
-46.7497 -96.6981 548.871
-46.7497 -96.206 548.871
-46.7115 -95.6356 548.422
-46.788 -95.2998 549.321
-46.9032 -94.547 550.674
-46.9418 -94.1306 551.126
-47.019 -93.7906 552.033
-47.019 -93.2957 552.033
-47.0966 -90.9707 552.943
-47.1743 -90.6244 553.857
-47.2915 -90.3517 555.232
-47.3307 -89.9283 555.692
-47.3307 -89.4301 555.692
-47.3307 -88.9319 555.692
-47.3307 -88.4336 555.692
-47.3307 -87.9354 555.692
-47.3307 -87.4372 555.692
-47.3307 -86.939 555.692
-47.3699 -86.5125 556.153
-47.3699 -86.0138 556.153
-47.3699 -85.5152 556.153
-47.1354 -84.5957 553.4
-47.1354 -84.0995 553.4
-47.1354 -83.6034 553.4
-47.1354 -83.1072 553.4
-47.2133 -82.2506 554.314
-47.2915 -81.889 555.232
-47.3699 -81.5262 556.153
-47.2915 -80.8934 555.232
-47.3699 -80.5289 556.153
-47.4092 -80.0967 556.615
-47.4486 -79.6637 557.077
-47.3699 -79.033 556.153
-47.2915 -78.4043 555.232
-47.3699 -78.0357 556.153
-47.4486 -77.6659 557.077
-47.4881 -77.2306 557.54
-47.4486 -76.667 557.077
-47.4881 -76.2308 557.54
-47.4486 -75.6681 557.077
-47.6068 -75.4192 558.934
-47.4486 -74.6691 557.077
-47.4486 -74.1697 557.077
-47.4486 -73.6702 557.077
-47.4486 -73.1708 557.077
-47.6068 -72.9135 558.934
-47.766 -72.6546 560.803
-48.4137 -69.5628 568.407
-48.4137 -69.0532 568.407
-48.2501 -68.312 566.487
-48.0877 -67.5758 564.579
-48.0877 -67.0696 564.579
-48.0877 -66.5634 564.579
-48.1282 -66.1129 565.055
-48.2501 -65.7725 566.487
-48.1282 -65.0997 565.055
-48.1282 -64.5931 565.055
-48.2094 -64.1946 566.009
-48.1688 -63.6335 565.532
-48.3318 -63.34 567.445
-48.3727 -62.8845 567.926
-48.3727 -62.3753 567.926
-48.3727 -61.8661 567.926
-48.3727 -61.3569 567.926
-48.3727 -60.8477 567.926
-48.3727 -60.3386 567.926
-48.3727 -59.8294 567.926
-48.4137 -59.3705 568.407
-48.6611 -59.1617 571.312
-48.7441 -58.7495 572.287
-49.1636 -58.7376 577.212
-49.1636 -58.2201 577.212
-49.0792 -57.6034 576.22
-49.0792 -57.0868 576.22
-49.1636 -56.6676 577.212
-49.2484 -56.2468 578.207
-49.3335 -55.8247 579.206
-49.3761 -55.3532 579.706
-49.3761 -54.8335 579.706
-49.3761 -54.3137 579.706
-49.4188 -51.7597 580.208
-50.2005 -52.05 589.385
-50.1124 -51.4311 588.351
-50.1124 -50.9036 588.351
-50.1124 -48.2662 588.351
-50.1124 -47.7387 588.351
-50.1124 -47.2112 588.351
-50.1124 -46.6837 588.351
-50.4666 -43.295 592.509
-50.5559 -42.8395 593.558
-50.5559 -42.3073 593.558
-50.7806 -41.9608 596.196
-50.8257 -41.4631 596.726
-50.871 -40.9646 597.258
-51.0985 -40.072 599.929
-51.4668 -39.2773 604.253
-51.5597 -38.8055 605.343
-51.7465 -38.4014 607.537
-51.8404 -37.9254 608.639
-51.8875 -37.4136 609.192
-51.8875 -36.8674 609.192
-51.8875 -36.3213 609.192
-51.8875 -35.7751 609.192
-51.8875 -35.2289 609.192
-51.8875 -34.6827 609.192
-51.9819 -34.1986 610.301
-51.9819 -33.6515 610.301
-51.9819 -33.1043 610.301
-53.9454 65.0184 633.353
-53.8945 65.5243 632.755
-53.7424 65.9051 630.969
-53.793 66.5334 631.564
-53.793 67.0997 631.564
-53.793 67.6659 631.564
-53.8437 68.2964 632.159
-53.7424 68.7337 630.969
-53.6919 69.2342 630.376
-53.6919 69.7994 630.376
-53.4407 70.0355 627.428
-53.2912 70.4005 625.672
-53.2912 70.9614 625.672
-52.7499 71.9064 619.317
-52.7012 72.3949 618.746
-52.6527 72.8824 618.175
-52.3631 73.0327 614.776
-52.1242 73.2482 611.971
-52.0293 73.6625 610.857
-51.9347 74.0752 609.746
-51.9347 74.6219 609.746
-51.8875 75.1003 609.192
-51.8875 75.6465 609.192
-51.8875 76.1927 609.192
-51.8875 76.7389 609.192
-51.8404 77.2149 608.639
-51.8875 77.8312 609.192
-51.8875 78.3774 609.192
-51.7465 78.7092 607.537
-51.5597 78.9677 605.343
-51.3742 79.2245 603.166
-50.7806 81.5162 596.196
-50.7806 82.0507 596.196
-50.7806 82.5852 596.196
-50.7806 83.1198 596.196
-50.7806 83.6543 596.196
-50.7806 84.1888 596.196
-50.7806 84.7234 596.196
-50.7806 85.2579 596.196
-50.7806 85.7924 596.196
-50.7806 86.327 596.196
-50.7806 87.396 596.196
-50.7806 87.9306 596.196
-50.7355 88.3865 595.666
-50.7355 88.9206 595.666
-50.6455 89.296 594.61
-50.5559 89.6702 593.558
-50.5112 90.1226 593.033
-50.4666 90.5742 592.509
-50.422 91.025 591.986
-50.2889 91.314 590.423
-50.2889 91.8433 590.423
-50.1124 92.0486 588.351
-50.0246 92.4139 587.321
-50.0685 93.022 587.836
-50.0246 93.4671 587.321
-50.0246 93.9937 587.321
-49.9372 94.355 586.294
-49.85 94.7151 585.271
-49.8066 95.1568 584.761
-49.8066 95.681 584.761
-49.8066 96.2053 584.761
-49.7632 96.6453 584.251
-49.8066 97.2539 584.761
-49.1636 98.0685 577.212
-49.0792 98.4166 576.22
-49.0792 98.9332 576.22
-49.0792 100.483 576.22
-49.037 100.913 575.726
-49.037 101.429 575.726
-48.9111 101.684 574.247
-48.8275 102.024 573.265
-48.8275 102.538 573.265
-48.7441 102.876 572.287
-48.7441 103.389 572.287
-48.7441 103.902 572.287
-48.7441 104.415 572.287
-48.7441 104.928 572.287
-48.7026 105.351 571.799
-48.7026 105.864 571.799
-48.7441 106.467 572.287
-48.7441 106.981 572.287
-48.7441 107.494 572.287
-48.7441 108.007 572.287
-48.7441 108.52 572.287
-48.7441 109.033 572.287
-48.7441 109.546 572.287
-48.7441 110.059 572.287
-48.7441 110.572 572.287
-48.7441 111.085 572.287
-48.6611 111.408 571.312
-48.4547 111.446 568.889
-48.3727 111.766 567.926
-48.4137 112.371 568.407
-48.3727 112.785 567.926
-48.4137 113.39 568.407
-48.3727 113.803 567.926
-48.3727 114.312 567.926
-48.3727 114.821 567.926
-48.3727 115.331 567.926
-48.3727 115.84 567.926
-48.4137 116.448 568.407
-48.4137 116.957 568.407
-48.3727 117.367 567.926
-48.3727 117.877 567.926
-48.2909 119.202 566.966
-48.1282 119.307 565.055
-48.0877 119.713 564.579
-48.0472 120.118 564.105
-48.0472 120.624 564.105
-48.0068 121.028 563.631
-47.8861 121.227 562.213
-47.8861 121.732 562.213
-47.8861 122.236 562.213
-47.8861 122.74 562.213
-47.846 123.141 561.742
-47.846 123.644 561.742
-47.846 124.148 561.742
-47.9263 124.861 562.685
-47.4881 136.216 557.54
-47.4881 136.716 557.54
-47.4486 137.102 557.077
-47.846 144.293 561.742
-47.766 144.555 560.803
-47.7261 144.937 560.335
-47.766 145.561 560.803
-47.766 146.063 560.803
-47.7261 146.444 560.335
-47.7261 146.946 560.335
-47.2915 150.586 555.232
-47.4092 151.46 556.615
-47.4092 151.959 556.615
-47.4486 152.585 557.077
-47.4092 152.957 556.615
-47.4486 153.584 557.077
-47.4486 154.083 557.077
-47.4881 154.711 557.54
-47.4486 155.082 557.077
-47.3699 158.814 556.153
-47.3699 159.313 556.153
-47.2915 159.547 555.232
-47.2915 160.044 555.232
-47.2915 161.04 555.232
-47.2915 161.538 555.232
-48.0877 188.048 564.579
-48.1282 188.713 565.055
-48.0877 190.073 564.579
-48.0877 190.579 564.579
-48.0877 191.085 564.579
-48.2094 192.076 566.009
-48.1688 192.421 565.532
-48.1688 192.929 565.532
-48.2501 193.762 566.487
-48.2501 194.27 566.487
-48.4137 195.438 568.407
-48.3318 195.616 567.445
-48.2501 195.794 566.487
-48.4959 199.854 569.372
-48.4959 200.365 569.372
-48.4137 200.535 568.407
-48.5783 201.728 570.34
-48.5783 202.239 570.34
-48.5783 202.751 570.34
-47.9447 -187.443 568.889
-47.9447 -186.933 568.889
