ply
format ascii 1.0
element vertex 1942
property float x
property float y
property float z
end_header
-212.895 278.432 886.024
-212.334 278.49 883.69
-211.776 278.549 881.367
-211.221 278.607 879.057
-210.944 279.029 877.906
-210.669 279.45 876.759
-209.846 279.142 873.334
-209.029 278.836 869.936
-209.029 279.616 869.936
-208.219 279.309 866.564
-206.883 278.288 861.002
-206.617 278.702 859.898
-206.353 279.115 858.797
-206.353 279.885 858.797
-206.089 280.296 857.699
-205.826 280.706 856.603
-205.301 280.757 854.421
-204.78 280.808 852.25
-204.52 281.215 851.168
-204.52 281.978 851.168
-204.52 282.741 851.168
-204.26 283.145 850.089
-202.974 282.119 844.736
-202.21 281.812 841.556
-201.704 281.859 839.45
-200.699 281.204 835.268
-200.699 281.952 835.268
-200.201 281.999 833.193
-198.719 280.654 827.029
-198.475 281.049 826.01
-197.987 281.097 823.981
-197.26 280.801 820.955
-196.778 280.85 818.95
-196.778 281.584 818.95
-196.538 281.974 817.952
-196.538 282.707 817.952
-196.06 282.751 815.962
-195.822 283.138 814.97
-195.584 283.524 813.981
-195.822 284.599 814.97
-195.347 284.638 812.994
-195.584 285.714 813.981
-195.111 285.75 812.01
-194.639 285.786 810.049
-194.405 286.167 809.072
-194.405 286.892 809.072
-193.937 286.925 807.124
-192.777 285.928 802.297
-190.498 283.259 792.814
-189.602 282.634 789.083
-189.379 283.008 788.156
-189.157 283.382 787.231
-189.157 284.088 787.231
-188.714 284.127 785.387
-187.834 283.503 781.725
-187.834 284.204 781.725
-187.615 284.573 780.815
-187.397 284.941 779.907
-186.962 284.978 778.098
-186.314 284.685 775.399
-185.884 284.722 773.611
-185.67 285.086 772.719
-185.67 285.779 772.719
-185.67 286.472 772.719
-185.456 286.834 771.83
-184.607 286.209 768.294
-183.974 285.915 765.663
-183.765 286.275 764.79
-182.93 285.658 761.317
-182.516 285.692 759.593
-182.309 286.049 758.734
-182.103 286.405 757.876
-182.103 287.085 757.876
-181.693 287.115 756.167
-181.08 286.823 753.618
-180.877 287.176 752.773
-180.674 287.528 751.929
-180.674 288.202 751.929
-180.674 288.877 751.929
-180.069 288.58 749.408
-179.268 287.965 746.074
-179.068 288.313 745.245
-178.87 288.661 744.418
-178.671 289.007 743.593
-177.882 288.395 740.31
-177.295 288.105 737.866
-177.101 288.449 737.055
-176.906 288.793 736.246
-176.712 289.135 735.439
-176.325 289.161 733.83
-176.133 289.502 733.028
-175.94 289.842 732.228
-175.94 290.499 732.228
-175.94 291.155 732.228
-217.561 278.266 908.835
-216.973 278.327 906.379
-213.795 276.652 893.103
-213.227 276.716 890.731
-212.662 276.78 888.371
-212.662 277.576 888.371
-212.381 278.005 887.196
-212.101 278.432 886.024
-211.542 278.49 883.69
-210.709 278.183 880.211
-210.433 278.607 879.057
-210.157 279.029 877.906
-209.883 279.45 876.759
-209.335 279.506 874.472
-208.249 278.836 869.936
-208.249 279.616 869.936
-207.71 279.67 867.685
-206.641 279.004 863.218
-205.846 278.702 859.898
-205.846 279.473 859.898
-205.846 280.244 859.898
-205.583 280.655 858.797
-205.32 281.065 857.699
-204.796 281.115 855.511
-204.275 281.165 853.334
-204.015 281.572 852.25
-203.757 281.978 851.168
-203.757 282.741 851.168
-203.757 283.504 851.168
-202.217 282.119 844.736
-201.456 281.812 841.556
-200.7 281.506 838.401
-199.95 281.204 835.268
-199.702 281.602 834.229
-199.454 281.999 833.193
-197.978 280.654 827.029
-197.491 280.703 824.994
-197.248 281.097 823.981
-196.765 281.145 821.961
-196.284 281.193 819.952
-196.044 281.584 818.95
-195.805 281.974 817.952
-195.805 282.707 817.952
-195.567 283.095 816.955
-195.091 283.138 814.97
-194.855 283.524 813.981
-195.091 284.599 814.97
-194.855 284.984 813.981
-194.855 285.714 813.981
-194.383 285.75 812.01
-193.913 285.786 810.049
-193.679 286.167 809.072
-193.446 286.546 808.097
-192.518 285.893 804.221
-190.237 283.218 794.692
-190.012 283.595 793.752
-189.117 282.967 790.012
-188.672 283.008 788.156
-188.672 283.715 788.156
-188.451 284.088 787.231
-188.23 284.46 786.308
-187.351 283.834 782.638
-187.351 284.536 782.638
-187.133 284.905 781.725
-186.698 284.941 779.907
-186.481 285.309 779.002
-186.049 285.345 777.196
-185.404 285.05 774.504
-185.19 285.415 773.611
-184.977 285.779 772.719
-184.977 286.472 772.719
-184.552 286.505 770.943
-183.497 285.555 766.538
-183.288 285.915 765.663
-182.87 285.949 763.918
-182.248 285.658 761.317
-181.835 285.692 759.593
-181.629 286.049 758.734
-181.629 286.729 758.734
-181.629 287.409 758.734
-181.424 287.764 757.876
-180.608 287.146 754.466
-180.405 287.499 753.618
-180 287.528 751.929
-180 288.202 751.929
-179.799 288.553 751.087
-179.397 288.58 749.408
-178.797 288.286 746.905
-178.599 288.634 746.074
-178.4 288.982 745.245
-178.202 289.328 744.418
-177.219 288.395 740.31
-176.634 288.105 737.866
-176.44 288.449 737.055
-176.053 288.476 735.439
-175.668 288.503 733.83
-175.476 288.845 733.028
-175.476 289.502 733.028
-175.476 290.159 733.028
-175.284 290.499 732.228
-175.284 291.155 732.228
-216.746 278.266 908.835
-212.994 276.652 893.103
-212.429 276.716 890.731
-211.866 276.78 888.371
-211.586 277.209 887.196
-211.586 278.005 887.196
-211.306 278.432 886.024
-210.749 278.49 883.69
-209.92 278.183 880.211
-209.37 278.242 877.906
-209.096 278.664 876.759
-208.823 279.086 875.614
-208.28 279.142 873.334
-207.469 278.836 869.936
-207.469 279.616 869.936
-206.932 279.67 867.685
-206.398 279.724 865.446
-205.339 279.06 861.002
-205.075 279.473 859.898
-205.075 280.244 859.898
-204.813 280.655 858.797
-204.551 281.065 857.699
-204.029 281.115 855.511
-203.51 281.165 853.334
-203.251 281.572 852.25
-202.993 281.978 851.168
-202.993 282.741 851.168
-202.736 283.145 850.089
-201.206 281.764 843.673
-200.701 281.812 841.556
-200.199 281.859 839.45
-199.45 281.554 836.31
-199.201 281.952 835.268
-198.707 281.999 833.193
-197.48 281.001 828.05
-196.751 280.703 824.994
-196.51 281.097 823.981
-196.268 281.49 822.97
-195.549 281.193 819.952
-195.31 281.584 818.95
-195.31 282.318 818.95
-195.072 282.707 817.952
-194.834 283.095 816.955
-194.361 283.138 814.97
-194.125 283.524 813.981
-194.125 284.254 813.981
-193.889 284.638 812.994
-193.889 285.367 812.994
-193.421 285.404 811.028
-193.187 285.786 810.049
-192.49 285.478 807.124
-192.027 285.514 805.187
-191.338 285.209 802.297
-189.749 283.554 795.635
-189.3 283.595 793.752
-188.631 283.301 790.944
-188.187 283.341 789.083
-187.966 283.715 788.156
-187.745 284.088 787.231
-187.525 284.46 786.308
-187.086 284.498 784.468
-187.086 285.201 784.468
-186.65 285.237 782.638
-185.999 284.941 779.907
-185.783 285.309 779.002
-185.352 285.345 777.196
-184.923 285.38 775.399
-184.497 285.415 773.611
-184.284 285.779 772.719
-184.072 286.142 771.83
-183.229 285.52 768.294
-182.601 285.229 765.663
-182.393 285.589 764.79
-182.393 286.275 764.79
-181.771 285.982 762.182
-181.154 285.692 759.593
-180.949 286.049 758.734
-180.949 286.729 758.734
-180.744 287.085 757.876
-180.744 287.764 757.876
-180.134 287.469 755.316
-179.729 287.499 753.618
-179.326 287.528 751.929
-179.326 288.202 751.929
-179.125 288.553 751.087
-178.925 288.903 750.247
-178.725 289.252 749.408
-178.128 288.955 746.905
-177.93 289.303 746.074
-177.732 289.65 745.245
-177.338 289.674 743.593
-176.36 288.74 739.493
-175.972 288.767 737.866
-175.972 289.428 737.866
-175.586 289.453 736.246
-175.201 289.477 734.634
-175.01 289.819 733.83
-174.818 290.159 733.028
-174.818 290.816 733.028
-174.818 291.473 733.028
-216.224 277.828 910.068
-215.348 277.514 906.379
-212.76 276.588 895.488
-212.477 277.021 894.294
-211.63 276.716 890.731
-211.069 276.78 888.371
-210.79 277.209 887.196
-210.79 278.005 887.196
-210.512 278.432 886.024
-209.957 278.49 883.69
-209.13 278.183 880.211
-208.583 278.242 877.906
-208.038 278.3 875.614
-207.497 278.359 873.334
-207.227 278.779 872.198
-206.689 278.836 869.936
-206.422 279.253 868.809
-205.888 279.309 866.564
-205.622 279.724 865.446
-204.83 279.419 862.109
-204.304 279.473 859.898
-204.304 280.244 859.898
-204.043 280.655 858.797
-203.782 281.065 857.699
-203.262 281.115 855.511
-202.745 281.165 853.334
-202.487 281.572 852.25
-202.23 281.978 851.168
-202.23 282.741 851.168
-201.974 283.145 850.089
-200.45 281.764 843.673
-199.947 281.812 841.556
-199.446 281.859 839.45
-198.7 281.554 836.31
-198.453 281.952 835.268
-198.206 282.35 834.229
-197.225 281.696 830.1
-196.253 281.049 826.01
-196.012 281.443 824.994
-195.771 281.836 823.981
-195.052 281.537 820.955
-194.814 281.928 819.952
-194.576 282.318 818.95
-194.576 283.052 818.95
-194.102 283.095 816.955
-193.63 283.138 814.97
-193.161 283.181 812.994
-192.927 283.566 812.01
-192.693 283.95 811.028
-192.461 284.333 810.049
-192.229 284.716 809.072
-191.997 285.097 808.097
-191.535 285.135 806.154
-191.305 285.514 805.187
-190.847 285.551 803.258
-188.812 283.218 794.692
-188.366 283.259 792.814
-187.7 282.967 790.012
-187.479 283.341 789.083
-187.259 283.715 788.156
-187.039 284.088 787.231
-187.039 284.794 787.231
-186.82 285.165 786.308
-186.82 285.87 786.308
-186.383 285.904 784.468
-185.515 285.273 780.815
-185.084 285.309 779.002
-184.869 285.676 778.098
-184.441 285.71 776.297
-183.592 285.086 772.719
-183.38 285.45 771.83
-183.38 286.142 771.83
-182.959 286.176 770.058
-182.123 285.555 766.538
-181.915 285.915 765.663
-181.501 285.949 763.918
-181.088 285.982 762.182
-180.473 285.692 759.593
-180.269 286.049 758.734
-180.269 286.729 758.734
-180.269 287.409 758.734
-180.065 287.764 757.876
-179.862 288.118 757.021
-179.255 287.822 754.466
-178.852 287.851 752.773
-178.852 288.526 752.773
-178.652 288.877 751.929
-178.652 289.551 751.929
-178.452 289.9 751.087
-178.452 290.573 751.087
-177.656 289.948 747.737
-177.261 289.972 746.074
-177.064 290.318 745.245
-175.697 288.74 739.493
-175.504 289.085 738.679
-175.311 289.428 737.866
-175.311 290.09 737.866
-174.926 290.113 736.246
-174.543 290.136 734.634
-174.352 290.476 733.83
-174.161 290.816 733.028
-174.161 291.473 733.028
-214.535 276.702 906.379
-212.241 276.154 896.685
-211.957 276.588 895.488
-211.957 277.391 895.488
-211.112 277.084 891.915
-210.273 276.78 888.371
-209.995 277.209 887.196
-209.995 278.005 887.196
-209.995 278.8 887.196
-209.441 278.858 884.855
-208.615 278.549 881.367
-207.796 278.242 877.906
-207.253 278.3 875.614
-206.445 277.997 872.198
-206.177 278.417 871.065
-205.643 278.474 868.809
-205.643 279.253 868.809
-205.111 279.309 866.564
-204.847 279.724 865.446
-204.057 279.419 862.109
-203.533 279.473 859.898
-203.533 280.244 859.898
-203.273 280.655 858.797
-203.013 281.065 857.699
-202.754 281.474 856.603
-202.237 281.523 854.421
-201.723 281.572 852.25
-201.723 282.336 852.25
-201.467 282.741 851.168
-201.212 283.145 850.089
-199.693 281.764 843.673
-199.192 281.812 841.556
-198.942 282.212 840.502
-198.693 282.611 839.45
-198.693 283.364 839.45
-197.704 282.701 835.268
-197.213 282.746 833.193
-195.754 281.396 827.029
-195.512 281.79 826.01
-195.272 282.183 824.994
-195.032 282.575 823.981
-194.554 282.619 821.961
-194.316 283.009 820.955
-193.841 283.052 818.95
-193.605 283.441 817.952
-193.134 283.483 815.962
-192.665 283.524 813.981
-192.665 284.254 813.981
-191.966 283.95 811.028
-191.734 284.333 810.049
-191.503 284.716 809.072
-191.503 285.441 809.072
-191.272 285.822 808.097
-190.355 285.172 804.221
-189.446 284.528 800.382
-188.1 283.218 794.692
-187.877 283.595 793.752
-187.433 283.635 791.878
-186.992 283.675 790.012
-186.772 284.049 789.083
-186.552 284.422 788.156
-186.333 284.794 787.231
-186.333 285.5 787.231
-186.333 286.205 787.231
-185.897 286.239 785.387
-184.6 284.941 779.907
-184.386 285.309 779.002
-184.172 285.676 778.098
-183.958 286.041 777.196
-183.321 285.745 774.504
-182.899 285.779 772.719
-182.899 286.472 772.719
-181.851 285.52 768.294
-181.228 285.229 765.663
-181.022 285.589 764.79
-180.816 285.949 763.918
-180.61 286.308 763.049
-179.996 286.016 760.454
-179.792 286.373 759.593
-179.588 286.729 758.734
-179.588 287.409 758.734
-179.588 288.09 758.734
-178.981 287.793 756.167
-178.578 287.822 754.466
-178.177 287.851 752.773
-178.177 288.526 752.773
-178.177 289.201 752.773
-178.177 289.876 752.773
-177.978 290.225 751.929
-177.978 290.899 751.929
-176.986 289.948 747.737
-176.592 289.972 746.074
-176.396 290.318 745.245
-175.227 289.059 740.31
-174.842 289.085 738.679
-174.649 289.428 737.866
-174.457 289.771 737.055
-173.884 289.477 734.634
-173.694 289.819 733.83
-173.504 290.159 733.028
-173.504 290.816 733.028
-173.504 291.473 733.028
-214.012 277.076 907.605
-213.723 277.514 906.379
-213.147 277.577 903.936
-211.72 276.524 897.885
-211.437 276.958 896.685
-211.155 277.391 895.488
-210.033 276.716 890.731
-209.476 276.78 888.371
-209.199 277.209 887.196
-209.199 278.005 887.196
-208.923 278.432 886.024
-208.373 278.49 883.69
-207.552 278.183 880.211
-207.009 278.242 877.906
-206.468 278.3 875.614
-205.663 277.997 872.198
-205.396 278.417 871.065
-205.129 278.836 869.936
-204.864 279.253 868.809
-204.599 279.67 867.685
-204.599 280.448 867.685
-204.071 280.5 865.446
-203.284 280.191 862.109
-203.023 280.604 861.002
-202.762 281.015 859.898
-202.762 281.786 859.898
-202.503 282.195 858.797
-201.986 282.242 856.603
-200.959 281.572 852.25
-200.959 282.336 852.25
-200.704 282.741 851.168
-200.45 283.145 850.089
-198.937 281.764 843.673
-198.687 282.166 842.614
-198.438 282.566 841.556
-198.438 283.321 841.556
-198.438 284.075 841.556
-197.693 283.761 838.401
-196.71 283.098 834.229
-195.494 282.091 829.073
-195.012 282.137 827.029
-194.772 282.53 826.01
-194.772 283.271 826.01
-194.532 283.662 824.994
-194.293 284.052 823.981
-193.58 283.745 820.955
-192.872 283.441 817.952
-192.402 283.483 815.962
-192.402 284.214 815.962
-192.169 284.599 814.97
-191.471 284.294 812.01
-191.239 284.677 811.028
-191.008 285.06 810.049
-190.778 285.441 809.072
-190.548 285.822 808.097
-189.634 285.172 804.221
-188.954 284.868 801.339
-187.609 283.554 795.635
-187.165 283.595 793.752
-186.944 283.97 792.814
-186.284 283.675 790.012
-186.064 284.049 789.083
-185.846 284.422 788.156
-185.628 284.794 787.231
-185.41 285.165 786.308
-185.193 285.535 785.387
-184.76 285.57 783.552
-184.115 285.273 780.815
-183.901 285.641 779.907
-183.687 286.007 779.002
-183.262 286.041 777.196
-182.206 285.086 772.719
-181.787 285.122 770.943
-181.578 285.485 770.058
-181.162 285.52 768.294
-180.748 285.555 766.538
-180.542 285.915 765.663
-180.542 286.602 765.663
-180.336 286.961 764.79
-179.517 286.34 761.317
-179.111 286.373 759.593
-178.908 286.729 758.734
-178.706 287.085 757.876
-178.504 287.439 757.021
-177.702 286.823 753.618
-177.503 287.176 752.773
-177.503 287.851 752.773
-177.503 288.526 752.773
-177.503 289.201 752.773
-177.503 289.876 752.773
-177.304 290.225 751.929
-177.304 290.899 751.929
-176.709 290.596 749.408
-175.923 289.972 746.074
-175.727 290.318 745.245
-175.144 290.019 742.769
-174.179 289.085 738.679
-173.988 289.428 737.866
-173.606 289.453 736.246
-173.036 289.161 733.83
-173.036 289.819 733.83
-172.847 290.159 733.028
-172.847 290.816 733.028
-172.847 291.473 733.028
-213.487 278.266 908.835
-213.198 278.704 907.605
-211.765 277.639 901.506
-210.633 276.958 896.685
-210.352 277.391 895.488
-209.234 276.716 890.731
-208.68 276.78 888.371
-208.404 277.209 887.196
-208.129 277.637 886.024
-208.129 278.432 886.024
-207.307 278.124 882.527
-206.763 278.183 880.211
-206.492 278.607 879.057
-205.952 278.664 876.759
-205.683 279.086 875.614
-205.148 279.142 873.334
-204.349 278.836 869.936
-204.349 279.616 869.936
-204.085 280.032 868.809
-204.085 280.811 868.809
-204.085 281.59 868.809
-203.557 281.639 866.564
-203.033 281.689 864.33
-203.033 282.463 864.33
-203.033 283.238 864.33
-203.033 284.013 864.33
-201.733 282.965 858.797
-200.195 281.572 852.25
-200.195 282.336 852.25
-199.941 282.741 851.168
-199.687 283.145 850.089
-198.18 281.764 843.673
-197.931 282.166 842.614
-197.683 282.566 841.556
-197.683 283.321 841.556
-197.683 284.075 841.556
-197.188 284.117 839.45
-196.206 283.45 835.268
-195.233 282.79 831.128
-194.271 282.137 827.029
-194.271 282.879 827.029
-194.031 283.271 826.01
-193.793 283.662 824.994
-193.555 284.052 823.981
-193.08 284.093 821.961
-192.138 283.441 817.952
-191.904 283.828 816.955
-191.671 284.214 815.962
-191.671 284.946 815.962
-190.743 284.294 812.01
-190.512 284.677 811.028
-190.282 285.06 810.049
-190.052 285.441 809.072
-189.595 285.478 807.124
-188.687 284.83 803.258
-188.236 284.868 801.339
-186.896 283.554 795.635
-186.454 283.595 793.752
-186.013 283.635 791.878
-185.357 283.341 789.083
-185.139 283.715 788.156
-184.922 284.088 787.231
-184.705 284.46 786.308
-184.489 284.831 785.387
-184.489 285.535 785.387
-184.273 285.904 784.468
-183.415 285.273 780.815
-183.202 285.641 779.907
-183.202 286.34 779.907
-182.565 286.041 777.196
-181.722 285.415 773.611
-181.513 285.779 772.719
-181.513 286.472 772.719
-181.304 286.834 771.83
-180.888 286.866 770.058
-180.267 286.57 767.415
-180.061 286.929 766.538
-180.061 287.617 766.538
-179.65 287.646 764.79
-178.835 287.023 761.317
-178.228 286.729 758.734
-178.228 287.409 758.734
-178.026 287.764 757.876
-177.225 287.146 754.466
-176.828 287.176 752.773
-176.828 287.851 752.773
-176.828 288.526 752.773
-177.026 289.526 753.618
-176.828 289.876 752.773
-176.629 290.225 751.929
-176.629 290.899 751.929
-176.234 290.921 750.247
-175.645 290.618 747.737
-175.449 290.964 746.905
-174.865 290.663 744.418
-173.517 289.085 738.679
-173.326 289.428 737.866
-173.136 289.771 737.055
-172.567 289.477 734.634
-172.567 290.136 734.634
-172.378 290.476 733.83
-172.189 290.816 733.028
-172.189 291.473 733.028
-212.961 279.46 910.068
-210.391 276.895 899.089
-209.829 276.958 896.685
-209.549 277.391 895.488
-208.436 276.716 890.731
-207.883 276.78 888.371
-207.609 277.209 887.196
-207.334 277.637 886.024
-207.061 278.064 884.855
-206.516 278.124 882.527
-205.974 278.183 880.211
-205.704 278.607 879.057
-205.435 279.029 877.906
-204.898 279.086 875.614
-204.631 279.506 874.472
-203.834 279.198 871.065
-203.834 279.979 871.065
-203.569 280.395 869.936
-203.569 281.175 869.936
-203.306 281.59 868.809
-203.306 282.369 868.809
-202.78 282.416 866.564
-202.519 282.828 865.446
-202.258 283.238 864.33
-202.258 284.013 864.33
-200.963 282.965 858.797
-199.685 281.93 853.334
-199.685 282.695 853.334
-199.178 282.741 851.168
-198.172 282.072 846.869
-197.176 281.41 842.614
-196.929 281.812 841.556
-196.929 282.566 841.556
-196.682 282.966 840.502
-196.682 283.719 840.502
-196.19 283.761 838.401
-195.457 283.45 835.268
-194.488 282.79 831.128
-193.529 282.137 827.029
-193.529 282.879 827.029
-193.291 283.271 826.01
-193.291 284.011 826.01
-192.816 284.052 823.981
-192.579 284.442 822.97
-191.405 283.441 817.952
-191.172 283.828 816.955
-190.939 284.214 815.962
-190.707 284.599 814.97
-189.785 283.95 811.028
-189.556 284.333 810.049
-189.327 284.716 809.072
-189.099 285.097 808.097
-188.418 284.792 805.187
-187.967 284.83 803.258
-187.294 284.528 800.382
-185.962 283.218 794.692
-185.742 283.595 793.752
-185.523 283.97 792.814
-184.867 283.675 790.012
-184.649 284.049 789.083
-184.432 284.422 788.156
-184.216 284.794 787.231
-184.216 285.5 787.231
-184.216 286.205 787.231
-183.785 286.239 785.387
-182.715 285.273 780.815
-182.502 285.641 779.907
-182.502 286.34 779.907
-182.29 286.706 779.002
-182.079 287.071 778.098
-181.238 286.439 774.504
-180.82 286.472 772.719
-180.612 286.834 771.83
-180.405 287.196 770.943
-179.991 287.227 769.175
-179.785 287.587 768.294
-179.374 287.617 766.538
-179.169 287.975 765.663
-178.761 288.004 763.918
-177.749 287.054 759.593
-177.749 287.735 759.593
-177.548 288.09 758.734
-176.153 286.501 752.773
-175.955 286.854 751.929
-175.758 287.206 751.087
-175.955 288.202 751.929
-176.153 289.201 752.773
-175.955 289.551 751.929
-175.955 290.225 751.929
-175.955 290.899 751.929
-175.758 291.247 751.087
-175.562 291.594 750.247
-175.562 292.266 750.247
-174.391 290.986 745.245
-172.855 289.085 738.679
-172.665 289.428 737.866
-172.475 289.771 737.055
-172.097 289.795 735.439
-171.908 290.136 734.634
-171.72 290.476 733.83
-171.532 290.816 733.028
-171.345 291.155 732.228
-212.433 278.206 911.305
-211.571 277.89 907.605
-211 277.951 905.156
-209.585 276.895 899.089
-209.025 276.958 896.685
-208.746 277.391 895.488
-207.637 276.716 890.731
-207.087 276.78 888.371
-207.087 277.576 888.371
-206.813 278.005 887.196
-206.54 278.432 886.024
-206.267 278.858 884.855
-205.725 278.915 882.527
-205.185 278.972 880.211
-204.648 279.029 877.906
-204.113 279.086 875.614
-203.847 279.506 874.472
-203.053 279.198 871.065
-202.789 279.616 869.936
-202.789 280.395 869.936
-202.789 281.175 869.936
-202.527 281.59 868.809
-202.527 282.369 868.809
-202.265 282.782 867.685
-202.265 283.56 867.685
-202.003 283.97 866.564
-201.483 284.013 864.33
-200.193 282.965 858.797
-198.667 281.572 852.25
-198.415 281.978 851.168
-198.163 282.382 850.089
-196.668 281.008 843.673
-196.42 281.41 842.614
-196.174 281.812 841.556
-195.928 282.212 840.502
-195.928 282.966 840.502
-195.928 283.719 840.502
-195.438 283.761 838.401
-194.708 283.45 835.268
-193.503 282.44 830.1
-192.788 282.137 827.029
-192.55 282.53 826.01
-192.55 283.271 826.01
-192.313 283.662 824.994
-192.313 284.402 824.994
-191.841 284.442 822.97
-190.672 283.441 817.952
-190.439 283.828 816.955
-189.977 283.869 814.97
-189.516 283.91 812.994
-188.829 283.607 810.049
-188.602 283.99 809.072
-188.374 284.373 808.097
-187.922 284.412 806.154
-187.246 284.11 803.258
-187.022 284.49 802.297
-186.354 284.189 799.428
-185.469 283.554 795.635
-185.25 283.931 794.692
-185.03 284.306 793.752
-184.812 284.681 792.814
-184.594 285.055 791.878
-184.159 285.092 790.012
-183.726 285.128 788.156
-183.51 285.5 787.231
-183.51 286.205 787.231
-183.51 286.911 787.231
-182.653 286.273 783.552
-182.015 285.973 780.815
-182.015 286.673 780.815
-181.803 287.039 779.907
-181.381 287.071 778.098
-180.128 285.779 772.719
-180.128 286.472 772.719
-179.92 286.834 771.83
-179.713 287.196 770.943
-179.507 287.557 770.058
-179.096 287.587 768.294
-178.891 287.946 767.415
-178.483 287.975 765.663
-177.873 287.676 763.049
-177.068 287.054 759.593
-177.068 287.735 759.593
-176.667 287.764 757.876
-175.478 286.501 752.773
-175.281 286.854 751.929
-175.281 287.528 751.929
-175.281 288.202 751.929
-175.281 288.877 751.929
-175.281 289.551 751.929
-175.281 290.225 751.929
-175.281 290.899 751.929
-175.085 291.247 751.087
-174.889 291.594 750.247
-175.085 292.594 751.087
-173.723 290.986 745.245
-173.146 290.685 742.769
-172.382 290.066 739.493
-172.192 290.409 738.679
-171.814 290.432 737.055
-171.625 290.773 736.246
-171.437 291.113 735.439
-170.875 290.816 733.028
-170.689 291.155 732.228
-210.472 276.702 906.379
-209.905 276.766 903.936
-209.06 276.459 900.296
-208.5 276.524 897.885
-208.221 276.958 896.685
-207.943 277.391 895.488
-207.389 277.453 893.103
-206.564 277.147 889.55
-206.291 277.576 888.371
-206.291 278.373 888.371
-206.018 278.8 887.196
-206.018 279.595 887.196
-205.474 279.651 884.855
-204.395 278.972 880.211
-203.86 279.029 877.906
-203.063 278.722 874.472
-202.799 279.142 873.334
-202.272 279.198 871.065
-202.272 279.979 871.065
-202.01 280.395 869.936
-202.01 281.175 869.936
-202.01 281.955 869.936
-201.748 282.369 868.809
-201.487 282.782 867.685
-201.487 283.56 867.685
-201.487 284.338 867.685
-201.227 284.747 866.564
-199.679 283.328 859.898
-197.903 281.572 852.25
-197.651 281.978 851.168
-197.151 282.025 849.013
-195.911 281.008 843.673
-195.42 281.057 841.556
-195.42 281.812 841.556
-195.42 282.566 841.556
-195.175 282.966 840.502
-195.175 283.719 840.502
-194.93 284.117 839.45
-193.959 283.45 835.268
-193.477 283.493 833.193
-192.283 282.485 828.05
-192.046 282.879 827.029
-191.81 283.271 826.01
-191.81 284.011 826.01
-191.574 284.402 824.994
-191.338 284.791 823.981
-190.17 283.787 818.95
-189.707 283.828 816.955
-189.476 284.214 815.962
-189.016 284.254 813.981
-188.103 283.607 810.049
-187.876 283.99 809.072
-187.65 284.373 808.097
-187.199 284.412 806.154
-186.526 284.11 803.258
-186.303 284.49 802.297
-185.637 284.189 799.428
-184.975 283.891 796.58
-184.537 283.931 794.692
-184.537 284.643 794.692
-184.319 285.018 793.752
-184.319 285.73 793.752
-183.884 285.765 791.878
-183.235 285.464 789.083
-183.019 285.835 788.156
-183.019 286.542 788.156
-182.804 286.911 787.231
-181.95 286.273 783.552
-181.315 285.973 780.815
-181.104 286.34 779.907
-180.684 286.373 778.098
-179.435 285.086 772.719
-179.435 285.779 772.719
-179.228 286.142 771.83
-179.228 286.834 771.83
-178.817 286.866 770.058
-178.612 287.227 769.175
-178.407 287.587 768.294
-178.203 287.946 767.415
-177.796 287.975 765.663
-176.787 287.023 761.317
-176.387 287.054 759.593
-176.187 287.409 758.734
-175.591 287.115 756.167
-174.803 286.501 752.773
-174.607 286.854 751.929
-174.803 287.851 752.773
-174.607 288.202 751.929
-174.803 289.201 752.773
-174.803 289.876 752.773
-174.803 290.551 752.773
-174.803 291.226 752.773
-174.607 291.573 751.929
-174.607 292.247 751.929
-174.607 292.922 751.929
-172.863 291.331 744.418
-172.289 291.029 741.947
-171.719 290.729 739.493
-171.341 290.751 737.866
-171.153 291.092 737.055
-170.965 291.433 736.246
-170.218 290.816 733.028
-170.032 291.155 732.228
-209.943 276.262 907.605
-209.377 276.328 905.156
-208.813 276.394 902.719
-208.252 276.459 900.296
-207.695 276.524 897.885
-207.417 276.958 896.685
-207.14 277.391 895.488
-206.864 277.823 894.294
-206.04 277.515 890.731
-205.767 277.944 889.55
-205.494 278.373 888.371
-205.494 279.169 888.371
-204.951 279.226 886.024
-204.411 279.283 883.69
-203.606 278.972 880.211
-203.073 279.029 877.906
-202.543 279.086 875.614
-202.279 279.506 874.472
-201.491 279.198 871.065
-201.23 279.616 869.936
-201.23 280.395 869.936
-201.23 281.175 869.936
-201.23 281.955 869.936
-200.969 282.369 868.809
-200.969 283.148 868.809
-200.969 283.927 868.809
-200.709 284.338 867.685
-200.709 285.116 867.685
-198.908 283.328 859.898
-197.389 281.93 853.334
-196.888 281.978 851.168
-196.142 281.668 847.94
-194.91 280.655 842.614
-194.665 281.057 841.556
-194.421 281.458 840.502
-194.665 282.566 841.556
-194.421 282.966 840.502
-194.421 283.719 840.502
-194.421 284.473 840.502
-193.693 284.158 837.354
-192.97 283.846 834.229
-191.541 282.485 828.05
-191.069 282.53 826.01
-191.069 283.271 826.01
-191.069 284.011 826.01
-190.834 284.402 824.994
-190.834 285.141 824.994
-189.436 283.787 818.95
-188.974 283.828 816.955
-188.974 284.56 816.955
-188.515 284.599 814.97
-187.603 283.95 811.028
-187.151 283.99 809.072
-186.925 284.373 808.097
-186.252 284.071 805.187
-185.806 284.11 803.258
-185.362 284.15 801.339
-184.92 284.189 799.428
-184.261 283.891 796.58
-184.043 284.268 795.635
-183.825 284.643 794.692
-183.607 285.018 793.752
-183.607 285.73 793.752
-183.174 285.765 791.878
-182.527 285.464 789.083
-182.313 285.835 788.156
-182.313 286.542 788.156
-182.099 286.911 787.231
-180.825 285.606 781.725
-180.405 285.641 779.907
-180.195 286.007 779.002
-179.362 285.38 775.399
-178.948 285.415 773.611
-178.536 285.45 771.83
-178.536 286.142 771.83
-178.331 286.505 770.943
-177.922 286.537 769.175
-177.718 286.898 768.294
-177.515 287.258 767.415
-177.312 287.617 766.538
-176.908 287.646 764.79
-175.706 286.373 759.593
-175.507 286.729 758.734
-175.507 287.409 758.734
-175.308 287.764 757.876
-174.716 287.469 755.316
-174.324 287.499 753.618
-174.128 287.851 752.773
-174.324 288.85 753.618
-174.324 289.526 753.618
-174.324 290.201 753.618
-174.324 290.877 753.618
-173.933 290.899 751.929
-173.933 291.573 751.929
-173.738 291.92 751.087
-173.738 292.594 751.087
-173.35 292.612 749.408
-172.387 291.654 745.245
-172.195 291.998 744.418
-171.245 291.05 740.31
-170.868 291.071 738.679
-170.68 291.413 737.866
-170.492 291.753 737.055
-169.561 290.816 733.028
-169.376 291.155 732.228
-208.847 275.889 906.379
-208.565 276.328 905.156
-207.724 276.022 901.506
-207.167 276.088 899.089
-206.89 276.524 897.885
-206.613 276.958 896.685
-206.613 277.762 896.685
-206.062 277.823 894.294
-205.514 277.884 891.915
-204.969 277.944 889.55
-204.698 278.373 888.371
-204.427 278.8 887.196
-204.157 279.226 886.024
-203.351 278.915 882.527
-202.817 278.972 880.211
-202.286 279.029 877.906
-202.022 279.45 876.759
-201.758 279.871 875.614
-200.971 279.561 872.198
-200.71 279.979 871.065
-200.45 280.395 869.936
-200.45 281.175 869.936
-200.45 281.955 869.936
-200.19 282.369 868.809
-200.19 283.148 868.809
-200.19 283.927 868.809
-200.19 284.706 868.809
-200.19 285.485 868.809
-198.646 284.056 862.109
-198.137 284.099 859.898
-195.877 281.62 850.089
-194.398 280.251 843.673
-194.154 280.655 842.614
-193.667 280.705 840.502
-193.667 281.458 840.502
-193.667 282.212 840.502
-193.667 282.966 840.502
-193.667 283.719 840.502
-193.667 284.473 840.502
-192.942 284.158 837.354
-192.222 283.846 834.229
-191.745 283.887 832.159
-191.271 283.929 830.1
-191.271 284.673 830.1
-191.271 285.417 830.1
-190.328 284.752 826.01
-190.094 285.141 824.994
-188.702 283.787 818.95
-188.242 283.828 816.955
-187.785 283.869 814.97
-186.876 283.223 811.028
-186.651 283.607 810.049
-186.201 283.648 808.097
-185.53 283.349 805.187
-185.086 283.39 803.258
-184.864 283.77 802.297
-184.644 284.15 801.339
-184.203 284.189 799.428
-183.547 283.891 796.58
-183.329 284.268 795.635
-183.112 284.643 794.692
-183.112 285.356 794.692
-182.895 285.73 793.752
-182.464 285.765 791.878
-181.606 285.128 788.156
-181.393 285.5 787.231
-181.393 286.205 787.231
-180.968 286.239 785.387
-180.124 285.606 781.725
-179.705 285.641 779.907
-179.705 286.34 779.907
-178.667 285.38 775.399
-178.049 285.086 772.719
-177.64 285.122 770.943
-177.64 285.814 770.943
-177.436 286.176 770.058
-176.827 285.882 767.415
-176.625 286.242 766.538
-176.423 286.602 765.663
-176.423 287.288 765.663
-176.021 287.319 763.918
-175.422 287.023 761.317
-175.223 287.379 760.454
-175.025 287.735 759.593
-174.827 288.09 758.734
-174.432 288.118 757.021
-174.235 288.471 756.167
-174.039 288.824 755.316
-174.235 289.827 756.167
-174.235 290.505 756.167
-174.235 291.183 756.167
-174.235 291.861 756.167
-173.648 291.553 753.618
-173.453 291.901 752.773
-173.259 292.247 751.929
-173.259 292.922 751.929
-173.065 293.267 751.087
-172.485 292.956 748.572
-171.718 292.322 745.245
-170.77 291.372 741.128
-170.206 291.071 738.679
-170.018 291.413 737.866
-169.459 291.113 735.439
-168.535 290.182 731.429
-167.803 289.575 728.252
-208.316 276.262 907.605
-207.753 276.328 905.156
-207.194 276.394 902.719
-206.361 276.088 899.089
-206.085 276.524 897.885
-205.809 276.958 896.685
-205.809 277.762 896.685
-205.26 277.823 894.294
-204.714 277.884 891.915
-204.171 277.944 889.55
-203.901 278.373 888.371
-203.901 279.169 888.371
-203.631 279.595 887.196
-203.094 279.651 884.855
-202.293 279.339 881.367
-201.499 279.029 877.906
-200.973 279.086 875.614
-200.711 279.506 874.472
-199.929 279.198 871.065
-199.67 279.616 869.936
-199.67 280.395 869.936
-199.67 281.175 869.936
-199.411 281.59 868.809
-199.411 282.369 868.809
-199.153 282.782 867.685
-199.153 283.56 867.685
-199.153 284.338 867.685
-198.896 284.747 866.564
-197.366 283.328 859.898
-195.114 280.858 850.089
-194.13 280.2 845.801
-193.399 279.899 842.614
-193.156 280.302 841.556
-192.914 280.705 840.502
-192.914 281.458 840.502
-192.914 282.212 840.502
-193.156 283.321 841.556
-192.914 283.719 840.502
-192.914 284.473 840.502
-192.191 284.158 837.354
-191.713 284.199 835.268
-191.474 284.594 834.229
-191.236 284.987 833.193
-191.236 285.734 833.193
-191.236 286.481 833.193
-189.588 284.752 826.01
-189.355 285.141 824.994
-187.967 283.787 818.95
-187.51 283.828 816.955
-186.149 282.496 811.028
-185.924 282.881 810.049
-185.7 283.265 809.072
-185.253 283.307 807.124
-184.808 283.349 805.187
-184.366 283.39 803.258
-184.145 283.77 802.297
-183.925 284.15 801.339
-183.706 284.528 800.382
-183.05 284.228 797.527
-182.616 284.268 795.635
-182.616 284.981 795.635
-182.4 285.356 794.692
-182.184 285.73 793.752
-181.968 286.103 792.814
-181.112 285.464 789.083
-180.899 285.835 788.156
-180.687 286.205 787.231
-180.687 286.911 787.231
-180.053 286.608 784.468
-179.215 285.973 780.815
-179.006 286.34 779.907
-177.356 284.394 772.719
-176.745 284.105 770.058
-176.745 284.795 770.058
-176.543 285.158 769.175
-176.543 285.848 769.175
-176.139 285.882 767.415
-175.937 286.242 766.538
-175.937 286.929 766.538
-175.737 287.288 765.663
-175.536 287.646 764.79
-174.938 287.349 762.182
-174.739 287.705 761.317
-174.541 288.061 760.454
-174.146 288.09 758.734
-173.949 288.444 757.876
-173.557 288.471 756.167
-173.557 289.149 756.167
-173.557 289.827 756.167
-173.753 290.833 757.021
-173.753 291.512 757.021
-173.557 291.861 756.167
-173.167 291.881 754.466
-172.778 291.901 752.773
-172.584 292.247 751.929
-172.584 292.922 751.929
-172.391 293.267 751.087
-171.814 292.956 748.572
-171.05 292.322 745.245
-170.671 292.341 743.593
-169.543 291.071 738.679
-169.357 291.413 737.866
-168.246 290.159 733.028
-167.696 289.866 730.632
-167.15 289.575 728.252
-207.222 275.889 906.379
-206.942 276.328 905.156
-206.107 276.022 901.506
-205.555 276.088 899.089
-205.28 276.524 897.885
-205.005 276.958 896.685
-204.732 277.391 895.488
-204.459 277.823 894.294
-203.915 277.884 891.915
-203.374 277.944 889.55
-203.374 278.742 889.55
-203.105 279.169 888.371
-202.568 279.226 886.024
-202.034 279.283 883.69
-201.239 278.972 880.211
-200.712 279.029 877.906
-199.927 278.722 874.472
-199.667 279.142 873.334
-199.148 279.198 871.065
-198.89 279.616 869.936
-198.89 280.395 869.936
-198.89 281.175 869.936
-198.89 281.955 869.936
-198.632 282.369 868.809
-198.375 282.782 867.685
-198.375 283.56 867.685
-198.375 284.338 867.685
-198.119 284.747 866.564
-195.094 281.165 853.334
-194.106 280.503 849.013
-193.128 279.847 844.736
-192.885 280.251 843.673
-192.643 280.655 842.614
-192.16 280.705 840.502
-192.16 281.458 840.502
-192.401 282.566 841.556
-192.401 283.321 841.556
-192.401 284.075 841.556
-192.16 284.473 840.502
-191.92 284.869 839.45
-191.202 284.553 836.31
-190.964 284.948 835.268
-190.726 285.342 834.229
-190.964 286.446 835.268
-190.726 286.837 834.229
-189.782 286.162 830.1
-188.615 285.141 824.994
-187.005 283.441 817.952
-186.55 283.483 815.962
-185.646 282.838 812.01
-185.198 282.881 810.049
-184.975 283.265 809.072
-184.752 283.648 808.097
-184.308 283.689 806.154
-183.866 283.73 804.221
-183.645 284.11 803.258
-183.426 284.49 802.297
-182.988 284.528 800.382
-182.552 284.567 798.477
-182.119 284.605 796.58
-181.903 284.981 795.635
-181.687 285.356 794.692
-181.687 286.068 794.692
-181.472 286.441 793.752
-180.83 286.137 790.944
-180.405 286.171 789.083
-180.193 286.542 788.156
-179.981 286.911 787.231
-179.981 287.617 787.231
-178.723 286.306 781.725
-178.307 286.34 779.907
-177.072 285.05 774.504
-176.664 285.086 772.719
-176.46 285.45 771.83
-176.257 285.814 770.943
-176.055 286.176 770.058
-175.652 286.209 768.294
-175.25 286.242 766.538
-175.25 286.929 766.538
-175.25 287.617 766.538
-174.851 287.646 764.79
-174.453 287.676 763.049
-174.254 288.032 762.182
-174.057 288.388 761.317
-173.662 288.416 759.593
-173.27 288.444 757.876
-173.27 289.123 757.876
-173.074 289.475 757.021
-173.27 290.482 757.876
-173.27 291.162 757.876
-173.27 291.841 757.876
-173.27 292.521 757.876
-173.27 293.2 757.876
-173.074 293.548 757.021
-172.49 293.234 754.466
-172.297 293.58 753.618
-171.91 293.596 751.929
-171.718 293.94 751.087
-170.382 292.322 745.245
-169.067 290.729 739.493
-168.695 290.751 737.866
-168.325 290.773 736.246
-167.589 290.159 733.028
-167.041 289.866 730.632
-166.317 289.26 727.462
-206.688 276.262 907.605
-206.13 276.328 905.156
-205.576 276.394 902.719
-204.749 276.088 899.089
-204.475 276.524 897.885
-204.201 276.958 896.685
-203.929 277.391 895.488
-203.657 277.823 894.294
-202.845 277.515 890.731
-202.576 277.944 889.55
-202.308 278.373 888.371
-202.308 279.169 888.371
-202.04 279.595 887.196
-201.507 279.651 884.855
-200.713 279.339 881.367
-199.925 279.029 877.906
-199.403 279.086 875.614
-199.403 279.871 875.614
-198.884 279.925 873.334
-198.367 279.979 871.065
-198.367 280.76 871.065
-198.367 281.541 871.065
-198.11 281.955 869.936
-197.853 282.369 868.809
-197.597 282.782 867.685
-197.853 283.927 868.809
-197.597 284.338 867.685
-195.824 282.557 859.898
-194.082 280.808 852.25
-193.59 280.858 850.089
-192.614 280.2 845.801
-191.888 279.899 842.614
-191.647 280.302 841.556
-191.167 280.353 839.45
-191.167 281.106 839.45
-191.407 282.212 840.502
-191.647 283.321 841.556
-191.407 283.719 840.502
-191.167 284.117 839.45
-190.69 284.158 837.354
-190.452 284.553 836.31
-190.215 284.948 835.268
-190.215 285.697 835.268
-190.215 286.446 835.268
-190.215 287.195 835.268
-189.038 286.162 830.1
-187.644 284.791 823.981
-186.271 283.441 817.952
-186.271 284.174 817.952
-185.592 283.869 814.97
-184.695 283.223 811.028
-184.472 283.607 810.049
-184.249 283.99 809.072
-183.806 284.031 807.124
-183.364 284.071 805.187
-182.706 283.77 802.297
-182.488 284.15 801.339
-182.053 284.189 799.428
-181.62 284.228 797.527
-181.189 284.268 795.635
-181.189 284.981 795.635
-180.975 285.356 794.692
-180.975 286.068 794.692
-180.975 286.781 794.692
-180.547 286.814 792.814
-179.697 286.171 789.083
-179.486 286.542 788.156
-179.275 286.911 787.231
-178.855 286.943 785.387
-178.022 286.306 781.725
-177.814 286.673 780.815
-176.174 284.722 773.611
-175.566 284.431 770.943
-175.566 285.122 770.943
-175.365 285.485 770.058
-175.164 285.848 769.175
-174.763 285.882 767.415
-174.563 286.242 766.538
-174.563 286.929 766.538
-174.563 287.617 766.538
-174.364 287.975 765.663
-173.967 288.004 763.918
-173.571 288.032 762.182
-173.571 288.716 762.182
-173.178 288.743 760.454
-172.786 288.77 758.734
-172.591 289.123 757.876
-172.786 290.13 758.734
-172.786 290.811 758.734
-172.786 291.491 758.734
-172.786 292.171 758.734
-172.786 292.851 758.734
-172.786 293.532 758.734
-172.591 293.88 757.876
-171.814 293.234 754.466
-171.428 293.25 752.773
-171.044 293.267 751.087
-170.282 292.63 747.737
-169.526 291.998 744.418
-168.034 290.09 737.866
-167.481 289.795 735.439
-167.114 289.819 733.83
-166.75 289.842 732.228
-166.205 289.55 729.837
-165.664 289.26 727.462
-205.875 276.262 907.605
-205.319 276.328 905.156
-204.491 276.022 901.506
-203.67 275.719 897.885
-203.67 276.524 897.885
-203.397 276.958 896.685
-203.126 277.391 895.488
-202.855 277.823 894.294
-202.315 277.884 891.915
-201.779 277.944 889.55
-201.779 278.742 889.55
-201.512 279.169 888.371
-201.245 279.595 887.196
-200.979 280.02 886.024
-200.45 280.075 883.69
-199.399 279.395 879.057
-198.877 279.45 876.759
-198.877 280.236 876.759
-198.618 280.656 875.614
-197.843 280.343 872.198
-197.586 280.76 871.065
-197.586 281.541 871.065
-197.33 281.955 869.936
-197.074 282.369 868.809
-196.819 282.782 867.685
-196.819 283.56 867.685
-195.806 282.874 863.218
-194.803 282.195 858.797
-193.564 281.165 853.334
-192.828 280.858 850.089
-191.373 279.495 843.673
-191.132 279.899 842.614
-190.653 279.951 840.502
-190.177 280.003 838.401
-190.177 280.755 838.401
-190.177 281.506 838.401
-190.415 282.611 839.45
-190.415 283.364 839.45
-189.939 283.407 837.354
-189.702 283.804 836.31
-189.466 284.199 835.268
-189.466 284.948 835.268
-189.466 285.697 835.268
-189.466 286.446 835.268
-189.23 286.837 834.229
-188.294 286.162 830.1
-187.136 285.141 824.994
-185.765 283.787 818.95
-185.538 284.174 817.952
-185.087 284.214 815.962
-183.968 283.223 811.028
-183.745 283.607 810.049
-183.524 283.99 809.072
-183.303 284.373 808.097
-182.643 284.071 805.187
-181.987 283.77 802.297
-181.77 284.15 801.339
-181.336 284.189 799.428
-180.905 284.228 797.527
-180.476 284.268 795.635
-180.476 284.981 795.635
-180.262 285.356 794.692
-180.262 286.068 794.692
-180.262 286.781 794.692
-179.836 286.814 792.814
-178.99 286.171 789.083
-178.99 286.879 789.083
-178.779 287.248 788.156
-178.151 286.943 785.387
-177.114 285.973 780.815
-176.703 286.007 779.002
-175.48 284.722 773.611
-175.076 284.758 771.83
-175.076 285.45 771.83
-175.076 286.142 771.83
-174.875 286.505 770.943
-174.274 286.209 768.294
-174.075 286.57 767.415
-174.075 287.258 767.415
-173.876 287.617 766.538
-173.677 287.975 765.663
-173.479 288.332 764.79
-173.282 288.689 763.918
-173.282 289.373 763.918
-172.888 289.399 762.182
-172.3 289.097 759.593
-172.105 289.45 758.734
-171.911 289.803 757.876
-171.911 290.482 757.876
-171.911 291.162 757.876
-171.911 291.841 757.876
-171.911 292.521 757.876
-171.717 292.869 757.021
-171.138 292.557 754.466
-170.753 292.575 752.773
-170.562 292.922 751.929
-170.371 293.267 751.087
-169.611 292.63 747.737
-168.484 291.351 742.769
-167.372 290.09 737.866
-166.822 289.795 735.439
-166.457 289.819 733.83
-166.093 289.842 732.228
-165.731 289.866 730.632
-165.191 289.575 728.252
-205.617 276.196 910.068
-204.784 275.889 906.379
-204.232 275.956 903.936
-203.137 275.282 899.089
-202.865 275.719 897.885
-202.865 276.524 897.885
-202.593 276.958 896.685
-202.323 277.391 895.488
-202.053 277.823 894.294
-201.784 278.254 893.103
-201.248 278.314 890.731
-201.248 279.112 890.731
-200.715 279.169 888.371
-200.45 279.595 887.196
-200.185 280.02 886.024
-199.921 280.444 884.855
-198.611 279.395 879.057
-198.091 279.45 876.759
-198.091 280.236 876.759
-197.575 280.29 874.472
-196.805 279.979 871.065
-196.55 280.395 869.936
-196.55 281.175 869.936
-196.295 281.59 868.809
-196.041 282.004 867.685
-195.788 282.416 866.564
-195.283 282.463 864.33
-194.531 282.148 861.002
-194.033 282.195 858.797
-193.538 282.242 856.603
-192.066 280.858 850.089
-190.616 279.495 843.673
-190.377 279.899 842.614
-190.138 280.302 841.556
-189.425 280.003 838.401
-189.425 280.755 838.401
-189.425 281.506 838.401
-189.662 282.611 839.45
-189.425 283.01 838.401
-189.188 283.407 837.354
-188.952 283.804 836.31
-188.717 284.199 835.268
-188.717 284.948 835.268
-188.717 285.697 835.268
-188.717 286.446 835.268
-188.482 286.837 834.229
-186.856 285.103 827.029
-186.625 285.493 826.01
-185.939 285.18 822.97
-185.03 284.521 818.95
-184.58 284.56 816.955
-183.462 283.566 812.01
-183.241 283.95 811.028
-182.798 283.99 809.072
-182.358 284.031 807.124
-181.703 283.73 804.221
-181.268 283.77 802.297
-181.051 284.15 801.339
-180.62 284.189 799.428
-180.19 284.228 797.527
-179.763 284.268 795.635
-179.763 284.981 795.635
-179.55 285.356 794.692
-179.55 286.068 794.692
-179.337 286.441 793.752
-179.125 286.814 792.814
-178.282 286.171 789.083
-178.073 286.542 788.156
-177.864 286.911 787.231
-177.033 286.273 783.552
-176.414 285.973 780.815
-176.005 286.007 779.002
-175.191 285.38 775.399
-174.585 285.086 772.719
-174.786 286.109 773.611
-174.585 286.472 772.719
-174.384 286.834 771.83
-173.984 286.866 770.058
-173.387 286.57 767.415
-173.387 287.258 767.415
-173.188 287.617 766.538
-172.991 287.975 765.663
-172.794 288.332 764.79
-172.597 288.689 763.918
-172.597 289.373 763.918
-172.204 289.399 762.182
-171.619 289.097 759.593
-171.425 289.45 758.734
-171.232 289.803 757.876
-171.232 290.482 757.876
-171.232 291.162 757.876
-171.232 291.841 757.876
-171.038 292.19 757.021
-170.845 292.539 756.167
-170.078 291.901 752.773
-169.888 292.247 751.929
-169.888 292.922 751.929
-169.698 293.267 751.087
-168.565 291.979 746.074
-167.818 291.351 742.769
-166.894 290.409 738.679
-166.527 290.432 737.055
-166.162 290.454 735.439
-165.617 290.159 733.028
-165.076 289.866 730.632
-164.36 289.26 727.462
-204.524 275.822 908.835
-203.971 275.889 906.379
-203.421 275.956 903.936
-202.602 275.652 900.296
-202.06 275.719 897.885
-202.06 276.524 897.885
-201.79 276.958 896.685
-201.52 277.391 895.488
-201.52 278.194 895.488
-200.983 278.254 893.103
-200.716 278.684 891.915
-200.45 279.112 890.731
-199.919 279.169 888.371
-199.919 279.966 888.371
-199.654 280.391 887.196
-199.127 280.444 884.855
-197.822 279.395 879.057
-197.305 279.45 876.759
-197.048 279.871 875.614
-196.535 279.925 873.334
-195.77 279.616 869.936
-195.516 280.032 868.809
-195.516 280.811 868.809
-195.516 281.59 868.809
-195.011 281.639 866.564
-194.508 281.689 864.33
-194.008 281.737 862.109
-193.759 282.148 861.002
-193.263 282.195 858.797
-193.263 282.965 858.797
-191.546 281.215 851.168
-189.621 279.144 842.614
-189.383 279.548 841.556
-189.146 279.951 840.502
-188.673 280.003 838.401
-188.438 280.404 837.354
-188.909 281.859 839.45
-189.146 282.966 840.502
-188.909 283.364 839.45
-188.438 283.407 837.354
-188.203 283.804 836.31
-188.203 284.553 836.31
-188.203 285.303 836.31
-187.968 285.697 835.268
-187.968 286.446 835.268
-187.735 286.837 834.229
-187.501 287.228 833.193
-186.114 285.845 827.029
-185.656 285.881 824.994
-184.296 284.521 818.95
-183.624 284.214 815.962
-182.513 283.223 811.028
-182.293 283.607 810.049
-182.073 283.99 809.072
-181.635 284.031 807.124
-180.981 283.73 804.221
-180.549 283.77 802.297
-180.333 284.15 801.339
-179.903 284.189 799.428
-179.262 283.891 796.58
-179.049 284.268 795.635
-178.837 284.643 794.692
-178.837 285.356 794.692
-178.626 285.73 793.752
-178.414 286.103 792.814
-177.575 285.464 789.083
-177.366 285.835 788.156
-177.158 286.205 787.231
-176.743 286.239 785.387
-176.124 285.939 782.638
-175.714 285.973 780.815
-175.714 286.673 780.815
-175.103 286.373 778.098
-174.093 285.415 773.611
-174.294 286.439 774.504
-173.892 286.472 772.719
-173.692 286.834 771.83
-173.095 286.537 769.175
-172.699 286.57 767.415
-172.699 287.258 767.415
-172.699 287.946 767.415
-172.304 287.975 765.663
-172.108 288.332 764.79
-172.108 289.018 764.79
-171.912 289.373 763.918
-171.521 289.399 762.182
-170.938 289.097 759.593
-170.745 289.45 758.734
-170.552 289.803 757.876
-170.552 290.482 757.876
-170.552 291.162 757.876
-170.552 291.841 757.876
-170.552 292.521 757.876
-170.167 292.539 756.167
-169.594 292.229 753.618
-169.214 292.247 751.929
-169.214 292.922 751.929
-169.214 293.596 751.929
-167.896 291.979 746.074
-167.338 291.674 743.593
-166.232 290.409 738.679
-164.96 288.845 733.028
-164.78 289.186 732.228
-164.78 289.842 732.228
-163.885 288.922 728.252
-163.53 288.947 726.674
-203.433 276.262 907.605
-202.611 275.956 903.936
-201.795 275.652 900.296
-201.255 275.719 897.885
-201.255 276.524 897.885
-200.986 276.958 896.685
-200.986 277.762 896.685
-200.717 278.194 895.488
-200.45 278.625 894.294
-200.183 279.055 893.103
-199.651 279.112 890.731
-199.122 279.169 888.371
-199.122 279.966 888.371
-198.596 280.02 886.024
-198.073 280.075 883.69
-197.034 279.395 879.057
-196.519 279.45 876.759
-196.007 279.506 874.472
-195.243 279.198 871.065
-194.99 279.616 869.936
-194.99 280.395 869.936
-194.737 280.811 868.809
-194.485 281.226 867.685
-194.485 282.004 867.685
-194.234 282.416 866.564
-193.484 282.1 863.218
-192.987 282.148 861.002
-192.74 282.557 859.898
-192.493 282.965 858.797
-190.541 280.858 850.089
-188.866 279.144 842.614
-188.629 279.548 841.556
-188.629 280.302 841.556
-187.922 280.003 838.401
-187.687 280.404 837.354
-188.157 281.859 839.45
-188.157 282.611 839.45
-187.922 283.01 838.401
-187.687 283.407 837.354
-187.453 283.804 836.31
-187.453 284.553 836.31
-187.453 285.303 836.31
-187.219 285.697 835.268
-187.219 286.446 835.268
-187.219 287.195 835.268
-186.987 287.585 834.229
-186.061 286.906 830.1
-185.144 286.233 826.01
-183.562 284.521 818.95
-182.892 284.214 815.962
-181.786 283.223 811.028
-181.567 283.607 810.049
-181.348 283.99 809.072
-180.911 284.031 807.124
-180.045 283.39 803.258
-179.829 283.77 802.297
-179.614 284.15 801.339
-179.4 284.528 800.382
-178.548 283.891 796.58
-178.336 284.268 795.635
-178.336 284.981 795.635
-178.125 285.356 794.692
-177.914 285.73 793.752
-177.704 286.103 792.814
-176.867 285.464 789.083
-176.659 285.835 788.156
-176.452 286.205 787.231
-176.039 286.239 785.387
-175.423 285.939 782.638
-175.218 286.306 781.725
-175.014 286.673 780.815
-174.001 285.71 776.297
-173.6 285.745 774.504
-174.001 287.102 776.297
-173.2 286.472 772.719
-173 286.834 771.83
-172.208 286.209 768.294
-172.011 286.57 767.415
-171.814 286.929 766.538
-171.814 287.617 766.538
-171.618 287.975 765.663
-171.422 288.332 764.79
-171.422 289.018 764.79
-171.422 289.703 764.79
-171.032 289.728 763.049
