ply
format ascii 1.0
element vertex 1975
property float x
property float y
property float z
end_header
44.3042 93.7413 602.624
44.2645 94.1969 602.083
44.2248 94.6518 601.543
44.1851 95.1058 601.004
44.0273 95.3031 598.858
43.9097 95.5839 597.258
43.8706 96.0339 596.726
43.8706 96.5689 596.726
43.8316 97.0176 596.196
43.8316 97.5521 596.196
43.8706 98.1739 596.726
43.8706 98.709 596.726
43.8316 99.1557 596.196
43.8316 99.6903 596.196
43.7151 99.9582 594.61
43.6377 100.314 593.558
43.6377 100.846 593.558
43.7151 101.558 594.61
43.7539 102.181 595.138
43.6377 102.442 593.558
43.6377 102.974 593.558
43.6377 103.507 593.558
43.6377 104.039 593.558
43.6377 104.571 593.558
43.6377 105.103 593.558
43.6377 105.635 593.558
43.6377 106.167 593.558
43.6377 106.7 593.558
43.5991 107.137 593.033
43.5606 107.573 592.509
43.7151 108.488 594.61
43.7151 109.021 594.61
43.7151 109.554 594.61
43.7151 110.087 594.61
43.7151 110.62 594.61
43.7151 111.154 594.61
43.7151 111.687 594.61
43.7151 112.22 594.61
43.5222 112.255 591.986
43.4838 112.687 591.464
43.4072 113.018 590.423
43.2549 113.149 588.351
43.2549 113.676 588.351
43.217 114.103 587.836
43.217 114.63 587.836
43.217 115.158 587.836
43.2549 115.786 588.351
43.5606 117.136 592.509
43.5606 117.667 592.509
43.217 117.266 587.836
43.1037 117.484 586.294
42.9535 117.598 584.251
43.1037 118.535 586.294
43.1037 119.586 586.294
43.1037 120.112 586.294
43.2549 121.061 588.351
43.1037 121.163 586.294
42.8043 120.844 582.223
42.8043 121.366 582.223
42.8043 121.888 582.223
42.8788 122.623 583.235
42.9535 123.36 584.251
42.8043 123.454 582.223
42.6932 123.654 580.71
42.5091 124.158 578.207
42.3995 124.872 576.716
42.0739 124.426 572.287
42.038 124.832 571.799
42.0022 125.238 571.312
42.0022 125.751 571.312
42.0022 126.263 571.312
42.0739 126.991 572.287
42.0739 127.504 572.287
42.3631 132.514 576.22
42.2904 132.802 575.232
42.218 133.09 574.247
42.1098 133.262 572.776
42.1098 133.776 572.776
42.1098 134.289 572.776
42.1819 135.033 573.756
42.2904 135.897 575.232
42.2904 136.412 575.232
42.2542 136.811 574.739
42.1819 137.091 573.756
42.1098 137.37 572.776
42.1098 137.884 572.776
42.1098 138.398 572.776
42.1098 138.911 572.776
42.1458 139.544 573.265
42.1098 139.938 572.776
42.1098 140.452 572.776
42.0739 140.845 572.287
42.038 141.238 571.799
42.0739 141.871 572.287
42.0739 142.384 572.287
42.1098 143.019 572.776
42.2904 144.664 575.232
42.2904 145.18 575.232
42.2904 145.696 575.232
42.2904 146.211 575.232
42.3267 146.853 575.726
42.3631 147.496 576.22
42.3631 148.012 576.22
42.3995 148.657 576.716
42.3631 149.046 576.22
42.3631 149.562 576.22
42.3267 149.95 575.726
42.3631 150.596 576.22
42.3267 150.982 575.726
42.3267 151.499 575.726
42.3267 152.015 575.726
42.2904 152.4 575.232
42.1458 152.393 573.265
42.1098 152.776 572.776
42.1098 153.29 572.776
42.1098 153.804 572.776
42.0739 154.185 572.287
42.1098 154.831 572.776
42.0739 155.212 572.287
42.0739 155.725 572.287
42.0739 156.238 572.287
42.038 156.617 571.799
42.038 157.13 571.799
42.038 157.643 571.799
42.038 158.155 571.799
42.038 158.668 571.799
42.0739 159.316 572.287
42.0739 159.829 572.287
42.038 160.206 571.799
42.0022 160.582 571.312
41.9665 160.957 570.826
41.9665 161.469 570.826
42.0739 162.395 572.287
42.1458 163.187 573.265
42.1098 163.561 572.776
42.1098 164.074 572.776
42.1458 164.728 573.265
42.1458 165.242 573.265
42.1458 165.756 573.265
42.1819 166.413 573.756
42.218 167.07 574.247
42.1819 167.441 573.756
42.1458 167.812 573.265
42.0739 168.039 572.287
42.038 168.408 571.799
42.0739 169.065 572.287
42.0739 169.578 572.287
42.0739 170.091 572.287
42.0022 170.314 571.312
41.9308 170.536 570.34
42.0739 171.631 572.287
41.9308 171.558 570.34
41.9308 172.07 570.34
42.2904 176.64 575.232
42.2904 177.156 575.232
42.2904 180.766 575.232
42.2542 181.126 574.739
42.2542 181.641 574.739
42.2904 182.313 575.232
42.2904 182.829 575.232
42.2542 183.187 574.739
42.2542 183.703 574.739
42.1458 187.343 573.265
44.3441 221.45 603.166
44.3441 221.991 603.166
44.2248 221.933 601.543
44.1061 221.875 599.929
44.0273 222.016 598.858
44.5042 227.134 605.343
44.5444 227.882 605.89
44.5444 228.426 605.89
44.5444 228.969 605.89
44.5444 229.512 605.89
44.5042 229.848 605.343
43.4773 -177.838 584.251
43.5532 -177.099 585.271
43.6293 -176.883 586.294
43.7057 -176.666 587.321
43.6293 -175.831 586.294
43.6293 -175.306 586.294
43.5532 -174.475 585.271
43.6293 -174.254 586.294
43.6293 -173.729 586.294
43.6675 -173.355 586.807
43.6293 -172.678 586.294
43.6293 -172.152 586.294
43.6293 -171.626 586.294
42.5144 -154.435 571.312
42.4421 -153.661 570.34
42.3701 -152.89 569.372
42.3701 -152.379 569.372
42.3341 -151.74 568.889
42.3341 -151.23 568.889
42.3341 -150.72 568.889
42.3701 -150.337 569.372
42.3701 -149.827 569.372
42.3341 -149.19 568.889
42.3341 -148.68 568.889
42.3341 -148.17 568.889
42.3701 -147.785 569.372
42.3701 -147.274 569.372
42.3701 -146.764 569.372
42.3701 -146.253 569.372
42.3701 -145.743 569.372
42.3341 -145.109 568.889
42.3341 -144.599 568.889
42.2983 -143.967 568.407
42.2624 -143.336 567.926
42.1554 -142.465 566.487
42.0488 -141.598 565.055
42.0488 -141.092 565.055
42.0134 -140.467 564.579
42.0134 -139.96 564.579
41.9781 -139.337 564.105
41.9781 -138.831 564.105
41.9428 -138.209 563.631
41.9428 -137.704 563.631
41.9076 -137.083 563.157
41.8724 -136.464 562.685
41.9076 -136.073 563.157
41.9076 -135.569 563.157
41.9781 -135.291 564.105
41.9781 -134.785 564.105
41.9781 -134.279 564.105
41.9781 -133.774 564.105
41.9781 -133.268 564.105
41.9781 -132.762 564.105
42.0134 -132.368 564.579
42.0488 -131.973 565.055
42.1554 -131.799 566.487
42.1198 -131.18 566.009
42.0843 -130.563 565.532
42.0843 -130.056 565.532
42.0488 -129.439 565.055
42.0843 -129.042 565.532
42.0843 -128.535 565.532
42.0843 -128.027 565.532
42.0488 -127.413 565.055
42.0488 -126.906 565.055
42.0134 -126.293 564.579
42.0134 -125.787 564.579
42.0134 -125.281 564.579
41.9781 -124.67 564.105
41.9781 -124.164 564.105
41.9781 -123.658 564.105
41.9428 -123.049 563.631
41.9428 -122.544 563.631
41.9781 -122.141 564.105
42.0134 -121.738 564.579
42.0488 -121.334 565.055
42.0488 -120.827 565.055
42.0134 -120.219 564.579
41.9781 -119.612 564.105
42.0134 -119.207 564.579
42.0134 -118.701 564.579
42.0134 -118.194 564.579
42.0488 -117.787 565.055
42.0134 -117.182 564.579
42.0134 -116.676 564.579
42.0134 -116.17 564.579
41.9781 -115.566 564.105
41.9781 -115.06 564.105
42.0134 -114.651 564.579
42.0488 -114.241 565.055
42.1198 -113.926 566.009
42.1198 -113.419 566.009
42.0843 -112.816 565.532
42.191 -112.594 566.966
42.2624 -112.276 567.926
42.3341 -111.956 568.889
42.2983 -111.351 568.407
42.2624 -110.748 567.926
42.2267 -110.146 567.445
42.0843 -109.267 565.532
42.1198 -108.852 566.009
42.1198 -108.344 566.009
42.1198 -107.837 566.009
42.1198 -107.329 566.009
42.1198 -106.822 566.009
42.0843 -106.225 565.532
42.0488 -105.629 565.055
42.0488 -105.122 565.055
42.0488 -104.615 565.055
42.0843 -104.197 565.532
42.0843 -103.69 565.532
42.0488 -103.096 565.055
42.0488 -102.589 565.055
42.0488 -102.082 565.055
42.2983 -102.178 568.407
42.2983 -101.669 568.407
42.2624 -101.073 567.926
42.2983 -100.649 568.407
42.3341 -100.225 568.889
42.2983 -99.6303 568.407
42.2983 -99.1206 568.407
42.2983 -98.611 568.407
42.2983 -98.1014 568.407
42.2983 -97.5918 568.407
42.2983 -97.0822 568.407
42.2983 -96.5725 568.407
42.2983 -96.0629 568.407
42.2983 -95.5533 568.407
42.3341 -95.1243 568.889
42.3701 -94.6946 569.372
42.3701 -94.1841 569.372
42.4061 -93.7532 569.856
42.4421 -93.3216 570.34
42.4421 -92.8102 570.34
42.4421 -92.2989 570.34
42.4421 -91.7875 570.34
42.4421 -91.2762 570.34
42.4783 -90.8421 570.826
42.4783 -90.3303 570.826
42.3701 -89.5897 569.372
42.3701 -89.0793 569.372
42.3701 -88.5688 569.372
42.3701 -88.0583 569.372
42.5507 -87.921 571.799
42.6234 -87.5576 572.776
42.6234 -87.0441 572.776
42.6234 -86.5306 572.776
42.587 -85.9436 572.287
42.587 -85.4305 572.287
42.587 -84.9174 572.287
42.587 -84.4043 572.287
42.6234 -83.9629 572.776
42.6234 -83.4493 572.776
42.6234 -82.9358 572.776
42.587 -82.352 572.287
42.4783 -81.6299 570.826
42.4421 -81.0491 570.34
42.6234 -80.8817 572.776
42.7695 -80.6436 574.739
42.8429 -80.2659 575.726
42.9166 -79.8868 576.716
42.9535 -79.4381 577.212
42.9166 -78.8527 576.716
42.9166 -78.3356 576.716
42.8797 -77.7517 576.22
42.8797 -77.2351 576.22
42.9166 -76.7844 576.716
42.9166 -76.2674 576.716
42.9166 -75.7503 576.716
42.9166 -75.2332 576.716
42.9166 -74.7162 576.716
42.9166 -74.1991 576.716
42.8797 -73.6187 576.22
42.9535 -73.2279 577.212
42.9905 -72.773 577.709
43.0275 -72.3174 578.207
43.0275 -71.799 578.207
43.0647 -71.3421 578.706
43.1019 -70.8844 579.206
43.1391 -70.4259 579.706
43.1391 -69.9062 579.706
43.1391 -69.3864 579.706
43.1391 -68.8667 579.706
43.1391 -68.3469 579.706
43.1764 -67.8858 580.208
43.4017 -67.7171 583.235
43.6293 -67.5466 586.294
43.6293 -67.021 586.294
43.744 -66.6701 587.836
43.7824 -66.2011 588.351
43.9366 -65.9049 590.423
44.0529 -65.5486 591.986
44.0918 -65.0753 592.509
44.0918 -64.5441 592.509
44.1308 -64.0694 593.033
44.1308 -63.5377 593.033
44.0918 -62.9504 592.509
44.1308 -62.4743 593.033
44.1308 -61.9426 593.033
44.3268 -61.6837 595.666
44.3662 -61.2039 596.196
44.3662 -60.6694 596.196
44.4057 -60.1884 596.726
44.3662 -59.6003 596.196
44.4057 -59.1184 596.726
44.4848 -58.6878 597.79
44.5642 -58.2557 598.858
44.644 -57.822 599.929
44.5642 -57.1818 598.858
44.5642 -56.6449 598.858
44.4848 -56.008 597.79
44.4848 -55.472 597.79
44.4452 -54.8871 597.258
44.4848 -54.4001 597.79
44.5642 -53.9603 598.858
44.5642 -53.4234 598.858
44.644 -52.9811 599.929
44.644 -52.4432 599.929
44.6839 -51.9518 600.466
44.724 -51.4595 601.004
44.8043 -51.0121 602.083
44.9657 -50.6542 604.253
45.0063 -50.1576 604.797
45.0063 -49.6153 604.797
45.0063 -49.0731 604.797
45.0063 -48.5309 604.797
45.0063 -47.9886 604.797
45.0469 -47.4892 605.343
45.1283 -47.0313 606.438
45.2101 -46.5719 607.537
45.3745 -46.1945 609.746
54.728 -43.8484 735.439
54.5486 -43.0474 733.028
54.489 -42.3439 732.228
54.489 -41.6874 732.228
54.489 -41.0309 732.228
54.5486 -40.4185 733.028
54.5486 -39.7613 733.028
54.6083 -39.1469 733.83
54.6681 -38.5311 734.634
54.6681 -37.8725 734.634
54.7881 -37.2955 736.246
54.8483 -36.6757 737.055
54.9691 -36.0942 738.679
55.2735 -35.6281 742.769
55.4577 -35.0787 745.245
55.5812 -34.4872 746.905
55.8924 -34.0068 751.087
55.9551 -33.3708 751.929
56.0179 -32.7334 752.773
56.0808 -32.0945 753.618
56.0179 -31.3835 752.773
55.8924 -30.6398 751.087
55.9551 -30 751.929
55.9551 -29.3259 751.929
55.7053 -28.5238 748.572
55.4577 -27.7289 745.245
55.3962 -27.0307 744.418
52.1546 -23.5638 700.857
52.1002 -22.9115 700.126
52.1002 -22.2838 700.126
52.0458 -21.6335 699.396
51.9375 -20.9627 697.94
51.8835 -20.3158 697.215
51.8297 -19.6703 696.491
51.7759 -19.0261 695.768
51.7222 -18.3832 695.047
51.7222 -17.76 695.047
51.6687 -17.1191 694.328
51.6153 -16.4796 693.609
51.4556 -15.8087 691.464
51.4026 -15.1731 690.752
51.3497 -14.5388 690.042
51.297 -13.9058 689.332
51.2443 -13.2741 688.625
51.1917 -12.6437 687.918
46.0442 78.4971 618.746
46.2148 79.3447 621.037
46.1293 79.7537 619.889
46.0868 80.2354 619.317
46.0868 80.7906 619.317
46.0442 81.2709 618.746
45.9594 81.6749 617.606
45.7069 81.7768 614.213
45.6234 82.177 613.09
45.4158 82.3503 610.301
45.4572 82.973 610.857
45.4572 83.5207 610.857
45.4986 84.145 611.413
45.4572 84.616 610.857
45.4572 85.1637 610.857
45.4158 85.6334 610.301
45.4158 86.1806 610.301
45.4158 86.7277 610.301
45.4572 87.3544 610.857
45.4572 87.9021 610.857
45.4158 88.3693 610.301
45.4158 88.9165 610.301
45.3333 89.3011 609.192
45.1692 89.5221 606.987
45.0469 89.8224 605.343
45.0469 90.3651 605.343
45.0469 90.9079 605.343
45.0469 91.4506 605.343
45.0469 91.9933 605.343
45.0063 92.4526 604.797
45.0063 92.9949 604.797
44.8849 93.2848 603.166
44.8445 93.7413 602.624
44.8043 94.1969 602.083
44.5245 95.218 598.323
44.4452 95.5839 597.258
44.4057 96.0339 596.726
44.4057 96.5689 596.726
44.3662 97.0176 596.196
44.3662 97.5521 596.196
44.3662 98.0867 596.196
44.4057 98.709 596.726
44.3662 99.1557 596.196
44.3662 99.6903 596.196
44.2874 100.047 595.138
44.1308 100.225 593.033
44.1308 100.757 593.033
44.1699 101.378 593.558
44.209 102 594.084
44.1308 102.352 593.033
44.1308 102.883 593.033
44.1308 103.415 593.033
44.1308 103.947 593.033
44.1308 104.478 593.033
44.1308 105.01 593.033
44.1308 105.542 593.033
44.1308 106.073 593.033
44.1308 106.605 593.033
44.1308 107.137 593.033
44.2482 107.955 594.61
44.2482 108.488 594.61
44.2874 109.118 595.138
44.2482 109.554 594.61
44.2482 110.087 594.61
44.2482 110.62 594.61
44.2482 111.154 594.61
44.2482 111.687 594.61
44.2482 112.22 594.61
44.2482 112.753 594.61
44.0529 112.786 591.986
43.9366 113.018 590.423
43.7824 113.149 588.351
43.7824 113.676 588.351
43.744 114.103 587.836
43.744 114.63 587.836
43.744 115.158 587.836
43.7824 115.786 588.351
43.9366 116.723 590.423
43.9366 117.252 590.423
43.6675 117.06 586.807
43.5532 117.279 585.271
43.4395 117.496 583.743
43.4017 117.917 583.235
43.3264 118.756 582.223
43.3264 119.278 582.223
43.6293 120.638 586.294
43.3264 120.322 582.223
43.3264 120.844 582.223
43.3264 121.366 582.223
43.3264 121.888 582.223
43.3264 122.41 582.223
43.4773 123.36 584.251
43.3264 123.454 582.223
43.2138 123.654 580.71
42.8061 124.55 575.232
42.7328 124.852 574.247
42.6234 125.046 572.776
42.1554 124.181 566.487
42.1554 124.688 566.487
42.1554 125.196 566.487
42.2983 126.13 568.407
42.1554 126.212 566.487
42.1554 126.72 566.487
42.2983 127.659 568.407
42.9166 132.628 576.716
42.8797 133.03 576.22
42.8429 133.432 575.726
42.8061 133.834 575.232
42.7328 134.119 574.247
42.7695 134.75 574.739
42.8429 135.497 575.726
42.8429 136.013 575.726
42.8429 136.529 575.726
42.8429 137.046 575.726
42.7328 137.208 574.247
42.6598 137.488 573.265
42.6234 137.884 572.776
42.6598 138.516 573.265
42.6963 139.149 573.756
42.7695 139.902 574.739
42.7695 140.418 574.739
42.6963 140.692 573.756
42.6598 141.086 573.265
42.6234 141.479 572.776
42.6598 142.114 573.265
42.6963 142.75 573.756
42.7695 143.51 574.739
42.8429 144.272 575.726
42.8429 144.788 575.726
42.8429 145.304 575.726
42.8429 145.821 575.726
42.8429 146.337 575.726
42.8797 146.979 576.22
42.8797 147.496 576.22
42.8797 148.012 576.22
42.9166 148.657 576.716
42.8797 149.046 576.22
42.8797 149.562 576.22
42.8797 150.079 576.22
42.9166 150.725 576.716
42.8797 151.112 576.22
42.8429 151.499 575.726
42.8429 152.015 575.726
42.8061 152.4 575.232
42.6598 152.393 573.265
42.6234 152.776 572.776
42.587 153.159 572.287
42.587 153.672 572.287
42.5507 154.054 571.799
42.5507 154.567 571.799
42.5507 155.079 571.799
42.5507 155.592 571.799
42.5507 156.105 571.799
42.5507 156.617 571.799
42.5507 157.13 571.799
42.5144 157.508 571.312
42.5507 158.155 571.799
42.5507 158.668 571.799
42.5507 159.181 571.799
42.587 159.829 572.287
42.587 160.343 572.287
42.5507 160.719 571.799
42.5144 161.094 571.312
42.5144 161.606 571.312
42.6234 162.534 572.776
42.6963 163.326 573.756
42.7328 163.981 574.247
42.6963 164.355 573.756
42.6963 164.869 573.756
42.7328 165.525 574.247
42.7328 166.04 574.247
42.7695 166.698 574.739
42.7695 167.213 574.739
42.7695 167.728 574.739
42.6598 167.812 573.265
42.6234 168.183 572.776
42.587 168.552 572.287
42.6234 169.21 572.776
42.6234 169.723 572.776
42.6234 170.237 572.776
42.587 170.605 572.287
42.5507 170.972 571.799
42.5507 171.997 571.799
42.5507 172.51 571.799
42.8797 176.943 576.22
42.8061 177.156 575.232
42.8429 182.986 575.726
42.8429 183.502 575.726
42.8429 184.018 575.726
44.724 221.195 601.004
44.724 221.734 601.004
44.5642 221.479 598.858
44.5642 222.016 598.858
45.0469 226.591 605.343
45.0469 227.134 605.343
45.0469 227.677 605.343
45.0876 228.426 605.89
45.0876 228.969 605.89
45.0876 229.512 605.89
45.0876 230.055 605.89
44.0011 -179.409 584.251
44.0395 -179.042 584.761
44.0011 -178.362 584.251
44.0779 -178.148 585.271
44.0011 -177.314 584.251
44.0779 -177.099 585.271
44.155 -176.883 586.294
44.155 -176.357 586.294
44.1164 -175.678 585.782
44.0779 -175 585.271
44.0779 -174.475 585.271
44.1164 -174.102 585.782
44.155 -173.729 586.294
44.155 -173.203 586.294
44.1164 -172.527 585.782
44.155 -172.152 586.294
44.1164 -171.476 585.782
43.0267 -154.947 571.312
43.0267 -154.435 571.312
43.0267 -153.923 571.312
42.917 -153.02 569.856
42.8806 -152.379 569.372
42.8442 -151.74 568.889
42.8806 -151.358 569.372
42.8806 -150.848 569.372
42.8806 -150.337 569.372
42.8442 -149.7 568.889
42.8442 -149.19 568.889
42.8442 -148.68 568.889
42.8442 -148.17 568.889
42.8806 -147.785 569.372
42.8806 -147.274 569.372
42.8806 -146.764 569.372
42.8442 -146.129 568.889
42.8442 -145.619 568.889
42.8442 -145.109 568.889
42.8442 -144.599 568.889
42.8079 -143.967 568.407
42.7716 -143.336 567.926
42.6993 -142.585 566.966
42.5913 -141.718 565.532
42.5554 -141.092 565.055
42.5196 -140.467 564.579
42.5196 -139.96 564.579
42.4839 -139.337 564.105
42.4839 -138.831 564.105
42.4482 -138.209 563.631
42.4125 -137.588 563.157
42.3769 -136.968 562.685
42.3769 -136.464 562.685
42.4125 -136.073 563.157
42.4125 -135.569 563.157
42.4482 -135.177 563.631
42.4839 -134.785 564.105
42.4839 -134.279 564.105
42.4839 -133.774 564.105
42.4839 -133.268 564.105
42.4839 -132.762 564.105
42.5554 -132.479 565.055
42.5554 -131.973 565.055
42.5913 -131.577 565.532
42.5913 -131.07 565.532
42.5554 -130.453 565.055
42.5554 -129.946 565.055
42.5196 -129.33 564.579
42.5196 -128.824 564.579
42.5554 -128.426 565.055
42.5554 -127.92 565.055
42.5196 -127.306 564.579
42.5196 -126.8 564.579
42.5196 -126.293 564.579
42.4839 -125.681 564.105
42.4839 -125.176 564.105
42.4482 -124.565 563.631
42.4125 -123.956 563.157
42.4125 -123.451 563.157
42.3414 -122.74 562.213
42.3414 -122.236 562.213
42.4125 -121.936 563.157
42.4482 -121.533 563.631
42.4839 -121.13 564.105
42.4839 -120.624 564.105
42.4839 -120.118 564.105
42.4482 -119.512 563.631
42.4839 -119.107 564.105
42.4839 -118.601 564.105
42.4839 -118.095 564.105
42.5196 -117.688 564.579
42.5196 -117.182 564.579
42.4839 -116.578 564.105
42.4839 -116.072 564.105
42.4839 -115.566 564.105
42.4839 -115.06 564.105
42.5196 -114.651 564.579
42.5554 -114.241 565.055
42.5913 -113.83 565.532
42.6273 -113.419 566.009
42.5913 -112.816 565.532
42.6993 -112.594 566.966
42.7716 -112.276 567.926
42.8079 -111.861 568.407
42.8079 -111.351 568.407
42.7716 -110.748 567.926
42.6993 -110.052 566.966
42.5913 -109.267 565.532
42.6273 -108.852 566.009
42.6273 -108.344 566.009
42.6633 -107.928 566.487
42.6633 -107.42 566.487
42.6273 -106.822 566.009
42.6273 -106.314 566.009
42.5554 -105.629 565.055
42.5554 -105.122 565.055
42.5913 -104.704 565.532
42.5913 -104.197 565.532
42.6273 -103.777 566.009
42.5554 -103.096 565.055
42.5554 -102.589 565.055
42.5196 -101.996 564.579
42.5913 -101.661 565.532
42.5554 -101.069 565.055
42.6273 -100.732 566.009
42.7716 -100.564 567.926
42.8806 -100.31 569.372
42.8079 -99.6303 568.407
42.8079 -99.1206 568.407
42.8079 -98.611 568.407
42.8442 -98.1846 568.889
42.8079 -97.5918 568.407
42.8079 -97.0822 568.407
42.8079 -96.5725 568.407
42.8079 -96.0629 568.407
42.8442 -95.6344 568.889
42.8442 -95.1243 568.889
42.8806 -94.6946 569.372
42.8806 -94.1841 569.372
42.917 -93.7532 569.856
42.917 -93.2423 569.856
42.9535 -92.8102 570.34
42.9535 -92.2989 570.34
42.917 -91.7095 569.856
42.917 -91.1986 569.856
42.99 -90.8421 570.826
42.99 -90.3303 570.826
42.8806 -89.5897 569.372
42.8442 -89.0037 568.889
42.8806 -88.5688 569.372
42.8806 -88.0583 569.372
43.0633 -87.921 571.799
43.1001 -87.4829 572.287
43.1369 -87.0441 572.776
43.1001 -86.4567 572.287
43.1001 -85.9436 572.287
43.0633 -85.3577 571.799
43.1001 -84.9174 572.287
43.1001 -84.4043 572.287
43.1001 -83.8912 572.287
43.1001 -83.3781 572.287
43.1001 -82.8651 572.287
43.1001 -82.352 572.287
42.99 -81.6299 570.826
42.8806 -80.9115 569.372
43.1001 -80.8127 572.287
43.2477 -80.5746 574.247
43.3963 -80.3348 576.22
43.471 -79.9556 577.212
43.5084 -79.5065 577.709
43.471 -78.9206 577.212
43.4336 -78.3356 576.716
43.3963 -77.7517 576.22
43.4336 -77.3015 576.716
43.4336 -76.7844 576.716
43.4336 -76.2674 576.716
43.4336 -75.7503 576.716
43.4336 -75.2332 576.716
43.4336 -74.7162 576.716
43.4336 -74.1991 576.716
43.3963 -73.6187 576.22
43.4336 -73.165 576.716
43.471 -72.7104 577.212
43.5084 -72.2551 577.709
43.5084 -71.7371 577.709
43.5084 -71.2192 577.709
43.6212 -70.8844 579.206
43.6589 -70.4259 579.706
43.6966 -69.9666 580.208
43.6966 -69.4464 580.208
43.6966 -68.9262 580.208
43.6966 -68.406 580.208
43.8103 -68.0625 581.718
43.9246 -67.7171 583.235
44.0011 -67.3113 584.251
44.0011 -66.7874 584.251
44.3099 -66.7286 588.351
44.3878 -66.3175 589.385
44.5444 -66.0211 591.464
44.5444 -65.4908 591.464
44.6231 -65.0753 592.509
44.5444 -64.4302 591.464
44.4659 -63.7874 590.423
44.4659 -63.2581 590.423
44.5444 -62.8394 591.464
44.5444 -62.3091 591.464
44.6625 -61.9426 593.033
44.9007 -61.7385 596.196
44.9407 -61.2584 596.726
44.9407 -60.7234 596.726
44.9407 -59.6534 596.726
44.9407 -59.1184 596.726
44.9807 -58.6355 597.258
44.9807 -58.1 597.258
45.1012 -57.7188 598.858
45.0609 -57.1308 598.323
45.0609 -56.5944 598.323
45.0208 -56.008 597.79
44.9807 -55.4226 597.258
44.9807 -54.8871 597.258
44.9807 -54.3517 597.258
44.9807 -53.8162 597.258
44.9807 -53.2807 597.258
45.0208 -52.7922 597.79
45.0208 -52.2562 597.79
45.0208 -51.7203 597.79
45.2628 -51.4595 601.004
45.3034 -50.9663 601.543
45.3441 -50.4723 602.083
45.4256 -50.0223 603.166
45.5075 -49.5706 604.253
45.4256 -48.9407 603.166
45.4256 -48.3999 603.166
45.5896 -48.0319 605.343
45.5896 -47.4892 605.343
45.5896 -46.9465 605.343
45.5896 -46.4037 605.343
45.1818 -44.9129 599.929
45.1818 -43.2993 599.929
55.5091 -43.9447 737.055
55.2058 -43.0474 733.028
55.1455 -42.3439 732.228
55.1455 -41.6874 732.228
55.2058 -41.0757 733.028
55.2058 -40.4185 733.028
55.2058 -39.7613 733.028
55.2662 -39.1469 733.83
55.2662 -38.489 733.83
55.3267 -37.8725 734.634
55.4482 -37.2955 736.246
55.5702 -36.716 737.866
55.6927 -36.134 739.493
56.0014 -35.6676 743.593
56.1259 -35.0787 745.245
56.2509 -34.4872 746.905
56.5658 -34.0068 751.087
56.6293 -33.3708 751.929
56.6928 -32.7334 752.773
56.7565 -32.0945 753.618
56.6293 -31.3483 751.929
56.5658 -30.6398 751.087
56.6293 -30 751.929
56.6293 -29.3259 751.929
56.4394 -28.5557 749.408
56.1259 -27.7289 745.245
56.0636 -27.0307 744.418
52.783 -23.5638 700.857
52.783 -22.9355 700.857
52.783 -22.3071 700.857
52.7279 -21.6561 700.126
52.618 -20.9846 698.667
52.5086 -20.3158 697.215
52.4541 -19.6703 696.491
52.3997 -19.0261 695.768
52.3997 -18.4023 695.768
52.3454 -17.76 695.047
52.3454 -17.1369 695.047
52.2912 -16.4966 694.328
52.2371 -15.8577 693.609
52.0756 -15.1887 691.464
52.0219 -14.5538 690.752
51.9684 -13.9201 690.042
51.915 -13.2878 689.332
51.8085 -12.6437 687.918
47.2971 76.8578 628.015
46.599 78.4971 618.746
46.6851 79.198 619.889
46.599 79.6066 618.746
46.599 80.1614 618.746
46.556 80.6417 618.175
46.5132 81.1212 617.606
46.4277 81.5248 616.471
46.2576 81.7768 614.213
46.1309 82.102 612.53
45.963 82.3503 610.301
45.963 82.8975 610.301
46.0048 83.5207 610.857
46.0468 84.145 611.413
46.0048 84.616 610.857
46.0048 85.1637 610.857
46.0048 85.7114 610.857
45.963 86.1806 610.301
45.963 86.7277 610.301
45.963 87.2749 610.301
46.0888 88.0625 611.971
45.9212 88.2889 609.746
45.963 88.9165 610.301
45.8795 89.3011 609.192
45.6721 89.4411 606.438
45.5896 89.8224 605.343
45.6308 90.4468 605.89
45.6308 90.99 605.89
45.5896 91.4506 605.343
45.5896 91.9933 605.343
45.5485 92.4526 604.797
45.5485 92.9949 604.797
45.4665 93.3687 603.709
45.3848 93.7413 602.624
45.0609 95.218 598.323
44.9407 95.4989 596.726
44.9407 96.0339 596.726
44.9007 96.4831 596.196
44.9007 97.0176 596.196
44.9007 97.5521 596.196
44.9007 98.0867 596.196
44.9407 98.709 596.726
44.9007 99.1557 596.196
44.8608 99.6017 595.666
44.7813 99.9582 594.61
44.6625 100.225 593.033
44.6231 100.667 592.509
44.702 101.378 593.558
44.7416 102 594.084
44.6625 102.352 593.033
44.6625 102.883 593.033
44.6625 103.415 593.033
44.6625 103.947 593.033
44.6625 104.478 593.033
44.702 105.103 593.558
44.702 105.635 593.558
44.702 106.167 593.558
44.7813 106.889 594.61
44.7813 107.422 594.61
44.7813 107.955 594.61
44.8608 109.215 595.666
44.7813 109.554 594.61
44.5444 109.505 591.464
44.5051 109.938 590.943
44.5051 110.468 590.943
44.5051 110.998 590.943
44.7813 112.22 594.61
44.4659 112.488 590.423
44.3488 112.72 588.868
44.3099 113.149 588.351
44.2711 113.576 587.836
44.2323 114.004 587.321
44.1936 114.43 586.807
44.1936 114.956 586.807
44.2323 115.583 587.321
44.2711 116.212 587.836
44.2711 116.739 587.836
44.155 116.958 586.294
44.0395 117.177 584.761
43.8484 119.278 582.223
43.8484 119.8 582.223
43.5459 120.529 578.207
43.8484 121.888 582.223
43.8484 122.41 582.223
43.8484 122.932 582.223
43.8484 123.454 582.223
43.6212 123.334 579.206
42.9535 123.491 570.34
42.9535 124.003 570.34
42.8806 124.303 569.372
42.8442 124.707 568.889
42.8079 125.111 568.407
42.8079 125.621 568.407
42.9535 127.071 570.34
42.8442 127.257 568.889
42.9535 128.093 570.34
43.0633 128.934 571.799
43.471 132.742 577.212
43.3963 133.03 576.22
43.3591 133.432 575.726
43.2848 133.719 574.739
43.1738 133.89 573.265
43.1738 134.404 573.265
43.1738 134.918 573.265
43.2107 135.548 573.756
43.2477 136.179 574.247
43.1369 136.343 572.776
43.1001 136.74 572.287
43.0633 137.136 571.799
43.0633 137.649 571.799
43.1001 138.279 572.287
43.1369 138.911 572.776
43.2107 139.663 573.756
43.1738 140.058 573.265
43.1369 140.452 572.776
43.1001 140.845 572.287
43.1001 141.358 572.287
43.1738 142.114 573.265
43.3591 143.24 575.726
43.3591 143.756 575.726
43.3963 144.396 576.22
43.3963 144.913 576.22
43.3963 145.429 576.22
43.3963 145.946 576.22
43.3963 146.463 576.22
43.3963 146.979 576.22
43.3963 147.496 576.22
43.3963 148.012 576.22
43.4336 148.657 576.716
43.3963 149.046 576.22
43.3963 149.562 576.22
43.3963 150.079 576.22
43.4336 150.725 576.716
43.3963 151.112 576.22
43.3219 151.369 575.232
43.3591 152.015 575.726
43.2848 152.27 574.739
43.1738 152.393 573.265
43.1369 152.776 572.776
43.1369 153.29 572.776
43.1001 153.672 572.287
43.1001 154.185 572.287
43.0633 154.567 571.799
43.1001 155.212 572.287
43.1001 155.725 572.287
43.1001 156.238 572.287
43.0633 156.617 571.799
43.0633 157.13 571.799
43.0633 157.643 571.799
43.0633 158.155 571.799
43.0633 158.668 571.799
43.0633 159.181 571.799
43.1001 159.829 572.287
43.0633 160.206 571.799
42.99 160.445 570.826
42.8806 160.547 569.372
42.8079 160.784 568.407
43.0267 162.118 571.312
43.1738 163.187 573.265
43.2477 163.981 574.247
43.1738 164.214 573.265
43.2477 165.011 574.247
43.2477 165.525 574.247
43.2848 166.183 574.739
43.3219 166.841 575.232
43.3219 167.357 575.232
43.3219 167.872 575.232
43.2477 168.1 574.247
43.1738 168.326 573.265
43.1369 168.696 572.776
43.2107 169.499 573.756
43.2107 170.013 573.756
43.1738 170.382 573.265
43.1369 170.75 572.776
43.1369 171.264 572.776
43.1001 171.631 572.287
43.1369 172.291 572.776
43.1369 172.804 572.776
43.3963 177.46 576.22
43.3591 183.502 575.726
43.3219 183.86 575.232
45.2223 220.997 600.466
45.2628 221.734 601.004
45.1818 221.875 599.929
45.1012 222.016 598.858
45.5485 226.387 604.797
45.5485 226.929 604.797
45.5896 227.677 605.343
45.5896 228.219 605.343
45.5896 228.762 605.343
45.5896 229.305 605.343
45.5896 229.848 605.343
44.6027 -179.723 585.271
44.6027 -179.198 585.271
44.6027 -178.673 585.271
44.6027 -178.148 585.271
44.5638 -177.469 584.761
44.6027 -177.099 585.271
44.6027 -176.574 585.271
44.6027 -176.049 585.271
44.6027 -175.525 585.271
44.6027 -175 585.271
44.5638 -174.323 584.761
44.6027 -173.95 585.271
44.6416 -173.052 585.782
44.6416 -172.527 585.782
44.6027 -171.851 585.271
43.6132 -157.264 572.287
43.576 -155.592 571.799
43.576 -155.079 571.799
43.576 -154.567 571.799
43.5018 -153.792 570.826
43.391 -152.89 569.372
43.3542 -152.25 568.889
43.3542 -151.74 568.889
43.3542 -151.23 568.889
43.3542 -150.72 568.889
43.3542 -150.21 568.889
43.3542 -149.7 568.889
43.3542 -149.19 568.889
43.3542 -148.68 568.889
43.3542 -148.17 568.889
43.391 -147.785 569.372
43.391 -147.274 569.372
43.391 -146.764 569.372
43.391 -146.253 569.372
43.3542 -145.619 568.889
43.3175 -144.986 568.407
43.3542 -144.599 568.889
43.3175 -143.967 568.407
43.2808 -143.336 567.926
43.2442 -142.706 567.445
43.0984 -141.718 565.532
43.062 -141.092 565.055
43.0258 -140.467 564.579
43.0258 -139.96 564.579
43.0258 -139.454 564.579
43.0258 -138.948 564.579
42.9896 -138.325 564.105
42.9896 -137.82 564.105
42.9535 -137.199 563.631
42.9535 -136.693 563.631
42.9896 -136.302 564.105
42.9896 -135.797 564.105
42.9896 -135.291 564.105
42.9896 -134.785 564.105
43.0258 -134.392 564.579
42.9896 -133.774 564.105
42.9896 -133.268 564.105
43.0258 -132.874 564.579
43.0258 -132.368 564.579
43.062 -131.973 565.055
43.0258 -131.355 564.579
43.0258 -130.849 564.579
43.0258 -130.343 564.579
43.0258 -129.837 564.579
42.9896 -129.222 564.105
43.0258 -128.824 564.579
43.0258 -128.318 564.579
43.0258 -127.812 564.579
43.0258 -127.306 564.579
42.9896 -126.693 564.105
42.9896 -126.187 564.105
42.9896 -125.681 564.105
42.9896 -125.176 564.105
42.9535 -124.565 563.631
42.9535 -124.06 563.631
42.9535 -123.554 563.631
42.9174 -122.946 563.157
42.9174 -122.441 563.157
42.9174 -121.936 563.157
42.9535 -121.533 563.631
42.9535 -121.028 563.631
42.9535 -120.522 563.631
42.8814 -119.816 562.685
42.8455 -119.211 562.213
42.9174 -118.907 563.157
42.9174 -118.402 563.157
42.9535 -117.996 563.631
42.9535 -117.49 563.631
42.9535 -116.985 563.631
42.9535 -116.48 563.631
42.9174 -115.877 563.157
42.9535 -115.469 563.631
42.9535 -114.964 563.631
43.0258 -114.651 564.579
43.0984 -114.337 565.532
43.1347 -113.926 566.009
43.1347 -113.419 566.009
43.1347 -112.911 566.009
43.2442 -112.689 567.445
43.3175 -112.371 568.407
43.3175 -111.861 568.407
43.2808 -111.257 567.926
43.2442 -110.654 567.445
43.1712 -109.959 566.487
43.0984 -109.267 565.532
43.1347 -108.852 566.009
43.1712 -108.436 566.487
43.1712 -107.928 566.487
43.1712 -107.42 566.487
43.1712 -106.912 566.487
43.1347 -106.314 566.009
43.0984 -105.718 565.532
43.0984 -105.211 565.532
43.0984 -104.704 565.532
43.1347 -104.285 566.009
43.1712 -103.865 566.487
43.0984 -103.183 565.532
43.062 -102.589 565.055
43.0258 -101.996 564.579
43.0984 -101.661 565.532
43.062 -101.069 565.055
43.1347 -100.732 566.009
43.2808 -100.564 567.926
43.3542 -100.225 568.889
43.3175 -99.6303 568.407
43.3175 -99.1206 568.407
43.3175 -98.611 568.407
43.3175 -98.1014 568.407
43.3175 -97.5918 568.407
43.3175 -97.0822 568.407
43.3175 -96.5725 568.407
43.2808 -95.9816 567.926
43.3175 -95.5533 568.407
43.3542 -95.1243 568.889
43.3542 -94.6143 568.889
43.3542 -94.1042 568.889
43.391 -93.6736 569.372
43.391 -93.1631 569.372
43.4279 -92.7314 569.856
43.4279 -92.2204 569.856
43.4279 -91.7095 569.856
43.4279 -91.1986 569.856
43.5018 -90.8421 570.826
43.5389 -90.4072 571.312
43.4648 -89.7421 570.34
43.4279 -89.1549 569.856
43.4279 -88.644 569.856
43.4279 -88.1331 569.856
43.5389 -87.8461 571.312
43.6132 -87.4829 572.287
43.6132 -86.9698 572.287
43.6504 -86.5306 572.776
43.6132 -85.9436 572.287
43.576 -85.3577 571.799
43.6132 -84.9174 572.287
43.6132 -84.4043 572.287
43.6132 -83.8912 572.287
43.6504 -83.4493 572.776
43.6504 -82.9358 572.776
43.6132 -82.352 572.287
43.5389 -81.6994 571.312
43.4648 -81.0491 570.34
43.6132 -80.8127 572.287
43.6877 -80.4368 573.265
43.9129 -80.3348 576.22
44.0264 -80.0245 577.709
44.0644 -79.575 578.207
43.9885 -78.9206 577.212
43.9507 -78.3356 576.716
43.9129 -77.7517 576.22
43.9507 -77.3015 576.716
43.9507 -76.7844 576.716
43.9507 -76.2674 576.716
43.9507 -75.7503 576.716
43.9507 -75.2332 576.716
43.9507 -74.7162 576.716
43.9507 -74.1991 576.716
43.9129 -73.6187 576.22
43.9507 -73.165 576.716
43.9885 -72.7104 577.212
44.0264 -72.2551 577.709
44.0264 -71.7371 577.709
44.0264 -71.2192 577.709
44.1405 -70.8844 579.206
44.1786 -70.4259 579.706
44.2168 -69.9666 580.208
44.2168 -69.4464 580.208
44.2168 -68.9262 580.208
44.2168 -68.406 580.208
44.2935 -68.0035 581.214
44.4475 -67.7171 583.235
44.4862 -67.2527 583.743
44.4862 -66.7293 583.743
44.6027 -66.3793 585.271
44.8374 -66.2011 588.351
44.9953 -65.9049 590.423
45.1543 -65.6065 592.509
45.1543 -65.0753 592.509
44.8374 -64.0911 588.351
44.8374 -63.5636 588.351
45.1543 -62.9504 592.509
45.1543 -62.4192 592.509
45.1543 -61.8879 592.509
45.3949 -61.6837 595.666
45.4757 -61.2584 596.726
45.4757 -60.7234 596.726
45.4757 -60.1884 596.726
45.4352 -59.6003 596.196
45.5162 -59.171 597.258
45.4757 -58.5834 596.726
45.5162 -58.1 597.258
45.5567 -57.6159 597.79
45.5567 -57.0799 597.79
45.5567 -56.5439 597.79
45.5162 -55.9581 597.258
45.4757 -55.3733 596.726
45.5162 -54.8871 597.258
45.4757 -54.3033 596.726
45.5162 -53.8162 597.258
45.5162 -53.2807 597.258
45.5162 -52.7452 597.258
45.5162 -52.2097 597.258
45.4757 -51.6283 596.726
45.4757 -51.0933 596.726
45.8017 -50.9207 601.004
45.8427 -50.427 601.543
45.8427 -49.8877 601.543
45.8839 -49.3927 602.083
45.8839 -48.8528 602.083
45.8839 -48.313 602.083
45.9664 -47.8591 603.166
46.0492 -47.4036 604.253
45.9664 -46.7776 603.166
45.9664 -46.2368 603.166
46.2995 -46.0272 607.537
45.8017 -44.9934 601.004
45.7197 -44.375 599.929
45.6381 -43.7589 598.858
45.6381 -43.2219 598.858
55.863 -43.0474 733.028
55.802 -42.3439 732.228
55.802 -41.6874 732.228
55.802 -41.0309 732.228
55.863 -40.4185 733.028
55.863 -39.7613 733.028
55.9241 -39.1469 733.83
55.9854 -38.5311 734.634
55.9854 -37.8725 734.634
56.0468 -37.2546 735.439
56.1083 -36.6354 736.246
56.2937 -36.0942 738.679
56.6681 -35.6676 743.593
56.7941 -35.0787 745.245
57.0476 -34.5641 748.572
57.3034 -34.045 751.929
57.4322 -33.4458 753.618
57.6264 -32.881 756.167
57.6915 -32.2394 757.021
57.5615 -31.4895 755.316
57.3677 -30.7086 752.773
57.3677 -30.0337 752.773
57.3034 -29.3259 751.929
57.0476 -28.5238 748.572
56.8572 -27.7597 746.074
56.5428 -26.941 741.947
53.4113 -22.9355 700.857
53.4113 -22.3071 700.857
53.3556 -21.6561 700.126
53.3556 -21.0284 700.126
53.2444 -20.3582 698.667
53.1337 -19.6907 697.215
53.0786 -19.0458 696.491
53.0235 -18.4023 695.768
53.0235 -17.7785 695.768
53.0235 -17.1547 695.768
52.9685 -16.5137 695.047
52.9137 -15.8741 694.328
52.8044 -15.2201 692.893
52.6955 -14.5688 691.464
52.5871 -13.9201 690.042
52.533 -13.2878 689.332
52.533 -12.6697 689.332
52.2111 -11.9778 685.108
48.0401 76.5815 630.376
47.95 77.002 629.194
47.95 77.5661 629.194
47.8602 77.9839 628.015
47.1537 78.4971 618.746
47.2409 79.198 619.889
47.2409 79.7537 619.889
47.1537 80.1614 618.746
47.1537 80.7161 618.746
47.0669 81.1212 617.606
46.8942 81.3752 615.34
46.8083 81.7768 614.213
46.7227 82.177 613.09
46.5101 82.3503 610.301
46.5101 82.8975 610.301
46.5101 83.4447 610.301
46.5525 84.0684 610.857
46.5101 84.539 610.301
46.5525 85.1637 610.857
46.5101 85.6334 610.301
46.4679 86.1022 609.746
46.4679 86.6489 609.746
46.4679 87.1956 609.746
46.4679 87.7423 609.746
46.4257 88.2087 609.192
46.4257 88.7549 609.192
46.3415 89.1392 608.087
46.174 89.3603 605.89
46.174 89.9036 605.89
46.174 90.4468 605.89
46.174 90.99 605.89
46.174 91.5332 605.89
46.1324 91.9933 605.343
46.0908 92.4526 604.797
46.0908 92.9949 604.797
46.0078 93.3687 603.709
45.8839 93.6571 602.083
45.5567 95.1332 597.79
45.4757 95.4989 596.726
45.4757 96.0339 596.726
45.4352 96.4831 596.196
45.4352 97.0176 596.196
45.4352 97.5521 596.196
45.4352 98.0867 596.196
45.4757 98.709 596.726
45.4352 99.1557 596.196
45.3949 99.6017 595.666
45.2743 99.8697 594.084
45.1543 100.136 592.509
45.1144 100.579 591.986
45.1144 101.109 591.986
45.1543 101.73 592.509
45.1144 102.171 591.986
45.1144 102.702 591.986
45.1543 103.324 592.509
45.1543 103.855 592.509
45.1543 104.386 592.509
45.1543 104.917 592.509
45.1942 105.542 593.033
45.3144 106.356 594.61
45.3144 106.889 594.61
45.3144 107.422 594.61
45.3144 107.955 594.61
45.3144 108.488 594.61
45.0746 108.975 591.464
44.9953 109.312 590.423
44.9953 109.841 590.423
44.9953 110.371 590.423
44.9953 110.9 590.423
45.1144 111.725 591.986
44.9953 111.959 590.423
44.8768 112.192 588.868
44.8374 112.621 588.351
44.8374 113.149 588.351
44.7589 113.477 587.321
44.7197 113.904 586.807
44.6806 114.33 586.294
44.6806 114.856 586.294
44.7589 115.583 587.321
44.6806 115.907 586.294
44.6806 116.432 586.294
44.6806 116.958 586.294
44.3704 116.668 582.223
44.3704 117.19 582.223
44.3704 118.234 582.223
44.3704 118.756 582.223
44.3704 119.278 582.223
44.0644 120.011 578.207
44.0644 120.529 578.207
44.0644 121.047 578.207
44.3704 122.41 582.223
44.3704 122.932 582.223
44.1405 122.814 579.206
44.0644 123.121 578.207
43.6132 124.426 572.287
43.4648 124.514 570.34
43.391 124.813 569.372
43.2442 124.899 567.445
43.2808 125.514 567.926
43.3175 126.13 568.407
43.4648 127.071 570.34
43.4648 127.582 570.34
43.4648 128.093 570.34
43.576 128.934 571.799
43.6132 129.557 572.287
43.8752 131.884 575.726
43.8752 132.4 575.726
43.8752 132.916 575.726
43.8 133.204 574.739
43.7251 133.49 573.756
43.6504 133.776 572.776
43.6504 134.289 572.776
43.6504 134.803 572.776
43.6877 135.432 573.265
43.6504 135.83 572.776
43.6132 136.227 572.287
43.576 136.624 571.799
43.576 137.136 571.799
43.576 137.649 571.799
43.6132 138.279 572.287
43.6132 138.793 572.287
43.6504 139.425 572.776
43.6504 139.938 572.776
43.6504 140.452 572.776
43.6132 140.845 572.287
43.6132 141.358 572.287
43.6504 141.992 572.776
43.6504 142.506 572.776
43.6877 143.142 573.265
43.8376 144.148 575.232
43.8376 145.18 575.232
43.8376 145.696 575.232
43.8376 146.211 575.232
43.8376 146.727 575.232
43.8752 147.369 575.726
43.8752 147.885 575.726
43.9129 148.529 576.22
43.9129 149.046 576.22
43.8752 149.434 575.726
43.8752 149.95 575.726
43.9129 150.596 576.22
43.8752 150.982 575.726
43.7251 150.98 573.756
43.7251 151.495 573.756
43.7625 152.139 574.247
43.7251 152.523 573.756
43.6877 152.907 573.265
43.6504 153.29 572.776
43.6132 153.672 572.287
43.6132 154.185 572.287
43.576 154.567 571.799
43.6132 155.212 572.287
43.576 155.592 571.799
43.6132 156.238 572.287
43.576 156.617 571.799
43.576 157.13 571.799
43.5389 157.508 571.312
43.576 158.155 571.799
43.5389 158.533 571.312
43.5389 159.045 571.312
43.576 159.693 571.799
43.5389 160.069 571.312
43.4648 160.309 570.34
43.391 160.547 569.372
43.3542 160.921 568.889
43.4648 161.843 570.34
43.576 162.769 571.799
43.6132 163.421 572.287
43.6504 164.074 572.776
43.6504 164.588 572.776
43.7251 165.384 573.756
43.7251 165.898 573.756
43.8 166.698 574.739
43.8 167.213 574.739
43.8 167.728 574.739
43.7625 168.1 574.247
43.6877 168.326 573.265
43.6877 168.84 573.265
43.7625 169.644 574.247
43.8 170.305 574.739
43.7251 170.528 573.756
43.6877 170.896 573.265
43.6877 171.41 573.265
43.6877 171.924 573.265
43.6877 172.438 573.265
43.6877 172.952 573.265
43.8376 174.061 575.232
43.9129 177.46 576.22
43.6877 183.232 573.265
45.7197 220.799 599.929
45.7197 221.337 599.929
45.7197 221.875 599.929
45.7607 222.612 600.466
46.1324 228.219 605.343
46.174 228.969 605.89
46.174 229.512 605.89
46.174 230.055 605.89
45.1274 -179.198 585.271
45.2063 -178.985 586.294
45.0488 -177.838 584.251
45.0488 -177.314 584.251
45.0488 -176.79 584.251
45.1274 -176.574 585.271
45.2063 -176.357 586.294
45.1668 -175.678 585.782
45.1668 -175.153 585.782
45.1274 -174.475 585.271
45.0488 -173.647 584.251
45.1668 -172.527 585.782
45.0488 -171.552 584.251
44.0887 -157.13 571.799
44.0887 -156.617 571.799
44.0887 -156.105 571.799
44.0887 -155.592 571.799
44.0887 -155.079 571.799
44.0511 -154.435 571.312
43.9762 -153.661 570.34
43.9015 -152.89 569.372
43.8643 -152.25 568.889
43.8643 -151.74 568.889
43.8643 -151.23 568.889
43.8643 -150.72 568.889
43.8643 -150.21 568.889
43.8643 -149.7 568.889
43.8643 -149.19 568.889
43.8643 -148.68 568.889
43.8643 -148.17 568.889
43.9015 -147.785 569.372
43.9015 -147.274 569.372
43.9388 -146.889 569.856
43.9015 -146.253 569.372
43.8643 -145.619 568.889
43.8643 -145.109 568.889
43.8643 -144.599 568.889
43.8271 -143.967 568.407
43.79 -143.336 567.926
43.753 -142.706 567.445
43.6791 -141.957 566.487
43.6054 -141.21 565.532
43.5687 -140.585 565.055
43.5687 -140.078 565.055
43.5687 -139.572 565.055
43.532 -138.948 564.579
43.532 -138.442 564.579
43.4954 -137.82 564.105
43.4954 -137.314 564.105
43.4954 -136.808 564.105
43.4954 -136.302 564.105
43.4954 -135.797 564.105
43.532 -135.405 564.579
43.532 -134.899 564.579
43.532 -134.392 564.579
43.532 -133.886 564.579
43.532 -133.38 564.579
43.532 -132.874 564.579
43.5687 -132.479 565.055
43.6054 -132.084 565.532
43.532 -131.355 564.579
43.532 -130.849 564.579
43.532 -130.343 564.579
43.532 -129.837 564.579
43.532 -129.33 564.579
43.532 -128.824 564.579
43.5687 -128.426 565.055
43.532 -127.812 564.579
43.532 -127.306 564.579
43.532 -126.8 564.579
43.4954 -126.187 564.105
43.532 -125.787 564.579
43.532 -125.281 564.579
43.4954 -124.67 564.105
43.4588 -124.06 563.631
43.4954 -123.658 564.105
43.4588 -123.049 563.631
43.4223 -122.441 563.157
43.4223 -121.936 563.157
43.4588 -121.533 563.631
43.4588 -121.028 563.631
43.4588 -120.522 563.631
43.3859 -119.816 562.685
43.3495 -119.211 562.213
43.4223 -118.907 563.157
43.4223 -118.402 563.157
43.4223 -117.897 563.157
43.4588 -117.49 563.631
43.4588 -116.985 563.631
43.4588 -116.48 563.631
43.4588 -115.974 563.631
43.4588 -115.469 563.631
43.4954 -115.06 564.105
43.532 -114.651 564.579
43.6054 -114.337 565.532
43.6422 -113.926 566.009
43.6422 -113.419 566.009
43.6422 -112.911 566.009
43.6422 -112.404 566.009
43.79 -112.276 567.926
43.79 -111.766 567.926
43.753 -111.163 567.445
43.716 -110.561 566.966
43.6054 -109.774 565.532
43.5687 -109.175 565.055
43.5687 -108.668 565.055
43.6054 -108.253 565.532
43.6422 -107.837 566.009
43.6422 -107.329 566.009
43.6422 -106.822 566.009
43.6054 -106.225 565.532
43.5687 -105.629 565.055
43.5687 -105.122 565.055
43.6054 -104.704 565.532
43.6422 -104.285 566.009
43.6422 -103.777 566.009
43.5687 -103.096 565.055
43.532 -102.503 564.579
43.532 -101.996 564.579
43.5687 -101.576 565.055
43.5687 -101.069 565.055
43.6054 -100.647 565.532
43.79 -100.564 567.926
43.8643 -100.225 568.889
43.8271 -99.6303 568.407
43.8271 -99.1206 568.407
43.8271 -98.611 568.407
43.8271 -98.1014 568.407
43.8271 -97.5918 568.407
43.8271 -97.0822 568.407
43.8271 -96.5725 568.407
43.79 -95.9816 567.926
43.8271 -95.5533 568.407
43.8643 -95.1243 568.889
43.8643 -94.6143 568.889
43.8643 -94.1042 568.889
43.9015 -93.6736 569.372
43.9015 -93.1631 569.372
43.9388 -92.7314 569.856
43.9388 -92.2204 569.856
43.9388 -91.7095 569.856
43.9762 -91.2762 570.34
44.0136 -90.8421 570.826
44.0511 -90.4072 571.312
43.9388 -89.6659 569.856
43.9388 -89.1549 569.856
43.9762 -88.7194 570.34
43.9388 -88.1331 569.856
44.0511 -87.8461 571.312
44.0887 -87.4083 571.799
44.0887 -86.8957 571.799
44.0887 -86.383 571.799
44.0511 -85.7972 571.312
44.0511 -85.285 571.312
44.0887 -84.845 571.799
44.0887 -84.3324 571.799
44.0887 -83.8197 571.799
44.0887 -83.3071 571.799
44.0887 -82.7944 571.799
44.0887 -82.2818 571.799
43.9762 -81.5605 570.34
43.9762 -81.0491 570.34
44.164 -80.8817 572.776
44.2395 -80.5056 573.756
44.3914 -80.2659 575.726
44.506 -79.9556 577.212
44.5828 -79.575 578.207
44.4678 -78.8527 576.716
44.4678 -78.3356 576.716
44.4296 -77.7517 576.22
44.4296 -77.2351 576.22
44.4678 -76.7844 576.716
44.4678 -76.2674 576.716
44.4678 -75.7503 576.716
44.4678 -75.2332 576.716
44.4678 -74.7162 576.716
44.4678 -74.1991 576.716
44.4296 -73.6187 576.22
44.4678 -73.165 576.716
44.4678 -72.6479 576.716
44.506 -72.1929 577.212
44.506 -71.6754 577.212
44.506 -71.1579 577.212
44.6212 -70.8232 578.706
44.6984 -70.4259 579.706
44.6984 -69.9062 579.706
44.6984 -69.3864 579.706
44.737 -68.9262 580.208
44.7758 -68.4653 580.71
44.8146 -68.0035 581.214
44.8534 -67.5409 581.718
44.8534 -67.0194 581.718
44.9314 -66.6133 582.728
45.0096 -66.2059 583.743
45.0096 -65.6826 583.743
45.0096 -65.1592 583.743
45.0096 -64.6358 583.743
45.0488 -64.1683 584.251
45.0488 -63.6445 584.251
45.0488 -63.1207 584.251
45.0488 -62.5969 584.251
46.0107 -61.7934 596.726
46.0107 -61.2584 596.726
46.0107 -60.7234 596.726
46.0107 -60.1884 596.726
46.0107 -59.6534 596.726
45.9698 -59.0658 596.196
46.0107 -58.5834 596.726
46.0517 -58.1 597.258
46.0927 -57.6159 597.79
46.0517 -57.0291 597.258
46.0517 -56.4936 597.258
46.0107 -55.9083 596.726
46.0107 -55.3733 596.726
46.0107 -54.8383 596.726
46.0107 -54.3033 596.726
46.0517 -53.8162 597.258
46.0517 -53.2807 597.258
46.0517 -52.7452 597.258
46.0107 -52.1633 596.726
46.0107 -51.6283 596.726
46.0107 -51.0933 596.726
46.0107 -50.5582 596.726
46.3405 -50.3818 601.004
46.4237 -49.9325 602.083
46.4237 -49.3927 602.083
46.4237 -48.8528 602.083
46.4237 -48.313 602.083
46.5072 -47.8591 603.166
46.5072 -47.3184 603.166
46.591 -46.8619 604.253
46.5072 -46.2368 603.166
46.5072 -45.696 603.166
46.299 -44.9531 600.466
46.2576 -44.375 599.929
46.2576 -43.8371 599.929
46.175 -43.2219 598.858
56.4585 -42.3439 732.228
56.4585 -41.6874 732.228
56.5202 -41.0757 733.028
56.5202 -40.4185 733.028
56.5821 -39.8048 733.83
56.5821 -39.1469 733.83
56.644 -38.5311 734.634
56.644 -37.8725 734.634
56.644 -37.2138 734.634
56.7061 -36.5952 735.439
56.9559 -36.0942 738.679
57.2713 -35.6281 742.769
57.4622 -35.0787 745.245
57.7832 -34.6028 749.408
57.9776 -34.045 751.929
58.3044 -33.5589 756.167
58.4362 -32.9553 757.876
58.5685 -32.3489 759.593
58.5023 -31.632 758.734
58.5023 -30.9518 758.734
58.5023 -30.2715 758.734
57.9776 -29.3259 751.929
57.7188 -28.5238 748.572
57.4622 -27.7289 745.245
57.3348 -27.0007 743.593
54.0962 -22.9594 701.59
54.0962 -22.3304 701.59
54.0962 -21.7014 701.59
54.0397 -21.0504 700.857
53.9833 -20.4007 700.126
53.927 -19.7523 699.396
53.8148 -19.0855 697.94
53.7588 -18.4405 697.215
53.703 -17.7969 696.491
53.6473 -17.1547 695.768
53.6473 -16.5309 695.768
53.5917 -15.8906 695.047
53.4809 -15.2358 693.609
53.3705 -14.5838 692.178
53.2606 -13.9344 690.752
53.2058 -13.3014 690.042
53.1511 -12.6697 689.332
52.9877 -12.0147 687.214
48.6053 76.0164 630.376
48.6053 76.5815 630.376
48.5141 77.002 629.194
48.4232 77.4209 628.015
48.4232 77.9839 628.015
47.7085 77.9424 618.746
47.6645 78.4248 618.175
47.6645 79.5332 618.175
47.6206 80.5675 617.606
47.5331 80.9721 616.471
47.4459 81.3752 615.34
47.359 81.7768 614.213
47.1002 81.8776 610.857
47.0145 82.2755 609.746
47.0145 82.8221 609.746
47.0145 83.3688 609.746
47.0573 83.9919 610.301
47.0145 84.4622 609.746
47.0145 85.0089 609.746
47.0145 85.5555 609.746
47.0145 86.1022 609.746
47.0145 86.6489 609.746
47.0145 87.1956 609.746
46.9718 87.6626 609.192
46.9292 88.1287 608.639
46.9718 88.7549 609.192
46.8867 89.1392 608.087
46.7173 89.3603 605.89
46.7173 89.9036 605.89
46.7173 90.4468 605.89
46.7173 90.99 605.89
46.6751 91.4506 605.343
46.6751 91.9933 605.343
46.6751 92.5361 605.343
46.633 92.9949 604.797
46.5491 93.3687 603.709
46.4237 93.6571 602.083
46.1338 95.218 598.323
46.0107 95.4989 596.726
46.0107 96.0339 596.726
45.9698 96.4831 596.196
45.9698 97.0176 596.196
45.9698 97.5521 596.196
45.9698 98.0867 596.196
45.9698 98.6212 596.196
45.9698 99.1557 596.196
45.929 99.6017 595.666
45.7664 99.7813 593.558
45.6855 100.136 592.509
45.6452 100.579 591.986
45.6452 101.109 591.986
45.6855 101.73 592.509
45.6452 102.171 591.986
45.6452 102.702 591.986
45.6855 103.324 592.509
45.6855 103.855 592.509
45.6855 104.386 592.509
45.6855 104.917 592.509
45.6855 105.449 592.509
45.8475 106.356 594.61
45.8475 106.889 594.61
45.8475 107.422 594.61
45.8475 107.955 594.61
45.6452 108.54 591.986
45.5246 108.783 590.423
45.5246 109.312 590.423
45.5246 109.841 590.423
45.5246 110.371 590.423
45.5246 110.9 590.423
45.6049 111.626 591.464
45.5246 111.959 590.423
45.4047 112.192 588.868
45.3649 112.621 588.351
45.3251 113.049 587.836
45.2855 113.477 587.321
45.2063 113.804 586.294
45.2063 114.33 586.294
45.2063 114.856 586.294
45.2063 115.381 586.294
45.2063 115.907 586.294
45.2063 116.432 586.294
45.2063 116.958 586.294
45.0096 116.973 583.743
44.8924 117.19 582.223
44.8924 117.712 582.223
44.8924 118.234 582.223
44.8924 118.756 582.223
44.5828 120.529 578.207
44.6598 121.256 579.206
44.737 121.986 580.208
44.737 122.507 580.208
44.737 123.027 580.208
