ply
format ascii 1.0
element vertex 1992
property float x
property float y
property float z
end_header
51.7048 -191.926 626.842
51.8016 -191.722 628.015
51.8016 -191.159 628.015
51.8016 -190.596 628.015
51.8501 -190.211 628.604
51.8501 -189.648 628.604
51.8988 -189.261 629.194
51.8988 -188.697 629.194
52.0452 -183.573 630.969
52.0943 -183.179 631.564
52.0452 -182.441 630.969
51.9963 -181.705 630.376
51.9963 -181.139 630.376
51.9963 -180.574 630.376
51.9963 -180.009 630.376
52.0452 -179.613 630.969
52.0943 -179.216 631.564
52.0943 -178.649 631.564
52.6896 -177.255 638.781
52.6395 -176.514 638.174
52.6395 -175.942 638.174
52.6395 -175.37 638.174
52.6395 -174.797 638.174
52.5894 -174.06 637.567
52.5894 -173.488 637.567
52.5894 -172.916 637.567
52.5395 -167.041 636.961
52.4897 -166.312 636.357
52.5395 -165.899 636.961
52.5894 -165.485 637.567
52.6395 -165.071 638.174
52.6395 -164.498 638.174
52.6395 -163.926 638.174
52.6896 -163.51 638.781
52.7398 -163.092 639.39
52.7398 -162.519 639.39
52.7902 -162.1 640
53.7127 -156.759 651.185
53.7127 -156.176 651.185
53.7127 -155.592 651.185
53.8172 -155.309 652.452
53.8172 -154.724 652.452
53.8172 -154.139 652.452
53.8172 -153.555 652.452
53.9221 -153.268 653.724
55.1037 -135.064 668.048
55.1037 -134.465 668.048
55.658 -118.273 674.769
55.6021 -117.55 674.091
55.658 -117.063 674.769
55.5463 -116.225 673.414
55.6021 -114.528 674.091
55.7141 -114.153 675.449
55.7703 -113.662 676.129
55.7703 -113.056 676.129
55.8829 -112.677 677.495
55.9394 -112.183 678.18
55.9394 -111.575 678.18
55.9394 -110.967 678.18
55.9394 -110.359 678.18
55.996 -109.862 678.867
55.996 -109.253 678.867
56.0528 -108.755 679.555
55.996 -108.036 678.867
56.0528 -107.536 679.555
55.996 -106.819 678.867
55.996 -106.21 678.867
55.996 -105.601 678.867
55.996 -104.993 678.867
55.996 -104.384 678.867
56.1096 -103.986 680.244
64.3303 22.0261 779.907
64.0325 22.6202 776.297
64.3303 23.4246 779.907
64.3303 24.1239 779.907
64.4052 24.852 780.815
64.3303 25.5224 779.907
64.3303 26.9208 779.907
64.3303 27.6201 779.907
64.0325 28.1882 776.297
64.3303 29.0186 779.907
63.9585 29.546 775.399
63.7374 30.1367 772.719
63.6641 30.794 771.83
63.6641 31.486 771.83
63.6641 32.178 771.83
63.6641 32.87 771.83
63.6641 33.562 771.83
63.5909 34.2147 770.943
63.5179 34.8658 770.058
63.5179 35.5562 770.058
63.5179 36.2466 770.058
63.5909 36.9795 770.943
63.5909 37.6707 770.943
63.5909 38.3619 770.943
63.4451 38.9635 769.175
63.2275 39.5172 766.538
63.2275 40.2045 766.538
63.1554 40.845 765.663
63.1554 41.5315 765.663
63.1554 42.218 765.663
63.0833 42.8555 764.79
63.0115 43.4916 763.918
62.9398 44.1263 763.049
62.8683 44.7595 762.182
62.8683 45.4428 762.182
62.8683 46.1262 762.182
62.8683 46.8095 762.182
58.9809 65.0713 715.054
58.8554 65.5726 713.532
58.2973 67.4854 706.765
58.2973 68.1191 706.765
58.2973 68.7527 706.765
58.1135 69.1677 704.538
57.9917 69.6531 703.061
58.1135 70.4311 704.538
57.8704 70.7654 701.59
58.1135 71.6944 704.538
58.1135 72.9578 704.538
58.1135 73.5894 704.538
58.3587 74.5343 707.511
58.3587 75.1686 707.511
58.3587 75.8029 707.511
58.1135 76.1161 704.538
58.3587 77.0716 707.511
57.3901 82.6543 695.768
57.3901 83.2781 695.768
57.3901 83.9019 695.768
57.3901 84.5257 695.768
57.3901 85.1495 695.768
57.3901 85.7733 695.768
57.3307 86.3076 695.047
57.0352 88.3425 691.464
56.9178 88.7794 690.042
56.9178 89.3981 690.042
56.6845 89.6478 687.214
56.5686 90.0793 685.808
56.4532 90.5091 684.409
56.4532 91.1228 684.409
56.4532 91.7364 684.409
56.4532 92.35 684.409
56.4532 92.9636 684.409
56.5686 93.7686 685.808
56.5686 94.3835 685.808
56.4532 94.8045 684.409
56.5686 95.6132 685.808
55.435 97.3125 672.065
55.435 98.5176 672.065
55.435 99.1201 672.065
55.435 99.7227 672.065
55.4906 100.426 672.739
55.4906 101.029 672.739
55.3795 101.429 671.392
55.2688 101.827 670.05
55.2137 102.325 669.382
55.2137 102.925 669.382
55.1586 103.422 668.714
55.1037 103.918 668.048
54.885 104.103 665.397
54.6681 104.285 662.767
54.6681 104.88 662.767
54.6681 105.474 662.767
54.4528 105.65 660.158
54.4528 106.242 660.158
51.8016 128.659 628.015
51.9963 129.708 630.376
51.9963 130.273 630.376
52.1925 131.332 632.755
51.8988 131.157 629.194
51.8016 131.475 628.015
51.8016 132.038 628.015
50.1124 138.626 607.537
50.2946 139.677 609.746
50.2946 140.224 609.746
50.2034 140.515 608.639
50.0218 140.55 606.438
50.1124 141.35 607.537
50.1578 142.023 608.087
50.1124 142.439 607.537
50.1578 143.113 608.087
50.2034 143.789 608.639
50.2034 144.335 608.639
50.1578 144.749 608.087
50.1124 145.163 607.537
50.1124 145.707 607.537
50.1124 146.252 607.537
50.1578 146.93 608.087
50.2034 147.609 608.639
50.1124 147.886 607.537
50.1578 148.565 608.087
50.0671 148.841 606.987
49.9766 149.115 605.89
49.9766 149.658 605.89
49.9766 150.201 605.89
50.0218 150.881 606.438
50.1124 151.699 607.537
50.2946 152.797 609.746
50.1124 152.788 607.537
50.0218 155.774 606.438
50.1124 157.691 607.537
49.9315 157.664 605.343
50.1124 158.78 607.537
50.2034 159.614 608.639
50.2946 160.451 609.746
50.2034 160.705 608.639
50.2034 161.251 608.639
50.2946 162.091 609.746
49.9315 161.463 605.343
50.1124 163.138 607.537
50.0218 163.386 606.438
50.1124 164.227 607.537
50.1124 164.772 607.537
49.9315 165.262 605.343
50.0218 170.455 606.438
50.0218 170.998 606.438
50.2946 172.478 609.746
50.3404 173.182 610.301
50.3404 173.729 610.301
50.3404 174.276 610.301
50.3862 174.983 610.857
50.5705 176.172 613.09
50.5705 176.722 613.09
50.5705 177.271 613.09
50.5705 177.821 613.09
50.5705 178.371 613.09
50.6167 179.084 613.651
50.6631 179.799 614.213
51.8789 -203.332 622.19
51.8308 -202.586 621.613
51.7828 -201.842 621.037
51.7349 -201.099 620.463
51.7349 -200.542 620.463
51.8789 -200.543 622.19
51.9271 -200.17 622.767
51.8789 -199.427 622.19
51.7349 -198.317 620.463
51.7349 -197.761 620.463
51.7349 -197.205 620.463
51.7828 -196.83 621.037
51.7349 -196.092 620.463
51.7349 -195.536 620.463
51.8308 -195.341 621.613
51.8789 -194.964 622.19
51.8789 -194.406 622.19
51.8789 -193.849 622.19
51.8789 -193.291 622.19
51.9271 -192.912 622.767
51.9271 -192.353 622.767
51.8789 -191.617 622.19
52.3157 -192.668 627.428
52.3157 -192.105 627.428
52.3646 -191.722 628.015
52.4137 -191.338 628.604
52.4137 -190.775 628.604
52.4137 -190.211 628.604
52.4137 -189.648 628.604
52.4629 -189.261 629.194
52.5122 -188.874 629.784
52.611 -183.573 630.969
52.6605 -183.179 631.564
52.611 -182.441 630.969
52.611 -181.876 630.969
52.611 -181.31 630.969
52.611 -180.744 630.969
52.611 -180.178 630.969
52.6605 -179.782 631.564
52.6605 -179.216 631.564
52.7101 -178.818 632.159
53.2116 -177.086 638.174
53.2116 -176.514 638.174
53.2116 -175.942 638.174
53.2116 -175.37 638.174
53.2116 -174.797 638.174
53.2116 -174.225 638.174
53.1611 -173.488 637.567
53.1611 -172.916 637.567
53.0602 -166.312 636.357
53.1611 -166.057 637.567
53.1611 -165.485 637.567
53.2623 -165.228 638.781
53.2623 -164.655 638.781
53.3131 -164.239 639.39
53.3131 -163.665 639.39
53.364 -163.248 640
53.4149 -162.829 640.612
53.4149 -162.255 640.612
54.2965 -156.176 651.185
54.2965 -155.592 651.185
54.2965 -155.008 651.185
54.3493 -154.574 651.818
54.2965 -153.84 651.185
54.3493 -153.405 651.818
54.5082 -153.268 653.724
56.263 -119.483 674.769
56.263 -118.878 674.769
56.2065 -118.154 674.091
56.263 -117.668 674.769
56.263 -117.063 674.769
56.2065 -116.341 674.091
56.2065 -114.528 674.091
56.263 -114.038 674.769
56.3765 -113.662 676.129
56.4333 -113.17 676.812
56.5475 -112.791 678.18
56.5475 -112.183 678.18
56.6047 -111.688 678.867
56.5475 -110.967 678.18
56.6047 -110.47 678.867
56.6047 -109.862 678.867
56.6621 -109.364 679.555
56.6621 -108.755 679.555
56.6621 -108.145 679.555
56.6621 -107.536 679.555
56.6621 -106.927 679.555
56.6047 -106.21 678.867
56.6047 -105.601 678.867
56.6047 -104.993 678.867
56.6621 -104.49 679.555
56.7195 -103.986 680.244
64.7285 21.9242 776.297
64.579 22.5679 774.504
64.579 23.2623 774.504
64.7285 24.0122 776.297
64.579 24.6511 774.504
64.8787 25.4631 778.098
64.9541 27.588 779.002
65.0296 28.3193 779.907
64.9541 28.9849 779.002
64.8787 29.6489 778.098
64.5045 30.1715 773.611
64.3561 30.794 771.83
64.3561 31.486 771.83
64.4302 32.2151 772.719
64.3561 32.87 771.83
64.3561 33.562 771.83
64.2821 34.2147 770.943
64.2821 34.9059 770.943
64.2083 35.5562 770.058
64.2083 36.2466 770.058
64.2821 36.9795 770.943
64.2821 37.6707 770.943
64.2821 38.3619 770.943
64.0612 38.9189 768.294
63.9148 39.5172 766.538
63.9148 40.2045 766.538
63.8418 40.845 765.663
63.8418 41.5315 765.663
63.8418 42.218 765.663
63.8418 42.9045 765.663
63.769 43.5412 764.79
63.6964 44.1765 763.918
63.6239 44.8104 763.049
63.5516 45.4428 762.182
63.5516 46.1262 762.182
63.5516 46.8095 762.182
63.5516 47.4929 762.182
59.7494 64.5679 716.582
59.7494 65.2104 716.582
59.7494 65.8528 716.582
59.243 67.8428 710.509
59.243 68.4799 710.509
58.8689 68.6804 706.021
58.8689 69.3134 706.021
58.6221 69.6531 703.061
58.7452 70.4311 704.538
58.6221 70.9138 703.061
58.4994 71.3944 701.59
58.7452 72.3261 704.538
58.7452 72.9578 704.538
58.7452 73.5894 704.538
58.7452 74.2211 704.538
58.7452 74.8528 704.538
58.4994 75.1686 701.59
58.7452 76.1161 704.538
58.6221 76.5869 703.061
58.9931 81.5119 707.511
58.8689 83.2393 706.021
58.4994 83.3459 701.59
58.2557 83.6251 698.667
58.2557 84.2515 698.667
58.1346 84.7014 697.215
58.1346 85.3265 697.215
58.1346 85.9516 697.215
58.0139 86.3971 695.768
57.9538 86.9307 695.047
57.9538 87.5539 695.047
57.7742 88.525 692.893
57.6551 88.9624 691.464
57.4183 89.2145 688.625
57.1835 89.4645 685.808
57.0668 89.8955 684.409
57.0668 90.5091 684.409
57.0668 91.1228 684.409
57.0668 91.7364 684.409
57.0668 92.35 684.409
56.9506 92.7743 683.015
57.3007 94.5769 687.214
56.0375 98.5176 672.065
56.15 99.3192 673.414
56.15 99.9229 673.414
56.0937 100.426 672.739
56.15 101.13 673.414
56.0937 101.632 672.739
55.9254 101.929 670.72
55.8138 102.325 669.382
55.8138 102.925 669.382
55.7582 103.422 668.714
55.7582 104.022 668.714
55.4816 104.103 665.397
55.317 104.388 663.423
55.2623 104.88 662.767
55.2623 105.474 662.767
55.0447 105.65 660.158
52.3646 128.659 628.015
52.5615 129.708 630.376
52.7598 130.765 632.755
52.7598 131.332 632.755
52.3646 130.912 628.015
52.3646 131.475 628.015
52.3646 132.038 628.015
50.8413 139.677 609.746
50.8413 140.224 609.746
50.7951 140.642 609.192
50.7951 141.189 609.192
50.7951 141.735 609.192
50.8413 142.41 609.746
50.8413 142.957 609.746
50.8413 143.504 609.746
50.8413 144.05 609.746
50.8413 144.597 609.746
50.8413 145.144 609.746
50.7951 145.558 609.192
50.7951 146.104 609.192
50.7951 146.65 609.192
50.7951 147.197 609.192
50.7951 147.743 609.192
50.749 148.154 608.639
50.749 148.7 608.639
50.6571 148.975 607.537
50.5655 149.25 606.438
50.5655 149.794 606.438
50.5198 150.201 605.89
50.6571 151.154 607.537
50.6571 151.699 607.537
50.8413 152.797 609.746
50.8413 153.344 609.746
50.5655 157.949 606.438
50.4742 158.207 605.343
50.4742 158.75 605.343
50.6571 160.414 607.537
50.4742 160.378 605.343
50.4742 160.921 605.343
50.4742 161.463 605.343
50.4742 162.006 605.343
50.6571 163.138 607.537
50.5655 163.386 606.438
50.6571 164.227 607.537
50.5655 164.474 606.438
50.4742 164.72 605.343
50.4742 165.262 605.343
50.5198 170.301 605.89
50.5198 170.844 605.89
50.6571 171.853 607.537
50.8876 173.182 610.301
50.9339 173.887 610.857
50.9339 174.435 610.857
50.9339 174.983 610.857
51.1201 176.172 613.09
51.1201 176.722 613.09
51.1669 177.434 613.651
51.1669 177.984 613.651
51.1669 178.534 613.651
51.1669 179.084 613.651
51.2138 179.799 614.213
52.3881 -203.143 621.613
52.3881 -202.586 621.613
52.2912 -201.655 620.463
52.2429 -200.913 619.889
52.2429 -200.357 619.889
52.3881 -200.357 621.613
52.4367 -199.985 622.19
52.4367 -199.427 622.19
52.2912 -198.317 620.463
52.2429 -197.578 619.889
52.2429 -197.022 619.889
52.2912 -196.648 620.463
52.2429 -195.911 619.889
52.2912 -195.536 620.463
52.3881 -195.341 621.613
52.4367 -194.964 622.19
52.4367 -194.406 622.19
52.3881 -193.669 621.613
52.4367 -193.291 622.19
52.4854 -192.912 622.767
52.4854 -192.353 622.767
52.9277 -191.722 628.015
52.9277 -191.159 628.015
52.9277 -190.596 628.015
52.9773 -190.211 628.604
52.9773 -189.648 628.604
53.027 -189.261 629.194
53.1767 -183.573 630.969
53.2267 -183.179 631.564
53.1767 -182.441 630.969
53.1767 -181.876 630.969
53.1767 -181.31 630.969
53.1767 -180.744 630.969
53.1767 -180.178 630.969
53.2267 -179.782 631.564
53.2769 -179.384 632.159
53.2769 -178.818 632.159
53.7327 -176.918 637.567
53.7838 -176.514 638.174
53.7838 -175.942 638.174
53.7838 -175.37 638.174
53.7838 -174.797 638.174
53.7327 -174.06 637.567
53.7327 -173.488 637.567
53.6817 -172.752 636.961
53.6817 -166.47 636.961
53.6817 -165.899 636.961
53.7327 -165.485 637.567
53.835 -165.228 638.781
53.835 -164.655 638.781
53.8864 -164.239 639.39
53.9378 -163.822 640
53.9378 -163.248 640
53.9893 -162.829 640.612
53.9893 -162.255 640.612
55.0407 -155.461 653.087
54.9871 -154.724 652.452
54.9337 -153.99 651.818
54.8804 -153.256 651.185
54.9871 -152.97 652.452
54.9871 -152.385 652.452
57.0978 -119.359 677.495
57.0978 -118.751 677.495
57.0978 -118.144 677.495
57.0401 -117.418 676.812
56.868 -116.458 674.769
56.9253 -114.759 675.449
57.0401 -114.384 676.812
57.0401 -113.777 676.812
57.0978 -113.284 677.495
57.1555 -112.791 678.18
57.1555 -112.183 678.18
57.2133 -111.688 678.867
57.1555 -110.967 678.18
57.2133 -110.47 678.867
57.2133 -109.862 678.867
57.2713 -109.364 679.555
57.2713 -108.755 679.555
57.2713 -108.145 679.555
57.2713 -107.536 679.555
57.2713 -106.927 679.555
57.2133 -106.21 678.867
57.2133 -105.601 678.867
57.2133 -104.993 678.867
57.2713 -104.49 679.555
57.3294 -103.986 680.244
65.123 21.8231 772.719
64.9733 22.4642 770.943
65.123 23.2087 772.719
65.2734 23.9567 774.504
65.2734 24.6511 774.504
65.4245 25.4042 776.297
65.7288 27.6201 779.907
65.8053 28.3523 780.815
65.8053 29.0524 780.815
65.6525 29.6833 779.002
65.2734 30.2063 774.504
65.0481 30.794 771.83
65.0481 31.486 771.83
65.123 32.2151 772.719
65.0481 32.87 771.83
65.0481 33.562 771.83
65.0481 34.254 771.83
64.9733 34.9059 770.943
64.8987 35.5562 770.058
64.8987 36.2466 770.058
64.9733 36.9795 770.943
64.9733 37.6707 770.943
64.9733 38.3619 770.943
64.7501 38.9189 768.294
64.602 39.5172 766.538
64.5283 40.1586 765.663
64.5283 40.845 765.663
64.5283 41.5315 765.663
64.602 42.2662 766.538
64.5283 42.9045 765.663
64.4547 43.5412 764.79
64.4547 44.2269 764.79
64.3813 44.8614 763.918
64.3081 45.4945 763.049
64.3081 46.1787 763.049
64.3813 46.9162 763.918
64.8243 47.9286 769.175
60.5861 64.7755 718.886
60.5212 65.35 718.116
60.5212 65.9939 718.116
60.3919 66.4953 716.582
60.3919 67.1378 716.582
60.2631 67.6357 715.054
60.1349 68.1315 713.532
59.6274 68.1909 707.511
59.5019 68.6804 706.021
59.5019 69.3134 706.021
59.2524 69.6531 703.061
59.1284 70.1364 701.59
59.1284 70.7654 701.59
59.1284 71.3944 701.59
59.2524 72.1745 703.061
59.1284 72.6525 701.59
59.3769 73.5894 704.538
59.6274 74.5343 707.511
59.3769 74.8528 704.538
59.1284 75.1686 701.59
59.2524 75.9565 703.061
59.3769 76.7478 704.538
59.3769 77.3794 704.538
59.3769 78.0111 704.538
59.3769 78.6428 704.538
59.5019 79.4413 706.021
59.3769 79.9061 704.538
59.6274 80.8776 707.511
59.3769 81.1694 704.538
59.5019 81.9733 706.021
59.5019 82.6063 706.021
59.3769 83.0645 704.538
59.1284 83.3459 701.59
59.1284 83.975 701.59
59.1284 84.604 701.59
59.005 85.0551 700.126
59.005 85.6828 700.126
58.8821 86.1307 698.667
58.6986 86.4868 696.491
58.577 86.9307 695.047
58.6377 87.6447 695.768
58.6377 88.2685 695.768
58.3954 88.525 692.893
58.0357 88.5971 688.625
57.7984 88.8496 685.808
57.7984 89.4645 685.808
57.6804 89.8955 684.409
57.7393 90.6016 685.108
57.6804 91.1228 684.409
57.6804 91.7364 684.409
57.5629 92.1619 683.015
57.6804 92.9636 684.409
56.5268 98.3205 670.72
56.5268 98.9219 670.72
56.6401 99.7227 672.065
56.6401 100.325 672.065
56.6401 100.928 672.065
56.6401 101.53 672.065
56.414 102.325 669.382
56.414 102.925 669.382
56.3016 103.319 668.048
56.3016 103.918 668.048
56.0782 104.103 665.397
55.8565 104.285 662.767
55.8565 104.88 662.767
55.6366 105.058 660.158
55.4184 105.236 657.569
55.4184 105.826 657.569
53.1267 128.013 630.376
53.1267 128.578 630.376
53.1267 129.143 630.376
53.027 129.465 629.194
53.1267 130.273 630.376
52.9277 130.349 628.015
52.9277 130.912 628.015
52.9277 131.475 628.015
52.9277 132.038 628.015
51.388 139.677 609.746
51.3413 140.096 609.192
51.3413 140.642 609.192
51.388 141.317 609.746
51.388 141.864 609.746
51.388 142.41 609.746
51.4347 143.087 610.301
51.4347 143.634 610.301
51.4347 144.181 610.301
51.388 144.597 609.746
51.388 145.144 609.746
51.388 145.69 609.746
51.388 146.237 609.746
51.3413 146.65 609.192
51.3413 147.197 609.192
51.3413 147.743 609.192
51.3413 148.289 609.192
51.2947 148.7 608.639
51.2947 149.246 608.639
51.1555 149.385 606.987
51.2018 150.065 607.537
51.1092 150.337 606.438
51.2947 151.429 608.639
51.3413 152.112 609.192
51.388 152.797 609.746
51.388 153.344 609.746
51.1092 157.949 606.438
51.1092 158.493 606.438
51.2018 159.325 607.537
51.2018 159.869 607.537
51.1092 160.124 606.438
51.1092 160.668 606.438
51.017 160.921 605.343
51.1092 161.755 606.438
51.1092 162.299 606.438
51.2018 163.138 607.537
51.2018 163.682 607.537
51.2018 164.227 607.537
51.2018 164.772 607.537
51.1092 165.018 606.438
51.017 165.262 605.343
51.063 170.844 605.89
51.2018 171.853 607.537
51.4816 173.34 610.857
51.388 173.571 609.746
51.388 174.118 609.746
51.388 174.665 609.746
51.6698 176.172 613.09
51.6698 176.722 613.09
51.5755 176.948 611.971
51.7171 177.984 613.651
51.7171 178.534 613.651
51.7645 179.248 614.213
52.9455 -203.143 621.613
52.8964 -202.398 621.037
52.8475 -201.655 620.463
52.7986 -200.913 619.889
52.7499 -200.172 619.317
52.8964 -200.171 621.037
52.9946 -199.985 622.19
52.9455 -199.242 621.613
52.8475 -198.317 620.463
52.7986 -197.578 619.889
52.7986 -197.022 619.889
52.8475 -196.648 620.463
52.7986 -195.911 619.889
52.7986 -195.355 619.889
52.8964 -195.16 621.037
52.9455 -194.784 621.613
52.9455 -194.226 621.613
52.8475 -193.311 620.463
52.9455 -193.112 621.613
52.9946 -192.733 622.19
53.0438 -192.353 622.767
53.4908 -191.722 628.015
53.4908 -191.159 628.015
53.5409 -190.775 628.604
53.4908 -190.033 628.015
53.5409 -189.648 628.604
53.5911 -189.261 629.194
53.7424 -183.573 630.969
53.7424 -183.007 630.969
53.7424 -182.441 630.969
53.7424 -181.876 630.969
53.7424 -181.31 630.969
53.7424 -180.744 630.969
53.7424 -180.178 630.969
53.793 -179.782 631.564
53.8437 -179.384 632.159
53.8437 -178.818 632.159
54.3043 -176.918 637.567
54.356 -176.514 638.174
54.356 -175.942 638.174
54.356 -175.37 638.174
54.356 -174.797 638.174
54.3043 -174.06 637.567
54.3043 -173.488 637.567
54.2527 -172.752 636.961
54.3043 -165.485 637.567
54.4078 -165.228 638.781
54.4596 -164.812 639.39
54.5636 -164.552 640.612
54.5636 -163.978 640.612
54.5636 -163.404 640.612
54.5636 -162.829 640.612
55.5181 -155.159 651.818
55.4642 -154.424 651.185
55.4642 -153.84 651.185
55.4642 -153.256 651.185
55.5721 -152.97 652.452
55.6262 -152.533 653.087
57.7052 -117.536 677.495
57.7635 -117.047 678.18
57.5888 -114.875 676.129
57.7052 -114.499 677.495
57.7635 -114.007 678.18
57.7635 -113.399 678.18
57.822 -112.905 678.867
57.822 -112.296 678.867
57.822 -111.688 678.867
57.7635 -110.967 678.18
57.7635 -110.359 678.18
57.822 -109.862 678.867
57.822 -109.253 678.867
57.8806 -108.755 679.555
57.8806 -108.145 679.555
57.8806 -107.536 679.555
57.822 -106.819 678.867
57.822 -106.21 678.867
57.822 -105.601 678.867
57.822 -104.993 678.867
57.8806 -104.49 679.555
57.8806 -103.88 679.555
65.6645 21.773 770.943
65.6645 22.4642 770.943
65.8917 23.2355 773.611
65.9678 23.9567 774.504
65.8917 24.6227 773.611
65.9678 25.3455 774.504
66.1205 26.7962 776.297
66.1205 27.4922 776.297
66.5829 28.3853 781.725
66.3509 28.9849 779.002
66.2739 29.6489 778.098
65.8917 30.1715 773.611
65.7401 30.794 771.83
65.8158 31.5223 772.719
65.8158 32.2151 772.719
65.8158 32.9079 772.719
65.7401 33.562 771.83
65.6645 34.2147 770.943
65.5891 34.8658 770.058
65.5891 35.5562 770.058
65.5891 36.2466 770.058
65.6645 36.9795 770.943
65.6645 37.6707 770.943
65.6645 38.3619 770.943
65.4389 38.9189 768.294
65.2893 39.5172 766.538
65.2148 40.1586 765.663
65.2148 40.845 765.663
65.2148 41.5315 765.663
65.2148 42.218 765.663
65.2148 42.9045 765.663
65.1404 43.5412 764.79
65.1404 44.2269 764.79
64.9922 44.8104 763.049
64.9183 45.4428 762.182
64.9183 46.1262 762.182
65.0662 46.9162 763.918
65.2893 47.7643 766.538
61.2963 64.845 719.657
61.2306 65.4201 718.886
61.165 65.9939 718.116
61.0343 66.4953 716.582
60.9042 66.9946 715.054
60.7746 67.4918 713.532
60.2618 67.5566 707.511
60.1982 68.1191 706.765
60.1349 68.6804 706.021
60.1349 69.3134 706.021
59.82 69.5802 702.325
59.8827 70.2834 703.061
59.82 70.8395 702.325
59.7575 71.3944 701.59
60.0085 72.3261 704.538
59.8827 72.8048 703.061
60.0085 73.5894 704.538
60.2618 74.5343 707.511
60.2618 75.1686 707.511
60.0085 75.4844 704.538
60.0085 76.1161 704.538
60.1349 76.9093 706.021
60.0085 77.3794 704.538
60.0085 78.0111 704.538
60.0085 78.6428 704.538
60.0085 79.2744 704.538
60.0085 79.9061 704.538
60.2618 80.8776 707.511
60.0085 81.1694 704.538
60.2618 82.1463 707.511
60.2618 82.7806 707.511
60.2618 83.4149 707.511
60.2618 84.0493 707.511
59.695 83.8872 700.857
59.7575 84.604 701.59
59.6327 85.0551 700.126
59.6327 85.6828 700.126
59.5085 86.1307 698.667
59.2616 86.3971 695.768
59.1389 86.8408 694.328
59.2616 87.6447 695.768
59.2616 88.2685 695.768
58.7134 88.0701 689.332
58.6531 88.5971 688.625
58.5329 89.0317 687.214
58.4132 89.4645 685.808
58.3536 89.9873 685.108
58.294 90.5091 684.409
58.294 91.1228 684.409
58.294 91.7364 684.409
58.294 92.35 684.409
58.057 92.5857 681.626
57.0141 98.1243 669.382
57.3576 101.13 673.414
56.9005 102.121 668.048
56.9573 102.823 668.714
56.118 104.852 658.861
56.008 105.236 657.569
55.8984 105.619 656.282
55.6804 107.551 653.724
55.6804 108.137 653.724
53.2912 127.057 625.672
53.4908 128.096 628.015
53.4908 128.659 628.015
53.4908 129.222 628.015
53.6919 130.273 630.376
53.4908 130.349 628.015
53.4908 130.912 628.015
53.0931 130.497 623.346
53.2912 131.545 625.672
51.7465 138.626 607.537
51.8875 139.55 609.192
51.8875 140.096 609.192
51.8875 140.642 609.192
51.8404 141.061 608.639
51.8404 141.606 608.639
51.8404 142.152 608.639
51.7465 142.439 607.537
51.6997 142.854 606.987
51.8404 143.789 608.639
51.7934 144.204 608.087
51.7934 144.749 608.087
51.7465 145.163 607.537
51.7934 145.839 608.087
51.7934 146.385 608.087
51.7934 146.93 608.087
51.8875 148.835 609.192
51.8875 149.381 609.192
51.7934 149.656 608.087
51.8404 150.337 608.639
51.7465 150.61 607.537
51.8875 151.566 609.192
51.8875 152.112 609.192
51.9819 152.936 610.301
51.5597 157.121 605.343
51.6529 157.949 606.438
51.6529 158.493 606.438
51.5597 158.75 605.343
51.6529 159.58 606.438
51.5597 159.835 605.343
51.6529 160.668 606.438
51.6529 161.212 606.438
51.5597 161.463 605.343
51.7465 162.593 607.537
51.7465 163.138 607.537
51.7465 163.682 607.537
51.7465 164.227 607.537
51.7465 164.772 607.537
51.5597 165.262 605.343
51.6529 170.998 606.438
51.8875 172.321 609.192
51.9347 173.024 609.746
51.9819 173.729 610.301
51.9819 174.276 610.301
51.9819 174.823 610.301
52.1242 175.851 611.971
52.2195 176.722 613.09
52.1242 176.948 611.971
52.2673 177.984 613.651
52.2673 178.534 613.651
53.5524 -203.332 622.19
53.5028 -202.586 621.613
53.4532 -201.842 621.037
53.3544 -200.913 619.889
53.3544 -200.357 619.889
53.4532 -200.171 621.037
53.6021 -200.17 622.767
53.5524 -199.427 622.19
53.4038 -198.317 620.463
53.3544 -197.578 619.889
53.3544 -197.022 619.889
53.4038 -196.648 620.463
53.3544 -195.911 619.889
53.3544 -195.355 619.889
53.4532 -195.16 621.037
53.5028 -194.784 621.613
53.5028 -194.226 621.613
53.3544 -193.132 619.889
53.4532 -192.933 621.037
53.5524 -192.733 622.19
53.6021 -192.353 622.767
54.0538 -192.285 628.015
54.1045 -191.902 628.604
54.1552 -191.518 629.194
54.1045 -190.775 628.604
54.0538 -190.033 628.015
54.0538 -189.47 628.015
54.1045 -189.084 628.604
54.3081 -183.573 630.969
54.3081 -183.007 630.969
54.3081 -182.441 630.969
54.257 -181.705 630.376
54.257 -181.139 630.376
54.257 -180.574 630.376
54.257 -180.009 630.376
54.3592 -179.782 631.564
54.4104 -179.384 632.159
54.4104 -178.818 632.159
54.9281 -177.086 638.174
54.9281 -176.514 638.174
54.9281 -175.942 638.174
54.9805 -175.537 638.781
54.9281 -174.797 638.174
54.8759 -174.06 637.567
54.8759 -173.488 637.567
54.8238 -172.752 636.961
54.8759 -165.485 637.567
54.9805 -165.228 638.781
55.0854 -164.969 640
55.138 -164.552 640.612
55.8312 -154.408 648.666
55.8312 -153.827 648.666
55.8312 -153.245 648.666
55.7773 -152.516 648.039
55.9937 -152.524 650.553
56.1571 -152.385 652.452
55.9937 -151.358 650.553
55.7234 -149.467 647.414
55.6697 -148.743 646.789
55.5625 -147.877 645.544
58.3716 -117.655 678.18
58.3716 -117.047 678.18
58.2538 -114.991 676.812
58.3126 -114.499 677.495
58.4307 -112.905 678.867
58.4307 -112.296 678.867
58.4307 -111.688 678.867
58.4307 -111.079 678.867
58.4307 -110.47 678.867
58.4899 -109.973 679.555
58.4899 -109.364 679.555
58.4899 -108.755 679.555
58.4899 -108.145 679.555
58.4899 -107.536 679.555
58.4899 -106.927 679.555
58.4307 -106.21 678.867
58.4307 -105.601 678.867
58.4899 -105.099 679.555
58.4899 -104.49 679.555
58.4899 -103.88 679.555
58.4307 -103.167 678.867
66.5086 21.8231 772.719
66.5086 22.5159 772.719
66.5853 23.2355 773.611
66.6622 23.9567 774.504
66.6622 24.6511 774.504
66.5086 25.2871 772.719
66.9716 27.556 778.098
67.1273 28.3193 779.907
67.1273 29.0186 779.907
66.9716 29.6489 778.098
66.5853 30.1715 773.611
66.4321 30.794 771.83
66.4321 31.486 771.83
66.5086 32.2151 772.719
66.5086 32.9079 772.719
66.4321 33.562 771.83
66.3557 34.2147 770.943
66.2035 34.8258 769.175
66.2795 35.5562 770.058
66.2795 36.2466 770.058
66.3557 36.9795 770.943
66.3557 37.6707 770.943
66.3557 38.3619 770.943
66.1277 38.9189 768.294
65.9766 39.5172 766.538
65.9012 40.1586 765.663
65.9012 40.845 765.663
65.9012 41.5315 765.663
65.9012 42.218 765.663
65.9012 42.9045 765.663
65.8261 43.5412 764.79
65.7511 44.1765 763.918
65.5272 44.7087 761.317
65.4529 45.3398 760.454
65.4529 46.0216 760.454
65.6017 46.8095 762.182
61.9415 64.845 719.657
61.9415 65.4902 719.657
61.6768 65.8528 716.582
61.6768 66.4953 716.582
61.6768 67.1378 716.582
61.4144 67.4918 713.532
61.1541 67.8428 710.509
60.8961 68.1909 707.511
60.8319 68.7527 706.765
60.7679 69.3134 706.021
60.6402 69.7994 704.538
60.7679 70.5794 706.021
60.5131 70.9138 703.061
60.6402 71.6944 704.538
60.6402 72.3261 704.538
60.6402 72.9578 704.538
60.6402 73.5894 704.538
60.8961 74.5343 707.511
60.6402 74.8528 704.538
60.6402 75.4844 704.538
60.6402 76.1161 704.538
60.7679 76.9093 706.021
60.6402 77.3794 704.538
60.7679 78.1753 706.021
60.5131 78.4779 703.061
60.5131 79.1083 703.061
60.7679 80.0743 706.021
60.8319 80.7924 706.765
60.6402 81.1694 704.538
60.7679 81.9733 706.021
60.7679 82.6063 706.021
60.8961 83.4149 707.511
60.5131 83.5207 703.061
60.3865 83.975 701.59
60.5131 84.7814 703.061
60.1349 84.8779 698.667
60.2604 85.6828 700.126
60.1349 86.1307 698.667
59.8233 86.3076 695.047
59.7614 86.8408 694.328
59.7614 87.4633 694.328
59.5149 87.7225 691.464
59.3925 88.1607 690.042
59.3314 88.6881 689.332
59.1491 89.0317 687.214
59.0281 89.4645 685.808
58.9678 89.9873 685.108
58.9678 90.6016 685.108
58.9076 91.1228 684.409
58.9076 91.7364 684.409
56.5975 105.236 657.569
56.048 105.382 651.185
56.048 106.55 651.185
56.048 107.133 651.185
56.1025 107.822 651.818
56.048 108.301 651.185
55.9394 108.674 649.923
55.8312 109.045 648.666
55.7773 109.521 648.039
53.6519 126.585 623.346
54.0538 128.096 628.015
54.0538 128.659 628.015
54.1552 129.465 629.194
54.1552 130.029 629.194
54.0538 130.349 628.015
54.0538 130.912 628.015
53.6519 130.497 623.346
53.6519 131.056 623.346
53.5524 131.371 622.19
52.3861 138.878 608.639
52.3861 139.423 608.639
52.4337 140.096 609.192
52.3861 140.515 608.639
52.3861 141.061 608.639
52.4337 141.735 609.192
52.3861 142.152 608.639
52.1495 142.053 605.89
52.2439 142.854 606.987
52.3861 143.789 608.639
52.3386 144.204 608.087
52.2912 144.618 607.537
52.2912 145.163 607.537
52.3861 145.972 608.639
52.3861 146.517 608.639
52.4337 149.928 609.192
52.4337 150.474 609.192
52.4337 151.02 609.192
52.4337 151.566 609.192
52.4337 152.112 609.192
52.1024 157.121 605.343
52.1024 157.664 605.343
52.1024 158.207 605.343
52.0085 158.464 604.253
52.1024 159.292 605.343
52.0554 159.691 604.797
52.1024 160.378 605.343
52.1024 160.921 605.343
51.915 160.882 603.166
52.4814 163.184 609.746
52.4814 163.731 609.746
52.1024 163.091 605.343
52.1966 163.93 606.438
52.4814 172.478 609.746
52.577 173.34 610.857
52.5291 173.729 610.301
52.4814 174.118 609.746
52.4814 174.665 609.746
52.577 175.53 610.857
52.4814 175.758 609.746
52.577 176.626 610.857
54.0601 -203.701 621.613
54.0601 -203.143 621.613
53.9601 -202.211 620.463
53.9601 -201.655 620.463
53.9102 -200.913 619.889
53.8604 -200.172 619.317
53.9601 -199.986 620.463
54.1102 -199.985 622.19
54.0601 -199.242 621.613
53.9102 -198.134 619.889
53.8604 -197.396 619.317
53.9102 -197.022 619.889
53.9102 -196.467 619.889
53.9102 -195.911 619.889
53.9102 -195.355 619.889
53.9601 -194.979 620.463
54.01 -194.603 621.037
54.01 -194.046 621.037
53.9102 -193.132 619.889
53.9601 -192.754 620.463
54.1102 -192.733 622.19
54.2108 -192.532 623.346
54.2612 -192.152 623.926
54.6169 -192.848 628.015
54.7194 -192.646 629.194
54.8222 -192.443 630.376
54.8738 -192.058 630.969
54.6681 -190.775 628.604
54.6681 -190.211 628.604
54.6681 -189.648 628.604
54.7194 -189.261 629.194
54.8738 -183.573 630.969
54.9255 -183.179 631.564
54.8738 -182.441 630.969
54.8222 -181.705 630.376
54.7707 -180.969 629.784
54.7707 -180.405 629.784
54.8222 -180.009 630.376
54.8738 -179.613 630.969
54.9255 -179.216 631.564
54.9772 -178.818 632.159
55.5003 -177.086 638.174
55.5003 -176.514 638.174
55.5532 -176.109 638.781
55.6061 -175.704 639.39
55.5532 -174.964 638.781
55.5003 -174.225 638.174
55.5003 -173.653 638.174
55.6592 -165.543 640
55.7124 -165.127 640.612
55.8724 -165.025 642.452
56.4674 -155.14 649.294
56.4674 -154.558 649.294
56.4674 -153.976 649.294
56.4128 -153.245 648.666
56.3583 -152.516 648.039
56.4674 -152.229 649.294
56.577 -151.941 650.553
56.4674 -151.065 649.294
56.3583 -150.192 648.039
56.3583 -149.611 648.039
56.3583 -149.03 648.039
58.92 -115.107 677.495
58.9796 -114.615 678.18
59.0393 -113.514 678.867
59.0991 -113.019 679.555
59.0393 -112.296 678.867
59.0991 -111.801 679.555
59.0393 -111.079 678.867
59.0393 -110.47 678.867
59.0991 -109.973 679.555
59.0991 -109.364 679.555
59.0991 -108.755 679.555
59.0393 -108.036 678.867
59.0991 -107.536 679.555
59.0393 -106.819 678.867
59.0393 -106.21 678.867
59.0393 -105.601 678.867
59.0991 -105.099 679.555
59.1591 -104.596 680.244
59.2191 -104.091 680.934
67.3566 21.1791 774.504
67.2014 21.8231 772.719
67.2789 22.5419 773.611
67.2789 23.2355 773.611
67.2789 23.9291 773.611
67.3566 24.6511 774.504
67.2789 25.3163 773.611
67.3566 26.0399 774.504
67.5125 26.7962 776.297
67.6692 27.556 778.098
67.5125 28.1882 776.297
67.6692 28.9512 778.098
67.2789 29.4779 773.611
67.1241 30.102 771.83
66.97 30.7233 770.058
67.0469 31.4499 770.943
67.1241 32.178 771.83
67.0469 32.8323 770.943
67.0469 33.5235 770.943
66.97 34.1754 770.058
66.7401 34.7461 767.415
66.7401 35.4342 767.415
66.8165 36.1636 768.294
66.97 36.937 770.058
67.0469 37.6707 770.943
66.97 38.3179 770.058
66.7401 38.8744 767.415
66.6638 39.5172 766.538
66.5877 40.1586 765.663
66.5877 40.845 765.663
66.5877 41.5315 765.663
66.5877 42.218 765.663
66.5877 42.9045 765.663
66.5118 43.5412 764.79
66.3605 44.1263 763.049
66.2098 44.7087 761.317
66.1347 45.3398 760.454
66.285 46.1262 762.182
62.3193 64.5679 716.582
62.3193 65.2104 716.582
62.3193 65.8528 716.582
62.1864 66.3535 715.054
62.1864 66.9946 715.054
62.3193 67.7802 716.582
61.7911 67.8428 710.509
61.6605 68.3351 709.007
61.5304 68.8253 707.511
61.5304 69.4596 707.511
61.5304 70.0939 707.511
61.4656 70.6537 706.765
61.4009 71.2124 706.021
61.4009 71.8454 706.021
61.4656 72.5547 706.765
61.4656 73.1884 706.765
61.4656 73.8221 706.765
61.4656 74.4557 706.765
61.4009 75.0104 706.021
61.2719 75.4844 704.538
61.2719 76.1161 704.538
61.2719 76.7478 704.538
61.2719 77.3794 704.538
61.2719 78.0111 704.538
61.1434 78.4779 703.061
61.2719 79.2744 704.538
61.4009 80.0743 706.021
61.4656 80.7924 706.765
61.4009 81.3403 706.021
61.4009 81.9733 706.021
61.4009 82.6063 706.021
61.2719 83.0645 704.538
61.0155 83.3459 701.59
61.0155 83.975 701.59
60.8881 84.4274 700.126
60.7613 84.8779 698.667
60.7613 85.5043 698.667
60.635 85.9516 697.215
60.5092 86.3971 695.768
60.4465 86.9307 695.047
60.5092 87.6447 695.768
60.5092 88.2685 695.768
60.0112 88.1607 690.042
59.8879 88.5971 688.625
59.7652 89.0317 687.214
59.5213 89.2819 684.409
59.5821 89.9873 685.108
59.5213 90.5091 684.409
59.5213 91.1228 684.409
59.2793 91.3635 681.626
59.0393 91.6022 678.867
59.0393 92.2109 678.867
57.1871 105.236 657.569
56.9637 105.412 655
56.7421 105.587 652.452
56.7421 106.757 652.452
56.7421 107.342 652.452
56.7421 107.927 652.452
56.6869 108.406 651.818
56.7421 109.097 652.452
56.7421 109.682 652.452
56.7421 110.267 652.452
54.1102 126.35 622.19
54.1102 126.908 622.19
54.01 127.23 621.037
54.8222 129.708 630.376
54.8222 130.273 630.376
54.6169 130.912 628.015
54.6169 131.475 628.015
54.01 130.571 621.037
54.2108 131.615 623.346
53.028 139.13 609.746
52.9318 139.423 608.639
52.9318 139.969 608.639
52.9318 140.515 608.639
52.9799 141.189 609.192
52.9318 141.606 608.639
52.8359 141.894 607.537
52.7404 142.181 606.438
52.7881 142.854 606.987
52.9318 143.789 608.639
52.8359 144.073 607.537
52.8359 144.618 607.537
52.9318 145.426 608.639
53.028 150.611 609.746
53.028 151.157 609.746
53.028 151.704 609.746
52.8359 151.699 607.537
52.2678 152.762 601.004
52.4558 153.852 603.166
52.4558 154.393 603.166
52.4558 156.015 603.166
52.6452 157.121 605.343
52.5503 157.38 604.253
52.4558 157.638 603.166
52.4558 158.179 603.166
52.6452 159.292 605.343
52.7404 160.124 606.438
52.8359 160.959 607.537
52.7404 161.212 606.438
52.8359 162.048 607.537
52.8359 162.593 607.537
52.8359 163.138 607.537
52.8359 163.682 607.537
53.028 172.478 609.746
53.1246 173.34 610.857
53.1246 173.887 610.857
53.028 174.118 609.746
53.028 174.665 609.746
53.0763 175.371 610.301
53.1246 176.078 610.857
53.028 176.305 609.746
52.5977 181.923 604.797
52.5977 182.465 604.797
52.4558 182.514 603.166
52.5977 183.55 604.797
54.6681 -203.89 622.19
54.6681 -203.332 622.19
54.5668 -202.398 621.037
54.5668 -201.842 621.037
54.466 -200.913 619.889
54.4157 -200.172 619.317
54.5164 -199.986 620.463
54.6681 -199.985 622.19
54.6174 -199.242 621.613
54.4157 -197.951 619.317
54.4157 -197.396 619.317
54.4157 -196.84 619.317
54.4157 -196.285 619.317
54.4157 -195.73 619.317
54.4157 -195.175 619.317
54.4157 -194.619 619.317
54.466 -194.243 619.889
54.466 -193.688 619.889
54.4157 -192.954 619.317
54.466 -192.576 619.889
54.6681 -192.733 622.19
54.7697 -192.532 623.346
54.8206 -192.152 623.926
55.2835 -192.646 629.194
55.4395 -192.624 630.969
55.4395 -192.058 630.969
55.3354 -191.133 629.784
55.2835 -190.39 629.194
55.2835 -189.825 629.194
55.3354 -189.439 629.784
55.4395 -184.138 630.969
55.4917 -183.745 631.564
55.4917 -183.179 631.564
55.4395 -182.441 630.969
55.4395 -181.876 630.969
55.3874 -181.139 630.376
55.3874 -180.574 630.376
55.4395 -180.178 630.969
55.4917 -179.782 631.564
55.4917 -179.216 631.564
55.544 -178.818 632.159
56.0725 -176.514 638.174
56.1259 -176.109 638.781
56.233 -165.543 640
56.4484 -165.601 642.452
57.0495 -155.14 649.294
57.0495 -154.558 649.294
57.0495 -153.976 649.294
57.1048 -153.542 649.923
57.0495 -152.811 649.294
57.1602 -152.524 650.553
57.2713 -152.237 651.818
57.1602 -151.358 650.553
56.9944 -150.337 648.666
56.9393 -149.611 648.039
56.9393 -149.03 648.039
59.5877 -114.615 678.18
59.5877 -114.007 678.18
59.5877 -113.399 678.18
59.648 -112.905 678.867
59.648 -112.296 678.867
59.648 -111.688 678.867
59.648 -111.079 678.867
59.648 -110.47 678.867
59.648 -109.862 678.867
59.7084 -109.364 679.555
59.7084 -108.755 679.555
59.7084 -108.145 679.555
59.7084 -107.536 679.555
59.7084 -106.927 679.555
59.648 -106.21 678.867
59.648 -105.601 678.867
59.7084 -105.099 679.555
59.8296 -104.702 680.934
68.051 21.1791 774.504
67.7381 21.773 770.943
67.8942 22.5159 772.719
67.9725 23.2355 773.611
67.9725 23.9291 773.611
67.8942 24.5943 772.719
67.8942 25.2871 772.719
68.051 26.0399 774.504
68.3668 26.8584 778.098
68.4462 27.588 779.002
68.3668 28.2536 778.098
68.2085 28.8842 776.297
67.9725 29.4779 773.611
67.7381 30.0674 770.943
67.6604 30.7233 770.058
67.7381 31.4499 770.943
67.7381 32.1411 770.943
67.7381 32.8323 770.943
67.6604 33.485 770.058
67.5828 34.1362 769.175
67.4281 34.7461 767.415
67.4281 35.4342 767.415
67.5054 36.1636 768.294
67.6604 36.937 770.058
67.7381 37.6707 770.943
67.6604 38.3179 770.058
67.5054 38.9189 768.294
67.3511 39.5172 766.538
67.3511 40.2045 766.538
67.3511 40.8917 766.538
67.3511 41.579 766.538
67.5828 42.4116 769.175
67.5828 43.1013 769.175
67.5828 43.7909 769.175
67.1209 44.1765 763.918
66.9684 44.7595 762.182
66.9684 45.4428 762.182
66.9684 46.1262 762.182
62.9617 64.5679 716.582
62.9617 65.2104 716.582
62.9617 65.8528 716.582
62.8275 66.3535 715.054
62.8275 66.9946 715.054
62.5607 67.3485 712.017
62.4282 67.8428 710.509
62.4282 68.4799 710.509
62.2962 68.9708 709.007
62.4282 69.7539 710.509
62.1648 70.0939 707.511
62.1648 70.7283 707.511
62.1648 71.3626 707.511
62.0992 71.9211 706.765
62.0992 72.5547 706.765
62.0992 73.1884 706.765
62.0992 73.8221 706.765
62.1648 74.5343 707.511
62.0339 75.0104 706.021
62.0339 75.6434 706.021
61.9035 76.1161 704.538
61.9686 76.8285 705.279
61.9035 77.3794 704.538
62.0339 78.1753 706.021
61.9035 78.6428 704.538
61.9035 79.2744 704.538
61.9686 79.9901 705.279
62.0992 80.7924 706.765
61.9686 81.2548 705.279
61.9035 81.8011 704.538
61.7738 82.26 703.061
61.7738 82.8903 703.061
61.7091 83.4332 702.325
61.6445 83.975 701.59
61.7091 84.6926 702.325
61.3877 84.8779 698.667
61.3877 85.5043 698.667
61.3877 86.1307 698.667
61.133 86.3971 695.768
61.0696 86.9307 695.047
61.133 87.6447 695.768
61.133 88.2685 695.768
60.5053 87.9797 688.625
60.3813 88.4155 687.214
60.2579 88.8496 685.808
60.1349 89.2819 684.409
60.1963 89.9873 685.108
60.1349 90.5091 684.409
60.0736 91.0299 683.711
60.0124 91.5495 683.015
59.8904 91.9746 681.626
59.8904 92.5857 681.626
57.551 104.238 655
57.6636 105.03 656.282
57.6636 105.619 656.282
57.4388 105.793 653.724
57.4388 106.379 653.724
57.4388 106.965 653.724
57.4388 107.551 653.724
57.4388 108.137 653.724
57.327 108.512 652.452
57.2713 108.991 651.818
54.7697 125.467 623.346
54.6681 125.792 622.19
54.6681 126.35 622.19
54.6681 126.908 622.19
54.6681 127.466 622.19
54.6681 128.024 622.19
54.6681 128.582 622.19
55.3874 130.839 630.376
55.2835 131.157 629.194
54.466 129.774 619.889
54.5668 130.571 621.037
54.466 130.885 619.889
53.3806 138.626 607.537
53.3806 139.171 607.537
53.3806 139.716 607.537
53.4775 140.515 608.639
53.4775 141.061 608.639
53.5261 141.735 609.192
53.4775 142.152 608.639
53.2841 142.181 606.438
53.2841 142.725 606.438
53.429 143.659 608.087
53.3806 144.073 607.537
53.4775 144.88 608.639
53.4775 145.426 608.639
53.5261 151.02 609.192
53.5747 151.704 609.746
53.5747 152.251 609.746
53.0921 153.588 604.253
53.1399 154.268 604.797
53.1399 154.811 604.797
53.0921 155.213 604.253
53.0921 155.755 604.253
52.9966 156.015 603.166
53.1399 156.98 604.797
53.1399 157.522 604.797
52.9966 157.638 603.166
52.9966 158.179 603.166
53.1879 159.292 605.343
53.2841 160.124 606.438
53.3806 163.682 607.537
53.6235 172.635 610.301
53.6235 173.182 610.301
53.6723 173.887 610.857
53.5747 174.118 609.746
53.6235 174.823 610.301
53.6235 175.371 610.301
53.6235 175.918 610.301
53.6723 176.626 610.857
53.1399 181.923 604.797
52.9966 181.973 603.166
52.9966 182.514 603.166
53.1399 183.55 604.797
53.1399 184.092 604.797
55.2772 -204.637 622.767
55.2772 -204.079 622.767
55.2259 -203.332 622.19
55.1747 -202.586 621.613
55.0727 -201.655 620.463
55.0218 -200.913 619.889
55.0218 -200.357 619.889
55.1747 -200.357 621.613
55.2772 -200.17 622.767
55.1236 -199.058 621.037
54.9709 -197.951 619.317
54.9202 -197.214 618.746
54.9709 -196.84 619.317
54.9709 -196.285 619.317
54.9202 -195.549 618.746
54.9709 -195.175 619.317
54.9709 -194.619 619.317
54.9709 -194.064 619.317
54.9709 -193.509 619.317
54.9709 -192.954 619.317
55.1236 -192.933 621.037
55.2772 -192.912 622.767
55.38 -192.711 623.926
55.4833 -192.51 625.089
55.9 -192.827 629.784
55.9526 -192.443 630.376
56.0052 -192.058 630.969
55.9526 -191.313 630.376
55.9 -190.568 629.784
55.9 -190.004 629.784
56.0052 -189.795 630.969
56.0052 -184.138 630.969
56.0052 -183.573 630.969
56.0052 -183.007 630.969
55.9526 -182.27 630.376
55.9 -181.534 629.784
55.9 -180.969 629.784
55.9 -180.405 629.784
55.9 -179.84 629.784
55.9526 -179.444 630.376
56.0052 -179.047 630.969
56.0052 -178.481 630.969
56.9154 -165.86 641.224
57.6317 -154.558 649.294
57.7435 -154.274 650.553
57.7435 -153.691 650.553
57.6875 -152.959 649.923
57.7995 -152.673 651.185
57.8557 -152.237 651.818
57.7995 -151.505 651.185
57.576 -150.337 648.666
57.5203 -149.611 648.039
57.4648 -148.886 647.414
60.1349 -113.892 677.495
60.1349 -113.284 677.495
60.2566 -112.905 678.867
60.2566 -112.296 678.867
60.2566 -111.688 678.867
60.2566 -111.079 678.867
60.2566 -110.47 678.867
60.3177 -109.973 679.555
60.3177 -109.364 679.555
60.3177 -108.755 679.555
60.2566 -108.036 678.867
60.2566 -107.427 678.867
60.2566 -106.819 678.867
60.2566 -106.21 678.867
60.1957 -105.494 678.18
60.2566 -104.993 678.867
60.3177 -104.49 679.555
68.587 21.1303 772.719
68.587 21.8231 772.719
68.587 22.5159 772.719
68.6661 23.2355 773.611
68.587 23.9015 772.719
68.6661 24.6227 773.611
68.6661 25.3163 773.611
68.6661 26.0099 773.611
68.7454 26.7343 774.504
68.9844 27.5241 777.196
69.0644 28.2536 778.098
68.9844 28.9177 777.196
68.6661 29.4779 773.611
68.5081 30.102 771.83
68.4294 30.7586 770.943
68.5081 31.486 771.83
68.5081 32.178 771.83
68.4294 32.8323 770.943
68.4294 33.5235 770.943
68.2724 34.1362 769.175
68.1162 34.7461 767.415
68.1162 35.4342 767.415
68.1942 36.1636 768.294
68.3508 36.937 770.058
68.4294 37.6707 770.943
68.4294 38.3619 770.943
68.2724 38.9635 769.175
68.1942 39.6077 768.294
68.1162 40.2505 767.415
68.1162 40.9385 767.415
68.2724 41.722 769.175
68.2724 42.4116 769.175
68.2724 43.1013 769.175
68.2724 43.7909 769.175
68.2724 44.4805 769.175
67.9607 44.9639 765.663
67.9607 45.6503 765.663
67.6517 46.1262 762.182
67.6517 46.8095 762.182
63.6042 65.2104 716.582
63.3335 65.5726 713.532
63.4686 66.3535 715.054
63.4686 66.9946 715.054
63.1991 67.3485 712.017
63.1991 67.9869 712.017
63.0652 68.4799 710.509
63.0652 69.1169 710.509
63.1991 69.902 712.017
62.9319 70.2421 709.007
62.7991 70.7283 707.511
62.7991 71.3626 707.511
62.7991 71.9969 707.511
62.7991 72.6313 707.511
62.7991 73.2656 707.511
62.7329 73.8221 706.765
62.7329 74.4557 706.765
62.7329 75.0894 706.765
62.7329 75.7231 706.765
62.6669 76.2763 706.021
62.6669 76.9093 706.021
62.6669 77.5424 706.021
62.7329 78.2577 706.765
62.6669 78.8083 706.021
62.6669 79.4413 706.021
62.7329 80.1587 706.765
62.7329 80.7924 706.765
62.6669 81.3403 706.021
62.5352 81.8011 704.538
62.2736 82.0879 701.59
62.2736 82.7169 701.59
62.2736 83.3459 701.59
62.2736 83.975 701.59
62.2736 84.604 701.59
61.8852 84.7014 697.215
61.8852 85.3265 697.215
61.8852 85.9516 697.215
61.6928 86.3076 695.047
61.7568 87.0209 695.768
61.7568 87.6447 695.768
61.7568 88.2685 695.768
61.1227 87.9797 688.625
61.2485 88.7794 690.042
60.8727 88.8496 685.808
60.8727 89.4645 685.808
60.7485 89.8955 684.409
60.7485 90.5091 684.409
60.6248 90.9372 683.015
60.3788 91.1781 680.244
58.252 104.442 656.282
58.252 105.03 656.282
58.252 105.619 656.282
58.1382 105.999 655
58.0249 106.379 653.724
58.1382 107.174 655
58.1382 107.761 655
58.1382 108.348 655
57.912 108.512 652.452
57.912 109.097 652.452
55.2259 125.235 622.19
55.3286 126.026 623.346
55.2259 126.35 622.19
55.2259 126.908 622.19
55.2772 127.584 622.767
55.2772 128.143 622.767
55.2772 128.701 622.767
55.2772 129.259 622.767
55.2259 129.697 622.19
55.2259 130.255 622.19
55.2259 130.813 622.19
55.1236 131.127 621.037
54.1214 138.584 609.746
53.9253 138.626 607.537
53.8278 138.919 606.438
53.9253 139.716 607.537
53.9253 140.26 607.537
54.0232 141.061 608.639
54.1214 141.864 609.746
54.0232 142.152 608.639
53.8278 142.181 606.438
53.7792 142.596 605.89
53.9253 143.528 607.537
53.8278 143.813 606.438
53.9253 144.618 607.537
54.1214 151.704 609.746
53.7306 153.865 605.343
53.7306 154.408 605.343
53.7306 154.95 605.343
53.6822 155.353 604.797
53.6822 155.895 604.797
53.7306 156.579 605.343
53.7792 157.263 605.89
53.7306 157.664 605.343
53.7792 158.35 605.89
53.7306 158.75 605.343
53.7306 159.292 605.343
53.7306 159.835 605.343
53.5374 159.801 603.166
53.7306 160.921 605.343
53.8278 170.998 606.438
54.22 172.792 610.857
54.3189 173.656 611.971
54.1214 173.571 609.746
54.1214 174.665 609.746
54.1214 175.211 609.746
54.1214 175.758 609.746
53.6822 180.838 604.797
53.6822 181.381 604.797
53.6822 181.923 604.797
53.6822 182.465 604.797
53.6822 183.007 604.797
53.6822 183.55 604.797
53.6822 184.092 604.797
55.7837 -203.89 622.19
55.7837 -203.332 622.19
55.7321 -202.586 621.613
55.7321 -202.029 621.613
55.6805 -201.285 621.037
55.7321 -200.914 621.613
55.8355 -200.729 622.767
55.8874 -200.356 623.346
55.8355 -199.612 622.767
55.5775 -198.134 619.889
55.5262 -197.396 619.317
55.5262 -196.84 619.317
55.5262 -196.285 619.317
55.5262 -195.73 619.317
55.5775 -195.355 619.889
55.5775 -194.799 619.889
55.5262 -194.064 619.317
55.5775 -193.688 619.889
55.5262 -192.954 619.317
55.7321 -193.112 621.613
55.8355 -192.912 622.767
55.9394 -192.711 623.926
56.2008 -193.05 626.842
56.3061 -192.848 628.015
56.4647 -192.827 629.784
56.5177 -192.443 630.376
56.6242 -192.239 631.564
56.5709 -191.493 630.969
56.5709 -190.927 630.969
56.5709 -190.361 630.969
56.6242 -189.974 631.564
56.6775 -189.586 632.159
56.4647 -183.793 629.784
56.5177 -183.4 630.376
56.5177 -182.835 630.376
56.4647 -182.099 629.784
56.4647 -181.534 629.784
56.4117 -180.8 629.194
56.4117 -180.235 629.194
56.4647 -179.84 629.784
56.5177 -179.444 630.376
56.5709 -179.047 630.969
56.5709 -178.481 630.969
56.5177 -177.748 630.376
57.6005 -166.177 642.452
58.2702 -154.707 649.923
58.2702 -154.125 649.923
58.3268 -153.691 650.553
58.2702 -152.959 649.923
58.3268 -152.524 650.553
58.3268 -151.941 650.553
58.2138 -151.065 649.294
58.1575 -150.337 648.666
58.1013 -149.611 648.039
58.0453 -148.886 647.414
60.7423 -113.892 677.495
60.6198 -113.056 676.129
60.8037 -112.791 678.18
60.8653 -112.296 678.867
60.8653 -111.688 678.867
60.8653 -111.079 678.867
60.8653 -110.47 678.867
60.9269 -109.973 679.555
60.9269 -109.364 679.555
60.9269 -108.755 679.555
60.9269 -108.145 679.555
60.9269 -107.536 679.555
60.9269 -106.927 679.555
60.8653 -106.21 678.867
60.8653 -105.601 678.867
60.9269 -105.099 679.555
61.0506 -104.702 680.934
69.2798 21.1303 772.719
69.2798 21.8231 772.719
69.2798 22.5159 772.719
69.2798 23.2087 772.719
69.2798 23.9015 772.719
69.3597 24.6227 773.611
69.3597 25.3163 773.611
69.4398 26.0399 774.504
69.6812 26.8273 777.196
69.762 27.556 778.098
69.8431 28.2864 779.002
69.762 28.9512 778.098
69.3597 29.4779 773.611
69.2798 30.1367 772.719
69.2001 30.794 771.83
69.2001 31.486 771.83
69.2001 32.178 771.83
69.2001 32.87 771.83
69.1206 33.5235 770.943
68.962 34.1362 769.175
68.883 34.7859 768.294
68.8042 35.4342 767.415
68.883 36.1636 768.294
69.0412 36.937 770.058
69.1206 37.6707 770.943
69.2001 38.4061 771.83
69.1206 39.0531 770.943
69.0412 39.6987 770.058
69.0412 40.3891 770.058
69.0412 41.0795 770.058
69.1206 41.8179 770.943
69.2798 42.6071 772.719
68.962 44.4805 769.175
68.3351 44.7595 762.182
68.3351 45.4428 762.182
64.1097 65.7124 715.054
63.9733 66.2123 713.532
63.9733 66.8521 713.532
63.9733 67.4918 713.532
63.9053 68.0591 712.774
63.9053 68.6982 712.774
63.8375 69.2636 712.017
63.9733 70.0507 713.532
