ply
format ascii 1.0
element vertex 1914
property float x
property float y
property float z
end_header
-70.4244 186.604 470.351
-95.7747 -83.2949 647.414
-95.6823 -82.0548 646.789
-95.8672 -81.0514 648.039
-95.8672 -79.8893 648.039
-95.8672 -78.7273 648.039
-95.9599 -77.6403 648.666
-96.2391 -76.6997 650.553
-96.3326 -75.6065 651.185
-96.0528 -74.2226 649.294
-95.9599 -72.9877 648.666
-95.9599 -71.8245 648.666
-95.9599 -70.6614 648.666
-95.9599 -69.4982 648.666
-96.1459 -68.4675 649.923
-96.0528 -67.237 649.294
-95.8672 -65.945 648.039
-95.7747 -64.7205 647.414
-95.4063 -63.3151 644.923
-95.0408 -61.9205 642.452
-94.9498 -60.7103 641.838
-94.678 -59.3889 640
-94.318 -58.0199 637.567
-95.4063 -57.5329 644.923
-95.8672 -56.6488 648.039
-95.6823 -55.3798 646.789
-95.5901 -54.1677 646.166
-95.2232 -52.8056 643.686
-95.2232 -51.6514 643.686
-95.1319 -50.4487 643.068
-95.1319 -49.2956 643.068
-95.4063 -48.2814 644.923
-97.0867 -47.9549 656.282
-97.0867 -46.7781 656.282
-97.1817 -45.646 656.925
-97.0867 -44.4245 656.282
-96.897 -43.1632 655
-96.614 -41.8661 653.087
-96.52 -40.6554 652.452
-96.614 -39.5239 653.087
-96.614 -38.3528 653.087
-96.8025 -37.2543 654.361
-96.897 -36.1162 655
-96.9917 -34.9758 655.641
-96.897 -33.7671 655
-97.0867 -32.6564 656.282
-97.1817 -31.5104 656.925
-97.0867 -30.3028 656.282
-99.4214 -29.8264 672.065
-99.7212 -28.7076 674.091
-99.8215 -27.5265 674.769
-100.225 -26.4229 677.495
-100.326 -25.2335 678.18
-100.225 -23.9932 677.495
-100.124 -22.7554 676.812
-99.922 -21.4984 675.449
-99.922 -20.2872 675.449
-99.922 -19.076 675.449
-99.8215 -17.8469 674.769
-99.7212 -16.6202 674.091
-99.8215 -15.427 674.769
-99.7212 -14.2027 674.091
-99.621 -12.9809 673.414
-99.621 -11.7734 673.414
-99.2226 -10.5236 670.72
-99.1234 -9.31159 670.05
-99.1234 -8.1101 670.05
-99.0245 -6.90171 669.382
-98.9258 -5.69573 668.714
-98.8273 -4.49215 668.048
-98.7289 -3.29096 667.384
-98.7289 -2.09425 667.384
-98.7289 -0.897536 667.384
-98.7289 0.299179 667.384
-98.7289 1.49589 667.384
-98.8273 2.69529 668.048
-98.8273 3.8932 668.048
-98.9258 5.09618 668.714
-134.813 15.1154 911.305
-134.813 16.7495 911.305
-134.813 18.3836 911.305
-110.247 45.7693 745.245
-110.003 47.0012 743.593
-110.003 48.3346 743.593
-110.003 49.6679 743.593
-109.759 50.8885 741.947
-110.125 52.3928 744.418
-110.37 53.8471 746.074
-110.739 55.3697 748.572
-111.236 56.9663 751.929
-111.236 58.3147 751.929
-111.236 59.663 751.929
-88.7501 134.739 599.929
-88.6707 135.693 599.393
-88.1978 136.038 596.196
-88.0413 136.864 595.138
-87.6524 137.322 592.509
-87.6524 138.385 592.509
-87.4978 139.201 591.464
-87.0373 139.523 588.351
-86.4308 139.599 584.251
-86.2805 140.402 583.235
-86.056 141.08 581.718
-85.8327 141.754 580.208
-85.7585 142.671 579.706
-85.6844 143.586 579.206
-85.316 144.003 576.716
-85.316 145.037 576.716
-85.0965 145.696 575.232
-84.7332 146.101 572.776
-84.5887 146.877 571.799
-84.5167 147.776 571.312
-84.1582 148.17 568.889
-84.0157 148.937 567.926
-83.591 149.197 565.055
-83.101 149.33 561.742
-83.101 150.337 561.742
-83.0314 151.218 561.272
-82.962 152.097 560.803
-82.8927 152.975 560.335
-82.8927 153.979 560.335
-82.3424 153.955 556.615
-81.3967 153.174 550.222
-81.33 154.034 549.771
-81.2634 154.893 549.321
-80.866 155.116 546.634
-80.7344 155.842 545.745
-80.4073 156.185 543.534
-80.2772 156.905 542.654
-80.2772 157.878 542.654
-79.9537 158.211 540.468
-79.6968 158.669 538.731
-79.3781 158.997 536.576
-79.188 159.576 535.292
-79.0618 160.28 534.439
-78.8733 160.854 533.164
-78.6233 161.297 531.474
-78.6233 162.25 531.474
-78.2512 162.431 528.959
-77.8827 162.61 526.468
-77.7606 163.297 525.643
-77.7606 164.24 525.643
-77.7606 165.182 525.643
-76.7976 164.999 519.133
-76.7382 165.801 518.732
-76.6197 166.474 517.931
-76.5016 167.144 517.132
-76.4426 167.942 516.734
-76.3838 168.739 516.336
-76.1493 169.144 514.751
-75.8582 169.417 512.783
-75.8582 170.336 512.783
-75.9163 171.387 513.176
-75.5118 171.389 510.442
-75.3971 172.042 509.666
-75.3971 172.956 509.666
-74.9415 173.728 506.586
-74.4914 173.588 503.544
-74.0467 173.449 500.538
-73.9915 174.216 500.164
-73.8263 174.722 499.048
-73.7714 175.487 498.677
-73.6072 175.988 497.567
-73.4438 176.488 496.462
-73.173 176.724 494.632
-72.7972 176.699 492.091
-72.6373 177.191 491.011
-72.3196 177.293 488.863
-72.3196 178.169 488.863
-72.1619 178.655 487.797
-72.0048 179.139 486.735
-72.0048 180.012 486.735
-71.9525 180.754 486.382
-71.8483 181.363 485.677
-71.6926 181.839 484.625
-71.4345 182.05 482.88
-71.0763 181.998 480.459
-71.0255 182.729 480.115
-70.6713 182.675 477.721
-70.3207 182.621 475.351
-70.2709 183.343 475.014
-70.2212 184.065 474.678
-70.0724 184.524 473.673
-69.9736 185.112 473.005
-69.875 185.698 472.338
-69.7277 186.152 471.343
-69.5323 186.473 470.021
-94.6138 -82.134 647.414
-94.8885 -81.2083 649.294
-94.7052 -79.8893 648.039
-94.7968 -78.8034 648.666
-94.7968 -77.6403 648.666
-95.1649 -76.7741 651.185
-95.1649 -75.6065 651.185
-94.8885 -74.2226 649.294
-94.8885 -73.0583 649.294
-94.7968 -71.8245 648.666
-94.8885 -70.7298 649.294
-94.8885 -69.5655 649.294
-95.0726 -68.5339 650.553
-94.7968 -67.1719 648.666
-94.7052 -65.945 648.039
-94.5225 -64.6581 646.789
-93.9788 -63.133 643.068
-93.7989 -61.8612 641.838
-93.7989 -60.7103 641.838
-93.7092 -59.5025 641.224
-93.3522 -58.1304 638.781
-94.4315 -57.6437 646.166
-94.5225 -56.5396 646.789
-94.069 -55.114 643.686
-93.8887 -53.8564 642.452
-93.8887 -52.7044 642.452
-93.7989 -51.5031 641.838
-93.7092 -50.304 641.224
-93.9788 -49.2956 643.068
-94.4315 -48.3744 646.166
-95.7225 -47.8613 655
-95.9098 -46.7781 656.282
-96.0038 -45.646 656.925
-95.9098 -44.4245 656.282
-95.9098 -43.2477 656.282
-95.9098 -42.0709 656.282
-95.5359 -40.7346 653.724
-95.7225 -39.6397 655
-96.0038 -38.5782 656.925
-96.0038 -37.4002 656.925
-96.0038 -36.2223 656.925
-96.0038 -35.0443 656.925
-95.9098 -33.8332 656.282
-96.0038 -32.6884 656.925
-96.0038 -31.5104 656.925
-96.4762 -30.4818 660.158
-98.0199 -29.7668 670.72
-98.2163 -28.6213 672.065
-98.4135 -27.4713 673.414
-98.6115 -26.3166 674.769
-98.6115 -22.6867 674.769
-98.6115 -21.4767 674.769
-98.6115 -20.2668 674.769
-98.6115 -19.0568 674.769
-98.5124 -17.8289 674.091
-98.4135 -16.6035 673.414
-98.5124 -15.4115 674.091
-98.3148 -14.1742 672.739
-98.3148 -12.9679 672.739
-98.3148 -11.7616 672.739
-98.118 -10.5341 671.392
-97.9219 -9.31159 670.05
-97.9219 -8.1101 670.05
-97.9219 -6.9086 670.05
-97.8242 -5.70141 669.382
-97.6293 -4.49215 668.048
-97.6293 -3.29424 668.048
-97.6293 -2.09634 668.048
-97.6293 -0.89843 668.048
-97.6293 0.299477 668.048
-97.6293 1.49738 668.048
-97.6293 2.69529 668.048
-97.6293 3.8932 668.048
-97.8242 5.10126 669.382
-133.179 15.1154 911.305
-110.383 17.9457 755.316
-110.383 19.3 755.316
-110.383 20.6544 755.316
-109.888 21.9101 751.929
-109.888 23.2584 751.929
-109.888 24.6068 751.929
-109.888 25.9551 751.929
-108.911 45.7693 745.245
-108.79 47.0534 744.418
-108.79 48.3882 744.418
-108.79 49.7231 744.418
-108.669 51.0013 743.593
-108.911 52.451 745.245
-109.154 53.9071 746.905
-108.911 55.1236 745.245
-109.397 56.712 748.572
-109.397 58.0543 748.572
-107.714 58.4828 737.055
-107.009 59.4127 732.228
-107.951 61.2608 738.679
-87.6743 135.814 599.929
-87.1288 136.038 596.196
-86.8201 136.622 594.084
-86.59 137.322 592.509
-86.59 138.385 592.509
-86.5136 139.324 591.986
-85.9823 139.523 588.351
-85.3831 139.599 584.251
-85.3088 140.524 583.743
-85.0867 141.202 582.223
-84.7923 141.754 580.208
-84.7923 142.794 580.208
-84.719 143.71 579.706
-84.2819 144.003 576.716
-84.2095 144.913 576.22
-83.993 145.571 574.739
-83.7061 146.101 572.776
-83.5634 146.877 571.799
-83.4212 147.65 570.826
-83.1381 148.17 568.889
-82.9973 148.937 567.926
-82.6474 149.323 565.532
-81.8879 148.956 560.335
-81.9564 150.086 560.803
-81.8879 150.965 560.335
-81.8879 151.97 560.335
-81.7513 152.72 559.4
-81.8196 153.851 559.867
-81.4795 154.211 557.54
-80.5422 153.425 551.126
-80.3442 155.02 549.771
-79.9509 155.242 547.08
-79.7558 155.842 545.745
-79.3683 156.059 543.093
-79.3683 157.032 543.093
-79.3041 157.878 542.654
-79.176 158.595 541.777
-78.7308 158.669 538.731
-78.4159 158.997 536.576
-78.2281 159.576 535.292
-78.1658 160.408 534.865
-77.9172 160.854 533.164
-77.6702 161.297 531.474
-77.6702 162.25 531.474
-77.3637 162.559 529.377
-77.3027 163.379 528.959
-77.0596 163.811 527.296
-76.9991 164.627 526.882
-76.6979 164.924 524.82
-76.1024 164.577 520.746
-75.9255 165.126 519.536
-75.8668 165.929 519.133
-75.691 166.474 517.931
-75.4579 168.739 516.336
-75.0535 168.755 513.568
-74.8815 169.287 512.391
-74.9387 170.336 512.783
-74.9387 171.256 512.783
-74.8243 171.912 512
-74.6534 172.436 510.831
-74.7672 173.616 511.61
-73.9772 172.689 506.204
-73.8658 173.335 505.441
-73.4782 173.327 502.789
-73.2038 173.578 500.911
-73.1491 174.346 500.538
-73.0946 175.113 500.164
-72.9857 175.748 499.42
-72.769 176.119 497.936
-72.6611 176.749 497.198
-72.286 176.724 494.632
-71.9148 176.699 492.091
-71.6519 176.932 490.293
-71.443 177.293 488.863
-71.443 178.169 488.863
-71.3391 178.785 488.152
-71.132 179.139 486.735
-71.132 180.012 486.735
-71.132 180.885 486.735
-71.0289 181.494 486.029
-70.8236 181.839 484.625
-70.5179 181.919 482.533
-70.2651 182.129 480.803
-70.2148 182.86 480.459
-69.765 182.545 477.381
-69.5176 182.75 475.688
-69.4684 183.473 475.351
-69.4192 184.195 475.014
-69.321 184.785 474.343
-69.0767 184.982 472.671
-69.0281 185.698 472.338
-68.8825 186.152 471.343
-68.6414 186.342 469.692
-93.6336 -81.1297 648.666
-93.5432 -79.8893 648.039
-93.5432 -78.7273 648.039
-93.6336 -77.6403 648.666
-93.8151 -76.6254 649.923
-93.7243 -75.3869 649.294
-93.6336 -74.1508 648.666
-93.6336 -72.9877 648.666
-93.5432 -71.7552 648.039
-93.6336 -70.6614 648.666
-93.6336 -69.4982 648.666
-93.8151 -68.4675 649.923
-93.6336 -67.1719 648.666
-93.5432 -65.945 648.039
-93.3627 -64.6581 646.789
-93.0934 -63.3151 644.923
-92.7367 -61.9205 642.452
-92.648 -60.7103 641.838
-92.5594 -59.5025 641.224
-92.2068 -58.1304 638.781
-93.4529 -57.755 647.414
-93.5432 -56.6488 648.039
-92.7367 -55.0084 642.452
-92.2068 -53.5487 638.781
-92.2068 -52.4033 638.781
-92.5594 -51.4538 641.224
-92.1191 -50.0647 638.174
-92.7367 -49.2484 642.452
-93.4529 -48.4678 647.414
-94.548 -47.8613 655
-94.733 -46.7781 656.282
-94.8258 -45.646 656.925
-94.9188 -44.5116 657.569
-94.9188 -43.3325 657.569
-95.2925 -42.3193 660.158
-95.2925 -41.1356 660.158
-95.4804 -40.0306 661.46
-95.6691 -38.9213 662.767
-95.7638 -37.7702 663.423
-95.5747 -36.5083 662.113
-95.4804 -35.2863 661.46
-95.2925 -34.033 660.158
-95.2925 -32.8493 660.158
-95.2925 -31.6655 660.158
-95.2925 -30.4818 660.158
-95.2925 -29.298 660.158
-95.2925 -28.1142 660.158
-97.3037 -27.4989 674.091
-97.4016 -26.3166 674.769
-97.206 -22.6411 673.414
-97.3037 -19.0377 674.091
-97.3037 -17.8289 674.091
-97.3037 -16.6202 674.091
-97.5979 -15.4581 676.129
-97.4016 -14.217 674.769
-97.3037 -12.994 674.091
-97.3037 -11.7852 674.091
-97.206 -10.5659 673.414
-97.1085 -9.34895 672.739
-97.0112 -8.13448 672.065
-96.9141 -6.92243 671.392
-96.9141 -5.71853 671.392
-96.6239 -4.50111 669.382
-96.6239 -3.30082 669.382
-96.6239 -2.10052 669.382
-96.5276 -0.899325 668.714
-96.6239 0.300074 669.382
-96.6239 1.50037 669.382
-96.7204 2.70337 670.05
-97.0112 3.9166 672.065
-97.1085 5.12685 672.739
-105.696 9.51917 732.228
-105.696 10.8322 732.228
-105.465 12.1187 730.632
-105.236 13.3996 729.044
-105.696 14.7711 732.228
-108.055 16.4431 748.572
-108.297 17.8252 750.247
-108.297 19.1705 750.247
-108.418 20.5388 751.087
-108.297 21.8611 750.247
-108.055 23.1546 748.572
-108.539 24.6068 751.929
-107.575 25.7244 745.245
-107.336 47.0012 743.593
-107.455 48.3882 744.418
-107.336 49.6679 743.593
-107.336 51.0013 743.593
-107.455 52.3928 744.418
-107.575 53.7873 745.245
-107.575 55.1236 745.245
-107.575 56.46 745.245
-106.627 57.2871 738.679
-106.627 58.6116 738.679
-106.159 59.6733 735.439
-106.627 61.2608 738.679
-85.6031 135.317 593.033
-85.6031 136.38 593.033
-85.5275 137.322 592.509
-85.452 138.262 591.986
-85.2264 138.956 590.423
-84.7786 139.279 587.321
-84.3355 139.599 584.251
-84.2621 140.524 583.743
-84.0427 141.202 582.223
-83.7519 141.754 580.208
-83.6795 142.671 579.706
-83.5351 143.462 578.706
-83.2478 144.003 576.716
-83.1762 144.913 576.22
-82.9624 145.571 574.739
-82.679 146.101 572.776
-82.5381 146.877 571.799
-82.4678 147.776 571.312
-82.1877 148.295 569.372
-82.0484 149.063 568.407
-81.5646 149.197 565.055
-80.9508 149.08 560.803
-80.9508 150.086 560.803
-80.8832 150.965 560.335
-80.8157 151.843 559.867
-80.5467 152.338 558.004
-80.4798 153.211 557.54
-79.8821 153.066 553.4
-79.4234 153.174 550.222
-79.3583 154.034 549.771
-79.2933 154.893 549.321
-78.8413 154.989 546.189
-78.5216 155.336 543.974
-78.3945 156.059 543.093
-78.331 156.905 542.654
-78.2677 157.751 542.215
-77.8899 157.957 539.598
-77.5779 158.288 537.436
-77.4537 158.997 536.576
-77.33 159.703 535.719
-77.2683 160.536 535.292
-77.0837 161.11 534.013
-76.7172 161.297 531.474
-76.7172 162.25 531.474
-76.4145 162.559 529.377
-76.2941 163.25 528.542
-76.174 163.94 527.711
-76.2941 165.146 528.542
-76.2941 166.094 528.542
-74.9359 164.999 519.133
-74.9359 165.929 519.133
-74.7046 166.345 517.531
-74.4747 168.609 515.939
-74.0759 168.626 513.176
-74.0192 169.417 512.783
-74.0759 170.467 513.176
-74.1326 171.518 513.568
-74.0192 172.175 512.783
-73.5693 172.042 509.666
-72.8496 173.074 504.681
-72.6856 173.588 503.544
-72.3596 173.708 501.286
-72.2516 174.346 500.538
-72.1977 175.113 500.164
-72.1439 175.879 499.792
-71.983 176.381 498.677
-71.8228 176.88 497.567
-71.2415 176.334 493.54
-70.9803 176.569 491.731
-70.6695 176.674 489.577
-70.5664 177.293 488.863
-70.5151 178.04 488.507
-70.3102 178.396 487.088
-70.2082 179.009 486.382
-70.1574 179.751 486.029
-70.1574 180.623 486.029
-70.1066 181.363 485.677
-69.8537 181.576 483.925
-69.6526 181.919 482.533
-69.3533 181.998 480.459
-69.3533 182.86 480.459
-69.0072 182.805 478.062
-68.7134 182.88 476.026
-68.616 183.473 475.351
-68.5674 184.195 475.014
-68.4704 184.785 474.343
-68.2291 184.982 472.671
-68.1811 185.698 472.338
-67.8942 185.76 470.351
-92.203 -80.8951 646.789
-92.292 -79.8122 647.414
-92.292 -78.6513 647.414
-92.203 -77.4157 646.789
-92.3811 -76.4033 648.039
-92.3811 -75.2412 648.039
-92.3811 -74.0792 648.039
-92.4705 -72.9877 648.666
-92.4705 -71.8245 648.666
-92.56 -70.7298 649.294
-92.6497 -69.6329 649.923
-92.8296 -68.6005 651.185
-92.7395 -67.3674 650.553
-92.4705 -66.0088 648.666
-92.292 -64.7205 647.414
-91.4971 -61.8612 641.838
-91.5847 -60.7685 642.452
-91.4971 -59.5594 641.838
-91.4971 -58.4085 641.838
-92.292 -57.755 647.414
-92.4705 -56.7036 648.666
-91.5847 -55.0084 642.452
-91.0614 -53.5487 638.781
-91.0614 -52.4033 638.781
-91.2352 -51.3557 640
-91.0614 -50.1124 638.781
-91.7605 -49.3429 643.686
-93.6479 -48.0019 656.925
-93.6479 -46.8239 656.925
-93.8316 -45.7356 658.214
-94.1087 -44.6868 660.158
-94.4807 -43.675 662.767
-94.5741 -42.5286 663.423
-94.8556 -41.462 665.397
-95.0442 -40.3489 666.72
-94.9498 -39.1145 666.058
-94.8556 -37.8826 665.397
-94.8556 -36.6894 665.397
-94.8556 -35.4963 665.397
-94.5741 -34.2013 663.423
-94.5741 -33.0117 663.423
-94.8556 -31.9168 665.397
-94.5741 -30.6325 663.423
-94.3874 -29.3848 662.113
-94.3874 -28.1975 662.113
-94.3874 -27.0102 662.113
-94.3874 -25.823 662.113
-94.1087 -24.563 660.158
-94.1087 -21.0117 660.158
-96.0949 -19.0377 674.091
-96.0949 -17.8289 674.091
-95.9985 -16.6035 673.414
-96.0949 -15.4115 674.091
-96.0949 -14.2027 674.091
-95.9985 -12.9809 673.414
-96.1916 -11.7971 674.769
-96.0949 -10.5765 674.091
-95.9985 -9.35834 673.414
-95.9022 -8.14264 672.739
-95.9985 -6.94328 673.414
-95.9022 -5.73 672.739
-95.8061 -4.51915 672.065
-95.9022 -3.31737 672.739
-95.8061 -2.10894 672.065
-95.9022 -0.904737 672.739
-95.9022 0.301579 672.739
-95.9985 1.50941 673.414
-95.9985 2.71694 673.414
-95.8061 3.9166 672.065
-104.383 9.51917 732.228
-104.269 10.8203 731.429
-104.155 12.1187 730.632
-104.155 13.4288 730.632
-104.269 14.755 731.429
-106.475 16.4065 746.905
-106.951 17.8252 750.247
-106.832 19.1491 749.408
-106.951 20.5158 750.247
-106.713 21.8123 748.572
-106.713 23.1546 748.572
-106.238 24.388 745.245
-106.238 25.7244 745.245
-106.713 27.1815 748.572
-106.238 45.7693 745.245
-105.768 46.8972 741.947
-106.003 48.3346 743.593
-106.12 49.7231 744.418
-106.003 51.0013 743.593
-106.12 52.3928 744.418
-106.238 53.7873 745.245
-106.003 55.0014 743.593
-105.535 56.0861 740.31
-105.302 57.2871 738.679
-105.302 58.6116 738.679
-104.84 59.6733 735.439
-84.3161 133.898 591.464
-84.4651 135.197 592.509
-84.3905 136.139 591.986
-84.3161 137.08 591.464
-84.1677 137.897 590.423
-84.0197 138.712 589.385
-83.8723 139.523 588.351
-83.3605 139.721 584.761
-83.2154 140.524 583.743
-82.7831 140.835 580.71
-82.4974 141.387 578.706
-82.4974 142.425 578.706
-82.3553 143.215 577.709
-82.2136 144.003 576.716
-82.2136 145.037 576.716
-82.0725 145.821 575.726
-81.7218 146.225 573.265
-81.5128 146.877 571.799
-81.374 147.65 570.826
-81.0292 148.044 568.407
-80.9606 148.937 567.926
-80.6873 149.449 566.009
-80.3483 149.832 563.631
-80.0121 150.211 561.272
-79.9452 151.091 560.803
-79.9452 152.097 560.803
-79.5461 152.338 558.004
-79.2823 152.83 556.153
-78.8248 152.94 552.943
-78.3725 153.048 549.771
-78.3725 154.034 549.771
-78.2442 154.766 548.871
-77.7986 154.863 545.745
-77.4834 155.21 543.534
-77.358 155.932 542.654
-77.358 156.905 542.654
-77.0463 157.242 540.468
-76.8605 157.83 539.164
-76.7371 158.542 538.299
-76.7988 159.635 538.731
-76.5528 160.087 537.006
-76.4304 160.792 536.147
-76.2476 161.367 534.865
-75.8845 161.553 532.318
-75.8243 162.378 531.896
-75.4652 162.559 529.377
-75.4057 163.379 528.959
-75.3463 164.198 528.542
-75.4652 165.407 529.377
-74.5241 164.281 522.775
-74.005 164.999 519.133
-74.005 165.929 519.133
-73.8336 166.474 517.931
-73.6629 167.016 516.734
-73.0997 168.497 512.783
-73.0997 169.417 512.783
-73.0997 170.336 512.783
-73.2678 171.649 513.962
-73.2678 172.571 513.962
-71.9988 173.205 505.061
-71.8366 173.718 503.922
-71.5142 173.838 501.661
-71.3009 175.113 500.164
-71.2477 175.879 499.792
-70.9833 176.119 497.936
-70.9306 176.88 497.567
-70.2531 176.075 492.814
-70.0986 176.569 491.731
-69.8426 176.803 489.935
-69.6898 177.293 488.863
-69.6898 178.169 488.863
-69.5884 178.785 488.152
-69.3361 179.009 486.382
-69.2858 179.751 486.029
-69.2357 180.492 485.677
-69.1356 181.1 484.975
-68.9362 181.445 483.576
-68.8369 182.05 482.88
-68.5408 182.129 480.803
-68.4917 182.86 480.459
-68.1986 182.935 478.403
-67.8598 182.88 476.026
-67.7636 183.473 475.351
-67.7156 184.195 475.014
-67.5721 184.654 474.007
-67.3816 184.982 472.671
-67.2868 185.568 472.006
-66.9101 185.37 469.363
-66.5376 185.175 466.75
-91.2191 -79.8893 648.039
-91.131 -78.6513 647.414
-91.131 -77.4904 647.414
-91.3073 -76.4771 648.666
-91.2191 -75.2412 648.039
-91.2191 -74.0792 648.039
-91.4843 -73.1292 649.923
-91.573 -72.0335 650.553
-91.6619 -70.9358 651.185
-91.8402 -69.9039 652.452
-91.8402 -68.7339 652.452
-86.7755 -63.838 616.471
-87.0154 -62.9061 618.175
-87.0154 -61.7976 618.175
-90.4327 -60.7685 642.452
-90.4327 -59.6165 642.452
-90.5194 -58.5205 643.068
-91.0432 -57.6993 646.789
-91.0432 -56.5396 646.789
-90.3462 -54.9558 641.838
-90.2598 -53.7535 641.224
-90.2598 -52.6037 641.224
-90.3462 -51.5031 641.838
-90.0876 -50.208 640
-90.6063 -49.3429 643.686
-92.925 -48.2381 660.158
-93.1083 -47.1472 661.46
-93.2923 -46.0519 662.767
-93.3845 -44.9078 663.423
-93.8487 -43.9355 666.72
-93.9421 -42.7825 667.384
-94.1294 -41.6687 668.714
-94.1294 -40.4696 668.714
-94.0356 -39.2314 668.048
-93.9421 -37.9957 667.384
-94.1294 -36.8723 668.714
-94.0356 -35.6377 668.048
-94.0356 -34.4398 668.048
-94.0356 -33.2419 668.048
-94.1294 -32.0759 668.714
-93.9421 -30.8154 667.384
-93.2923 -29.4138 662.767
-93.6625 -28.3374 665.397
-93.6625 -27.1442 665.397
-93.2002 -25.823 662.113
-92.8336 -24.5388 659.509
-92.7424 -23.3333 658.861
-92.7424 -22.1518 658.861
-92.8336 -20.991 659.509
-92.8336 -19.8084 659.509
-93.2002 -18.6994 662.113
-94.8862 -17.8289 674.091
-95.1732 -16.6705 676.129
-95.4619 -15.505 678.18
-95.2692 -14.26 676.812
-95.1732 -13.0333 676.129
-94.8862 -9.36775 674.091
-94.5063 -8.12634 671.392
-94.601 -6.92937 672.065
-94.5063 -5.71853 671.392
-94.4118 -4.51012 670.72
-94.4118 -3.30742 670.72
-94.4118 -2.10472 670.72
-94.7909 -0.905646 673.414
-94.9816 2.7224 674.769
-104.438 6.98469 741.947
-103.978 8.27848 738.679
-103.07 9.51917 732.228
-102.845 10.8086 730.632
-102.845 12.1187 730.632
-102.733 13.4142 729.837
-102.957 14.755 731.429
-103.749 16.1902 737.055
-105.136 17.7458 746.905
-105.136 19.0851 746.905
-105.488 20.4929 749.408
-105.37 21.8123 748.572
-105.37 23.1546 748.572
-105.37 24.4969 748.572
-105.606 25.897 750.247
-105.606 27.2423 750.247
-105.37 28.5238 748.572
-105.37 29.8661 748.572
-104.902 45.7693 745.245
-104.438 46.8972 741.947
-104.438 48.2276 741.947
-104.902 49.7783 745.245
-104.438 50.8885 741.947
-104.669 52.3347 743.593
-104.669 53.6681 743.593
-104.207 54.7586 740.31
-104.092 56.0242 739.493
-103.978 57.2871 738.679
-103.863 58.5472 737.866
-103.522 59.6733 735.439
-103.978 61.2608 738.679
-83.329 134.016 591.986
-83.4764 135.317 593.033
-83.4764 136.38 593.033
-83.4026 137.322 592.509
-83.2555 138.141 591.464
-83.2555 139.201 591.464
-82.8173 139.523 588.351
-82.3837 139.842 585.271
-82.2402 140.646 584.251
-81.7418 140.835 580.71
-81.3894 141.265 578.207
-81.3194 142.179 577.709
-81.2494 143.092 577.212
-81.1795 144.003 576.716
-81.1098 144.913 576.22
-80.9013 145.571 574.739
-80.5561 145.976 572.287
-80.4874 146.877 571.799
-80.1458 147.274 569.372
-80.01 148.044 568.407
-79.8746 148.811 567.445
-79.6724 149.449 566.009
-79.5381 150.211 565.055
-79.4044 150.969 564.105
-79.0718 151.344 561.742
-78.9396 152.097 560.803
-78.1554 151.582 555.232
-77.8975 152.074 553.4
-77.6413 152.563 551.579
-77.4502 153.174 550.222
-77.5138 154.287 550.674
-77.3867 155.02 549.771
-76.82 154.863 545.745
-76.3232 154.834 542.215
-76.2 155.555 541.34
-76.2 156.525 541.34
-75.9548 156.989 539.598
-75.9548 157.957 539.598
-75.8327 158.669 538.731
-75.8937 159.763 539.164
-75.7111 160.344 537.867
-75.5294 160.921 536.576
-75.3486 161.496 535.292
-74.8706 161.425 531.896
-74.8706 162.378 531.896
-74.4572 162.431 528.959
-73.7016 164.538 523.591
-73.5294 165.09 522.368
-73.4151 165.768 521.556
-73.2442 166.316 520.342
-73.0176 166.731 518.732
-72.1803 167.578 512.783
-72.1803 168.497 512.783
-71.796 168.515 510.054
-72.07 170.076 512
-72.1803 171.256 512.783
-72.0151 171.781 511.61
-71.7415 172.042 509.666
-71.3619 172.95 506.969
-71.2004 173.466 505.822
-70.933 173.718 503.922
-70.8797 174.49 503.544
-70.4565 174.346 500.538
-70.404 175.113 500.164
-70.3515 175.879 499.792
-70.0904 176.119 497.936
-69.2676 175.816 492.091
-69.2168 176.569 491.731
-69.0145 176.932 490.293
-68.8634 177.422 489.22
-68.8634 178.299 489.22
-68.8132 179.046 488.863
-68.4639 179.009 486.382
-68.4639 179.881 486.382
-68.4143 180.623 486.029
-68.3648 181.363 485.677
-68.069 181.445 483.576
-67.971 182.05 482.88
-67.7272 182.26 481.148
-67.6787 182.991 480.803
-67.437 183.197 479.086
-67.1492 183.27 477.042
-66.9112 183.473 475.351
-66.8165 184.065 474.678
-66.4872 184.004 472.338
-66.3936 184.591 471.674
-66.161 184.787 470.021
-66.0222 185.241 469.035
-65.7922 185.433 467.401
-90.1442 -79.9666 648.666
-89.9701 -78.6513 647.414
-89.9701 -77.4904 647.414
-90.0571 -76.4033 648.039
-90.1442 -75.314 648.666
-90.0571 -74.0792 648.039
-90.3189 -73.1292 649.923
-90.6703 -71.0738 652.452
-90.6703 -69.9039 652.452
-85.9862 -65.1831 618.746
-85.907 -64.0145 618.175
-85.9862 -62.9641 618.746
-85.9862 -61.8546 618.746
-85.9862 -60.7451 618.746
-86.0656 -59.6907 619.317
-88.9399 -60.5366 640
-89.2807 -59.6165 642.452
-89.3663 -58.5205 643.068
-89.4521 -57.4225 643.686
-89.3663 -56.2143 643.068
-89.11 -54.9033 641.224
-89.0249 -53.7021 640.612
-89.11 -52.6037 641.224
-88.9399 -51.3557 640
-88.7705 -50.1124 638.781
-89.1953 -49.2013 641.838
-92.1038 -49.6172 662.767
-92.2862 -48.5247 664.08
-92.1949 -47.2871 663.423
-92.4693 -46.2347 665.397
-92.6532 -45.1311 666.72
-92.7454 -43.9792 667.384
-92.8377 -42.8251 668.048
-92.8377 -41.6272 668.048
-92.9303 -40.4696 668.714
-92.7454 -39.1924 667.384
-92.6532 -37.9579 666.72
-92.8377 -36.8356 668.048
-92.8377 -35.6377 668.048
-92.7454 -34.4055 667.384
-92.9303 -33.275 668.714
-93.023 -32.1079 669.382
-92.9303 -30.8768 668.714
-92.6532 -29.5892 666.72
-92.7454 -28.422 667.384
-92.7454 -27.2252 667.384
-92.2862 -25.8997 664.08
-92.1038 -24.6601 662.767
-92.1038 -23.4716 662.767
-91.561 -22.1518 658.861
-91.4711 -20.9498 658.214
-91.4711 -19.7696 658.214
-91.7412 -18.6442 660.158
-92.4693 -17.599 665.397
-93.5834 -16.6035 673.414
-94.2458 -15.505 678.18
-94.2458 -14.2889 678.18
-94.2458 -13.0728 678.18
-94.1506 -11.8447 677.495
-93.8661 -10.5978 675.449
-93.7717 -9.37717 674.769
-93.4895 -8.14264 672.739
-93.3959 -6.92937 672.065
-93.3024 -5.71853 671.392
-93.3024 -4.51463 671.392
-93.3024 -3.31073 671.392
-93.3959 -2.10894 672.065
-103.566 5.67941 745.245
-103.566 7.01574 745.245
-102.653 8.27848 738.679
-101.979 9.54 733.83
-101.646 10.8203 731.429
-101.757 12.1451 732.228
-101.646 13.4435 731.429
-101.757 14.7711 732.228
-102.203 16.1547 735.439
-103.566 17.7064 745.245
-103.796 19.0851 746.905
-104.028 20.47 748.572
-104.144 21.8367 749.408
-104.144 23.1805 749.408
-104.261 24.5517 750.247
-104.377 25.926 751.087
-104.261 27.2423 750.247
-104.261 28.5876 750.247
-104.028 29.8661 748.572
-104.028 31.2084 748.572
-104.965 38.2615 755.316
-104.965 39.6159 755.316
-104.965 40.9703 755.316
-104.965 42.3247 755.316
-103.566 45.7693 745.245
-102.88 46.7937 740.31
-102.88 48.1212 740.31
-103.107 49.5581 741.947
-103.107 50.8885 741.947
-103.336 52.3347 743.593
-103.336 53.6681 743.593
-103.107 54.8797 741.947
-102.54 55.901 737.866
-102.428 57.1612 737.055
-102.54 58.5472 737.866
-102.203 59.6733 735.439
-102.428 61.1261 737.055
-82.1949 133.898 591.464
-82.4859 135.437 593.558
-82.413 136.38 593.033
-82.2675 137.201 591.986
-81.9781 137.776 589.904
-82.1225 139.078 590.943
-81.7623 139.523 588.351
-81.3343 139.842 585.271
-81.1219 140.524 583.743
-80.6307 140.714 580.208
-80.2834 141.143 577.709
-80.2834 142.179 577.709
-80.2143 143.092 577.212
-80.0765 143.879 576.22
-80.0078 144.788 575.726
-79.9392 145.696 575.232
-79.5978 146.101 572.776
-79.4621 146.877 571.799
-79.0577 147.149 568.889
-78.9907 148.044 568.407
-78.9239 148.937 567.926
-78.8571 149.828 567.445
-78.7239 150.591 566.487
-78.4588 151.096 564.579
-77.934 151.091 560.803
-77.4162 151.086 557.077
-77.2878 151.833 556.153
-77.096 152.451 554.773
-76.9687 153.192 553.857
-76.8418 153.931 552.943
-76.4635 154.16 550.222
-75.9032 154.01 546.189
-75.5953 154.361 543.974
-75.4119 154.959 542.654
-75.29 155.68 541.777
-75.2293 156.525 541.34
-74.9872 156.989 539.598
-74.9269 157.83 539.164
-74.8667 158.669 538.731
-74.9269 159.763 539.164
-74.8066 160.472 538.299
-74.627 161.05 537.006
-74.3887 161.496 535.292
-73.9754 161.553 532.318
-73.9168 162.378 531.896
-73.5667 162.559 529.377
-72.8196 164.666 524
-72.6493 165.219 522.775
-72.5362 165.897 521.961
-72.5362 166.833 521.961
-72.1991 166.99 519.536
-72.1432 167.791 519.133
-71.2608 167.578 512.783
-71.0977 168.112 511.61
-71.0977 169.029 511.61
-71.152 170.076 512
-71.2063 171.125 512.391
-71.0435 171.65 511.22
-70.8814 172.173 510.054
-70.8276 172.956 509.666
-70.3465 172.689 506.204
-70.2934 173.466 505.822
-70.0294 173.718 503.922
-69.9243 174.36 503.166
-69.663 174.607 501.286
-69.5071 175.113 500.164
-69.5071 176.01 500.164
-69.1462 175.988 497.567
-68.6876 176.594 494.267
-68.3351 176.569 491.731
-68.285 177.321 491.37
-68.0358 177.552 489.577
-67.9366 178.169 488.863
-67.9366 179.046 488.863
-67.5918 179.009 486.382
-67.5428 179.751 486.029
-67.5428 180.623 486.029
-67.4939 181.363 485.677
-67.3963 181.97 484.975
-67.1535 182.181 483.228
-66.8165 182.129 480.803
-66.7687 182.86 480.459
-66.4829 182.935 478.403
-66.1996 183.01 476.364
-66.0121 183.343 475.014
-65.9654 184.065 474.678
-65.6864 184.134 472.671
-65.4099 184.203 470.681
-65.2268 184.529 469.363
-65.0447 184.853 468.053
-64.954 185.433 467.401
-88.981 -75.314 648.666
-88.8092 -74.0077 647.414
-88.8092 -72.8468 647.414
-85.5078 -67.9032 623.346
-85.5078 -66.7855 623.346
-85.1123 -65.364 620.463
-84.8767 -64.0736 618.746
-84.8767 -62.9641 618.746
-84.9551 -61.9117 619.317
-84.9551 -60.8012 619.317
-84.8767 -59.6356 618.746
-88.2132 -59.6736 643.068
-88.3827 -58.633 644.304
-88.4677 -57.5329 644.923
-88.3827 -56.3223 644.304
-88.1287 -55.0084 642.452
-88.0444 -53.8049 641.838
-88.0444 -52.654 641.838
-87.9602 -51.4538 641.224
-87.6251 -50.1124 638.781
-87.6251 -48.967 638.781
-91.6398 -50.0126 668.048
-91.6398 -48.8147 668.048
-91.5486 -47.5694 667.384
-91.6398 -46.4189 668.048
-91.7312 -45.266 668.714
-91.7312 -44.0669 668.714
-91.8227 -42.9106 669.382
-92.0985 -41.8356 671.392
-91.8227 -40.51 669.382
-91.7312 -39.2705 668.714
-91.6398 -38.0335 668.048
-91.6398 -36.8356 668.048
-91.5486 -35.6022 667.384
-91.2762 -34.3031 665.397
-91.6398 -33.2419 668.048
-91.7312 -32.0759 668.714
-91.5486 -30.8154 667.384
-91.7312 -29.6777 668.714
-92.0064 -28.5641 670.72
-92.0064 -27.3614 670.72
-91.2762 -24.7579 665.397
-91.0954 -23.5181 664.08
-90.4684 -22.1736 659.509
-90.6467 -21.0324 660.808
-90.8256 -19.8867 662.113
-90.9154 -18.7179 662.767
-91.6398 -17.6691 668.048
-92.1908 -16.5702 672.065
-92.9357 -15.4893 677.495
-93.1239 -14.3033 678.867
-93.1239 -13.086 678.867
-93.1239 -11.8687 678.867
-92.9357 -10.6299 677.495
-92.9357 -9.41506 677.495
-92.7484 -8.18368 676.129
-92.7484 -6.97128 676.129
-92.7484 -5.75888 676.129
-93.5024 -3.3612 681.626
-93.98 -0.921372 685.108
-102.003 5.66681 743.593
-101.777 6.98469 741.947
-101.329 8.27848 738.679
-100.884 9.56092 735.439
-100.553 10.844 733.028
-100.553 12.1584 733.028
-100.553 13.4728 733.028
-100.553 14.7873 733.028
-101.106 16.1902 737.055
-102.229 17.7064 745.245
-102.457 19.0851 746.905
-102.686 20.47 748.572
-102.8 21.8367 749.408
-102.8 23.1805 749.408
-102.915 24.5517 750.247
-103.146 25.9551 751.929
-103.378 27.3648 753.618
-103.378 28.7161 753.618
-103.146 30 751.929
-103.146 32.6967 751.929
-103.146 34.045 751.929
-103.611 35.5527 755.316
-104.08 37.0741 758.734
-104.08 38.4346 758.734
-104.08 39.7951 758.734
-103.962 41.1092 757.876
-103.845 42.4202 757.021
-102.686 44.6314 748.572
-102.229 45.7693 745.245
-102.116 47.0534 744.418
-102.003 48.3346 743.593
-101.777 49.5581 741.947
-101.552 50.7761 740.31
-101.777 52.2189 741.947
-101.552 53.4311 740.31
-101.329 54.638 738.679
-101.329 55.9625 738.679
-101.106 57.1612 737.055
-101.106 58.4828 737.055
-101.106 59.8045 737.055
-100.884 60.9921 735.439
-100.444 62.0387 732.228
-81.3496 135.317 593.033
-81.2777 136.26 592.509
-81.0629 136.959 590.943
-80.8492 137.655 589.385
-80.9203 138.834 589.904
-80.7073 139.523 588.351
-80.3549 139.965 585.782
-80.1449 140.646 584.251
-79.6592 140.835 580.71
-79.4528 141.509 579.206
-79.3843 142.425 578.706
-79.2475 143.215 577.709
-79.0433 143.879 576.22
-78.9754 144.788 575.726
-78.9077 145.696 575.232
-78.5037 145.976 572.287
-78.2367 146.502 570.34
-78.1039 147.274 569.372
-77.9715 148.044 568.407
-77.9055 148.937 567.926
-77.8396 149.828 567.445
-77.6425 150.464 566.009
-77.1866 150.589 562.685
-76.9284 151.091 560.803
-76.4173 151.086 557.077
-76.2905 151.833 556.153
-76.0383 152.325 554.314
-75.9128 153.066 553.4
-75.7878 153.805 552.488
-75.5389 154.287 550.674
-75.1686 154.513 547.974
-74.8628 154.863 545.745
-74.5595 155.21 543.534
-74.4388 155.932 542.654
-74.1987 156.399 540.904
-73.9601 156.863 539.164
-73.9601 157.83 539.164
-73.9007 158.669 538.731
-74.0196 159.892 539.598
-73.9007 160.601 538.731
-73.8414 161.438 538.299
-73.4875 161.624 535.719
-73.0209 161.553 532.318
-72.9052 162.25 531.474
-72.5602 162.431 528.959
-71.7119 165.219 522.775
-71.3781 165.383 520.342
-71.489 166.574 521.15
-71.2675 166.99 519.536
-71.2124 167.791 519.133
-71.1023 168.461 518.331
-70.2875 168.368 512.391
-70.2875 169.287 512.391
-70.3413 170.336 512.783
-70.3413 171.256 512.783
-70.2339 171.912 512
-69.9137 172.042 509.666
-69.4388 171.782 506.204
-69.3341 172.429 505.441
-69.1777 172.944 504.301
-69.1777 173.849 504.301
-69.022 174.36 503.166
-69.022 175.262 503.166
-68.6615 175.244 500.538
-68.6103 176.01 500.164
-68.5081 176.643 499.42
-67.602 176.075 492.814
-67.4039 176.44 491.37
-67.3546 177.191 491.011
-67.109 177.422 489.22
-67.06 178.169 488.863
-67.06 179.046 488.863
-66.6713 178.88 486.029
-66.6713 179.751 486.029
-66.6713 180.623 486.029
-66.623 181.363 485.677
-66.3827 181.576 483.925
-66.2393 182.05 482.88
-65.9544 182.129 480.803
-65.9544 182.991 480.803
-65.7188 183.197 479.086
-65.485 183.401 477.381
-65.1603 183.343 475.014
-65.1142 184.065 474.678
-64.7932 184.004 472.338
-64.4754 183.944 470.021
-64.3401 184.4 469.035
-64.0713 184.467 467.075
-64.1159 185.433 467.401
-84.39 -69.021 623.346
-84.39 -67.9032 623.346
-84.3117 -66.7235 622.767
-83.9997 -65.364 620.463
-83.7672 -64.0736 618.746
-83.69 -62.9061 618.175
-83.7672 -61.8546 618.746
-83.7672 -60.7451 618.746
-83.69 -59.5806 618.175
-83.613 -58.4183 617.606
-87.3112 -59.8458 644.923
-87.3112 -58.6893 644.923
-87.3112 -57.5329 644.923
-87.1436 -56.2682 643.686
-86.9767 -55.0084 642.452
-86.8935 -53.8049 641.838
-86.8935 -52.654 641.838
-86.7275 -51.4047 640.612
-86.4797 -50.1124 638.781
-86.4797 -48.967 638.781
-90.6224 -50.1124 669.382
-90.5321 -48.8633 668.714
-90.5321 -47.6642 668.714
-90.6224 -46.5115 669.382
-90.5321 -45.266 668.714
-90.8037 -44.1991 670.72
-90.8946 -43.0395 671.392
-91.0769 -41.9195 672.739
-90.8037 -40.591 670.72
-90.6224 -39.3097 669.382
-90.4419 -38.0335 668.048
-90.4419 -36.8356 668.048
-90.2621 -35.5669 666.72
-90.083 -34.3031 665.397
-90.3519 -33.2088 667.384
-90.4419 -32.044 668.048
-90.2621 -30.7848 666.72
-90.2621 -29.5892 666.72
-89.3737 -22.1955 660.158
-89.6384 -21.0739 662.113
-89.727 -19.9063 662.767
-90.2621 -18.8295 666.72
-90.6224 -17.7044 669.382
-90.9856 -16.5702 672.065
-91.9066 -15.5206 678.867
-91.9997 -14.3178 679.555
-91.9066 -13.086 678.867
-91.9997 -11.8808 679.555
-91.9066 -10.6514 678.867
-91.9997 -9.44368 679.555
-92.1865 -8.24184 680.934
-92.2802 -7.02796 681.626
-92.2802 -5.8057 681.626
-92.2802 -4.58345 681.626
-92.6568 -3.37492 684.409
-92.6568 -2.14767 684.409
-92.7515 -0.921372 685.108
-99.894 6.94627 737.866
-99.894 8.26937 737.866
-99.5654 9.56092 735.439
-99.3476 10.8559 733.83
-99.239 12.1584 733.028
-99.239 13.4728 733.028
-99.1306 14.7711 732.228
-99.5654 16.1547 735.439
-100.893 17.7064 745.245
-101.118 19.0851 746.905
-101.23 20.4472 747.737
-101.23 21.788 747.737
-101.118 23.103 746.905
-101.005 24.4152 746.074
-101.343 25.8392 748.572
-101.343 27.1815 748.572
-101.343 28.5238 748.572
-101.57 29.9329 750.247
-101.798 31.3483 751.929
-101.57 32.6235 750.247
-101.798 34.045 751.929
-102.027 35.4728 753.618
-102.487 36.9904 757.021
-102.487 38.3479 757.021
-102.719 39.7951 758.734
-102.603 41.1092 757.876
-102.603 42.4681 757.876
-102.256 43.6791 755.316
-101.684 44.7813 751.087
-101.118 45.8713 746.905
-100.893 47.1057 745.245
-100.781 48.3882 744.418
-100.447 49.5581 741.947
-100.114 50.7202 739.493
-100.114 52.0462 739.493
-100.004 53.3134 738.679
-100.004 54.638 738.679
-99.894 55.901 737.866
-99.7843 57.1612 737.055
-99.7843 58.4828 737.055
-99.7843 59.8045 737.055
-99.5654 60.9921 735.439
-99.1306 62.0387 732.228
-80.4997 135.677 594.61
-80.2153 136.26 592.509
-80.0738 137.08 591.464
-79.8625 137.776 589.904
-80.0738 139.201 591.464
-79.7223 139.646 588.868
-79.6523 140.578 588.351
-79.6523 141.633 588.351
-78.6179 141.877 580.71
-78.482 142.671 579.706
-78.1443 143.092 577.212
-77.9431 143.756 575.726
-77.8095 144.54 574.739
-77.6764 145.322 573.756
-77.4115 145.851 571.799
-77.0175 146.129 568.889
-77.0175 147.149 568.889
-76.8871 147.919 567.926
-76.7571 148.685 566.966
-76.6276 149.449 566.009
-76.4985 150.211 565.055
-75.7961 149.835 559.867
-75.3558 149.963 556.615
-75.3558 150.961 556.615
-75.1064 151.456 554.773
-74.9205 152.074 553.4
-74.7971 152.814 552.488
-74.7355 153.678 552.033
-74.6127 154.414 551.126
-74.3074 154.766 548.871
-74.0046 155.116 546.634
-73.4064 155.806 542.215
-73.2288 156.399 540.904
-73.052 156.989 539.598
-72.9933 157.83 539.164
-72.9933 158.797 539.164
-73.052 159.892 539.598
-72.9347 160.601 538.731
-72.7011 161.05 537.006
-72.5269 161.624 535.719
-72.0664 161.553 532.318
-72.0093 162.378 531.896
-71.7249 162.687 529.795
-70.2815 166.86 519.133
-70.0646 167.273 517.531
-69.9566 167.942 516.734
-69.4218 168.497 512.783
-69.3687 169.287 512.391
-69.3687 170.206 512.391
-69.3687 171.125 512.391
-69.2629 171.781 511.61
-68.9998 172.042 509.666
-68.5828 171.911 506.586
-68.4794 172.559 505.822
-68.3248 173.074 504.681
-68.4278 174.242 505.441
-68.1709 174.49 503.544
-68.1709 175.393 503.544
-67.8145 175.375 500.911
-67.7134 176.01 500.164
-67.4619 176.25 498.306
-67.3618 176.88 497.567
-66.7674 176.204 493.177
-66.5228 176.44 491.37
-66.4741 177.191 491.011
-66.2801 177.552 489.577
-66.2317 178.299 489.22
-66.2317 179.177 489.22
-66.039 179.53 487.797
-65.8953 180.012 486.735
-65.8475 180.754 486.382
-65.7521 181.363 485.677
-65.4677 181.445 483.576
-65.3734 182.05 482.88
-65.0456 181.998 480.459
-64.9991 182.729 480.115
-64.7211 182.805 478.062
-64.4912 183.01 476.364
-64.3086 183.343 475.014
-64.2176 183.934 474.343
-63.6772 183.23 470.351
-63.588 183.816 469.692
-63.4991 184.4 469.035
-63.3661 184.853 468.053
-63.3219 185.563 467.727
-85.5788 -77.825 640.612
-85.4156 -76.5301 639.39
-85.4971 -75.4555 640
-85.3343 -74.1664 638.781
-85.2531 -72.9514 638.174
-83.3497 -69.0852 623.926
-82.9639 -67.6517 621.037
-82.6577 -66.2926 618.746
-82.6577 -65.1831 618.746
-82.5815 -64.0145 618.175
-82.5815 -62.9061 618.175
-82.6577 -61.8546 618.746
-82.6577 -60.7451 618.746
-82.734 -59.6907 619.317
-82.3538 -58.3109 616.471
-86.3208 -59.9611 646.166
-85.9894 -58.5767 643.686
-85.9894 -57.4225 643.686
-85.9894 -56.2682 643.686
-85.8247 -55.0084 642.452
-85.7426 -53.8049 641.838
-85.7426 -52.654 641.838
-85.7426 -51.5031 641.838
-85.6606 -50.304 641.224
-89.4221 -51.3127 669.382
-89.4221 -50.1124 669.382
-89.4221 -48.9121 669.382
-89.333 -47.6642 668.714
-89.5115 -46.558 670.05
-89.601 -45.4018 670.72
-89.6907 -44.2434 671.392
-89.7805 -43.0826 672.065
-89.8706 -41.9195 672.739
-89.601 -40.591 670.72
-89.4221 -39.3097 669.382
-89.333 -38.0714 668.714
-89.1552 -36.799 667.384
-89.244 -35.6377 668.048
-89.1552 -34.4055 667.384
-89.5115 -33.3415 670.05
-89.5115 -32.14 670.05
-89.333 -30.8768 668.714
-89.1552 -29.6187 667.384
-88.1032 -22.1736 659.509
-88.4511 -21.0739 662.113
-88.4511 -19.8867 662.113
-88.8899 -18.7922 665.397
-89.4221 -17.7044 669.382
-89.8706 -16.5869 672.739
-90.506 -15.4893 677.495
-90.7811 -14.3178 679.555
-90.5975 -13.0728 678.18
-90.5975 -11.8567 678.18
-90.6892 -10.6514 678.867
-90.6892 -9.43412 678.867
-91.2434 -8.26702 683.015
-91.2434 -7.04227 683.015
-91.6165 -5.84132 685.808
-91.8043 -4.62102 687.214
-91.8043 -3.38875 687.214
-91.523 -2.14987 685.108
-91.6165 -0.922314 685.808
-98.2467 5.60468 735.439
-98.5709 6.94627 737.866
-98.5709 8.26937 737.866
-98.2467 9.56092 735.439
-98.0317 10.8559 733.83
-98.0317 12.1717 733.83
-97.9246 13.4728 733.028
-98.0317 14.8034 733.83
-98.4626 16.1902 737.055
-99.4461 17.6867 744.418
-99.5566 19.0427 745.245
-99.6674 20.4017 746.074
-99.6674 21.7395 746.074
-99.6674 23.0773 746.074
-99.5566 24.388 745.245
-99.5566 25.7244 745.245
-99.5566 27.0607 745.245
-99.5566 28.397 745.245
-99.7784 29.7996 746.905
-100.45 31.3483 751.929
-100.225 32.6235 750.247
-100.45 34.045 751.929
-100.45 35.3933 751.929
-100.902 36.9071 755.316
-100.902 38.2615 755.316
-101.13 39.7053 757.021
-101.13 41.0628 757.021
-101.13 42.4202 757.021
-100.45 43.4832 751.929
-100.001 44.6314 748.572
-99.6674 45.8202 746.074
-99.4461 47.0534 744.418
-99.3359 48.3346 743.593
-99.1161 49.5581 741.947
-98.7883 50.7202 739.493
-98.7883 52.0462 739.493
-98.7883 53.3722 739.493
-98.6795 54.638 738.679
-98.6795 55.9625 738.679
-98.4626 57.1612 737.055
-98.4626 58.4828 737.055
-98.4626 59.8045 737.055
-98.0317 60.8586 733.83
-97.8177 62.0387 732.228
-79.6453 136.038 596.196
-79.2929 136.501 593.558
-79.0132 137.08 591.464
-78.6664 137.534 588.868
-78.9436 139.078 590.943
-78.6664 139.646 588.868
-78.6664 140.702 588.868
-78.7355 141.882 589.385
-78.5973 142.688 588.351
-77.7786 142.246 582.223
-77.3756 142.548 579.206
-77.043 142.969 576.716
-76.9768 143.879 576.22
-76.8447 144.664 575.232
-76.7789 145.571 574.739
-76.4513 145.976 572.287
-76.0619 146.253 569.372
-75.9974 147.149 568.889
-75.933 148.044 568.407
-75.7405 148.685 566.966
-75.6126 149.449 566.009
-75.4217 150.084 564.579
-74.8546 149.96 560.335
-74.5432 150.337 558.004
-74.4813 151.212 557.54
-74.3577 151.959 556.615
-73.9282 152.074 553.4
-73.5037 152.187 550.222
-73.4434 153.048 549.771
-73.4434 154.034 549.771
-73.1436 154.387 547.527
-72.965 154.989 546.189
-72.7871 155.589 544.858
-72.4341 155.806 542.215
-72.2006 156.273 540.468
-71.9687 156.737 538.731
-71.9687 157.703 538.731
-71.9687 158.669 538.731
-71.9687 159.635 538.731
-71.5663 159.703 535.719
-71.5092 160.536 535.292
-71.4521 161.367 534.865
-71.1684 161.681 532.741
-71.1119 162.507 532.318
-70.8868 162.945 530.633
-69.1366 167.273 517.531
-68.9238 167.684 515.939
-68.5547 168.626 513.176
-68.5547 169.546 513.176
-68.5023 170.336 512.783
-68.5023 171.256 512.783
-68.5023 172.175 512.783
-67.7768 171.262 507.353
-67.6234 171.782 506.204
-67.5724 172.559 505.822
-67.5215 173.335 505.441
-67.5724 174.373 505.822
-67.5215 175.148 505.441
-67.3185 175.525 503.922
-67.2175 176.164 503.166
-66.8664 176.141 500.538
-66.6178 176.381 498.677
-66.4696 176.88 497.567
-65.9801 176.464 493.903
-65.7381 176.699 492.091
-65.7381 177.581 492.091
-65.6899 178.333 491.731
-65.5937 178.952 491.011
-65.6417 179.964 491.37
-65.4978 180.449 490.293
-65.3068 180.799 488.863
-65.1643 181.279 487.797
-64.9753 181.626 486.382
-64.6006 181.445 483.576
-64.5075 182.05 482.88
-64.1841 181.998 480.459
-64.0923 182.598 479.771
-63.8638 182.805 478.062
-63.6823 183.14 476.703
-63.4119 183.214 474.678
-63.0993 183.157 472.338
-62.7458 182.973 469.692
-62.7019 183.687 469.363
-62.6142 184.271 468.707
-62.4832 184.724 467.727
-62.4832 185.563 467.727
-84.3495 -78.8984 640
-84.2691 -77.6766 639.39
-84.1888 -76.4572 638.781
-84.1087 -75.2401 638.174
-84.0288 -74.0254 637.567
-84.0288 -72.8821 637.567
-81.6235 -68.5749 619.317
-81.5482 -67.4021 618.746
-81.5482 -66.2926 618.746
-81.5482 -65.1831 618.746
-81.5482 -64.0736 618.746
-81.4731 -62.9061 618.175
-81.4731 -61.7976 618.175
-81.398 -60.6332 617.606
-81.2484 -59.4164 616.471
-81.2484 -58.3109 616.471
-81.2484 -57.2055 616.471
-84.7539 -58.5205 643.068
-84.6727 -57.3125 642.452
-84.7539 -56.2143 643.068
-84.5917 -54.9558 641.838
-84.5917 -53.8049 641.838
-84.5108 -52.6037 641.224
-84.1888 -51.2578 638.781
-84.3495 -50.208 640
-88.2218 -51.3127 669.382
-88.1339 -50.0624 668.714
-88.1339 -48.8633 668.714
-88.1339 -47.6642 668.714
-88.31 -46.558 670.05
-88.4868 -45.4473 671.392
-88.6643 -44.3321 672.739
-88.6643 -43.1258 672.739
-88.7533 -41.9616 673.414
-88.6643 -40.7132 672.739
-88.5754 -39.4673 672.065
-88.3983 -38.1856 670.72
-88.0461 -36.8356 668.048
-88.1339 -35.6732 668.714
-87.871 -34.3713 666.72
-88.1339 -33.275 668.714
-88.1339 -32.0759 668.714
-87.871 -30.7848 666.72
-87.871 -29.5892 666.72
-87.2639 -22.2612 662.113
-87.3501 -21.0947 662.767
-87.3501 -19.9063 662.767
-87.523 -18.7549 664.08
-87.871 -17.634 666.72
-88.5754 -16.5702 672.065
-89.4719 -15.5206 678.867
-90.0186 -14.3907 683.015
-90.0186 -13.166 683.015
-89.7444 -11.9049 680.934
-89.6534 -10.673 680.244
-89.8356 -9.47247 681.626
-90.0186 -8.26702 683.015
-90.1104 -7.04945 683.711
-90.3868 -5.84132 685.808
-90.3868 -4.61157 685.808
-90.3868 -3.38182 685.808
-90.3868 -2.15207 685.808
-90.3868 -0.922314 685.808
-96.7158 5.59241 733.83
-97.141 6.93864 737.055
-97.2478 8.26937 737.866
-96.9279 9.56092 735.439
-96.7158 10.8559 733.83
-96.8218 12.1851 734.634
-96.7158 13.4876 733.83
-96.9279 14.8359 735.439
-96.9279 16.1547 735.439
-98.3296 17.7261 746.074
-98.3296 19.0639 746.074
-98.3296 20.4017 746.074
-98.3296 21.7395 746.074
-98.2203 23.0517 745.245
-98.1113 24.361 744.418
-98.1113 25.6958 744.418
-98.2203 27.0607 745.245
-98.4391 28.4603 746.905
-98.4391 29.7996 746.905
-98.6588 31.2084 748.572
-98.4391 32.4782 746.905
-98.2203 33.7424 745.245
-98.6588 35.2353 748.572
-99.5476 36.9071 755.316
-99.5476 38.2615 755.316
-99.3239 39.5269 753.618
-99.5476 40.9703 755.316
-99.7723 42.4202 757.021
-98.6588 43.2891 748.572
-98.3296 44.4824 746.074
-98.1113 45.7185 744.418
-98.1113 47.0534 744.418
-98.0025 48.3346 743.593
-97.7857 49.5581 741.947
-97.6777 50.8322 741.128
-97.4623 52.0462 739.493
-97.5698 53.4311 740.31
-97.4623 54.6982 739.493
-97.3549 55.9625 738.679
-97.141 57.1612 737.055
-97.141 58.4828 737.055
-96.9279 59.6733 735.439
-96.7158 60.8586 733.83
-96.7158 62.1745 733.83
-96.9279 63.6296 735.439
-77.6104 136.478 588.868
-77.6104 137.534 588.868
-77.6786 138.712 589.385
-77.7469 139.892 589.904
-77.7469 140.949 589.904
-77.8839 142.257 590.943
-77.7469 143.065 589.904
-76.4691 141.754 580.208
-76.403 142.671 579.706
-76.0743 143.092 577.212
-75.8784 143.756 575.726
-75.8133 144.664 575.232
-75.6835 145.446 574.247
-75.041 145.232 569.372
-74.8504 145.882 567.926
-74.787 146.776 567.445
-74.5348 147.295 565.532
-74.472 148.184 565.055
-74.472 149.197 565.055
-74.3467 149.958 564.105
-73.8499 149.96 560.335
-73.4815 150.212 557.54
-73.4205 151.086 557.077
-73.2987 151.833 556.153
-72.9359 152.074 553.4
-72.4576 152.062 549.771
-72.4576 153.048 549.771
-72.3983 153.908 549.321
-72.1619 154.387 547.527
-72.0442 155.116 546.634
-71.6937 155.336 543.974
-71.4618 155.806 542.215
-71.1741 156.147 540.033
-71.0597 156.863 539.164
-71.0597 157.83 539.164
-71.0597 158.797 539.164
-71.0597 159.763 539.164
-70.9456 160.472 538.299
-70.6057 160.664 535.719
-70.493 161.367 534.865
-70.1574 161.553 532.318
-70.1017 162.378 531.896
-69.9907 163.074 531.053
-69.1152 164.795 524.41
-68.846 165.09 522.368
-68.4727 165.126 519.536
-67.9987 167.684 515.939
-67.8421 168.221 514.751
-67.8421 169.144 514.751
-67.6863 169.676 513.568
-67.6345 170.467 513.176
-67.6345 171.387 513.176
-67.5312 172.044 512.391
-67.1209 171.912 509.279
-66.9177 172.302 507.737
-66.7661 172.82 506.586
-66.7661 173.728 506.586
-66.8165 174.768 506.969
-66.7661 175.545 506.586
-66.4649 175.657 504.301
-66.3651 176.296 503.544
-65.9197 176.01 500.164
-65.5774 175.988 497.567
-65.4802 176.618 496.83
-65.1905 176.724 494.632
-64.9033 176.828 492.453
-64.9033 177.711 492.453
-64.8081 178.333 491.731
-64.7132 178.952 491.011
-64.7606 179.964 491.37
-64.4772 180.054 489.22
-64.3833 180.667 488.507
-64.2897 181.279 487.797
-64.0567 181.494 486.029
-63.8255 181.707 484.275
-63.6875 182.181 483.228
-63.3225 181.998 480.459
-63.0966 182.207 478.744
-62.7383 182.026 476.026
-62.5607 182.362 474.678
-62.5165 183.084 474.343
-62.2523 183.157 472.338
-62.0339 183.359 470.681
-61.9036 183.816 469.692
-61.817 184.4 469.035
-61.6445 184.724 467.727
-61.6445 185.563 467.727
-82.9644 -78.6731 638.174
-82.9644 -77.5288 638.174
-82.9644 -76.3845 638.174
-82.8855 -75.1686 637.567
-82.8855 -74.0254 637.567
-80.513 -68.5749 619.317
-80.513 -67.4643 619.317
-80.513 -66.3538 619.317
-80.4387 -65.1831 618.746
-80.4387 -64.0736 618.746
-80.3646 -62.9061 618.175
-80.3646 -61.7976 618.175
-80.2906 -60.6332 617.606
-80.143 -59.4164 616.471
-80.143 -58.3109 616.471
-80.4387 -57.4166 618.746
-83.5207 -58.4645 642.452
-83.5207 -57.3125 642.452
-83.5207 -56.1604 642.452
-83.4408 -54.9558 641.838
-83.4408 -53.8049 641.838
-83.361 -52.6037 641.224
-83.361 -51.4538 641.224
-83.4408 -50.3522 641.838
-87.0215 -51.3127 669.382
-86.9348 -50.0624 668.714
-86.9348 -48.8633 668.714
