ply
format ascii 1.0
element vertex 1916
property float x
property float y
property float z
end_header
-66.2074 140.216 470.351
-66.2074 141.06 470.351
-66.1147 141.704 469.692
-65.8381 141.95 467.727
-65.3821 141.8 464.488
-65.2466 142.337 463.525
-64.9771 142.577 461.611
-64.9324 143.306 461.293
-64.7543 143.738 460.028
-64.6656 144.365 459.398
-64.5771 144.99 458.769
-64.533 145.713 458.456
-64.533 146.535 458.456
-64.357 146.955 457.205
-63.6198 148.514 451.968
-63.6198 149.324 451.968
-63.6198 150.135 451.968
-63.6198 150.945 451.968
-62.6488 151.036 445.07
-62.7738 152.136 445.958
-62.5658 153.226 444.48
-62.3592 153.515 443.012
-62.2769 154.106 442.428
-62.2358 154.797 442.136
-62.1539 155.385 441.554
-62.113 156.074 441.263
-61.6265 155.636 437.807
-61.5863 156.319 437.521
-61.5461 157.001 437.236
-61.426 157.477 436.383
-61.1871 157.645 434.686
-60.8715 157.607 432.444
-60.9501 158.587 433.002
-60.9501 159.363 433.002
-60.9501 160.14 433.002
-61.1475 161.437 434.404
-61.0289 161.902 433.562
-60.9895 162.574 433.282
-60.2885 161.473 428.302
-60.1349 161.828 427.21
-60.0966 162.491 426.939
-60.0584 163.152 426.667
-59.83 163.294 425.045
-59.7543 163.849 424.507
-59.641 164.298 423.702
-59.4907 164.642 422.634
-59.3785 165.087 421.837
-59.1552 165.22 420.251
-77.8039 -130.259 559.867
-77.6095 -128.932 558.468
-77.6742 -128.037 558.934
-77.6742 -127.035 558.934
-77.4805 -125.718 557.54
-77.4805 -124.719 557.54
-77.9992 -124.547 561.272
-78.327 -124.06 563.631
-78.8571 -123.882 567.445
-79.0577 -123.177 568.889
-79.0577 -122.157 568.889
-79.1248 -121.24 569.372
-79.3269 -120.526 570.826
-79.3944 -119.604 571.312
-73.5667 -87.0935 529.377
-73.5087 -86.0763 528.959
-73.1625 -84.7269 526.468
-73.1052 -83.7172 526.055
-73.0479 -82.709 525.643
-72.9907 -81.7024 525.231
-74.4481 -81.4126 535.719
-74.4481 -80.452 535.719
-74.3294 -79.3646 534.865
-74.2702 -78.3431 534.439
-73.9754 -77.0776 532.318
-73.9168 -76.0628 531.896
-73.9168 -75.109 531.896
-73.9168 -74.1552 531.896
-73.9754 -73.2596 532.318
-74.152 -72.4776 533.588
-74.3887 -71.7491 535.292
-74.3294 -70.7328 534.865
-74.3887 -69.8294 535.292
-74.3294 -68.8146 534.865
-74.211 -67.7475 534.013
-74.0342 -66.6308 532.741
-74.211 -65.8324 534.013
-74.0931 -64.7717 533.164
-73.9754 -63.7143 532.318
-73.9754 -62.7598 532.318
-73.9754 -61.8053 532.318
-74.0342 -60.8991 532.741
-74.211 -60.087 534.013
-74.152 -59.0824 533.588
-74.3294 -58.2647 534.865
-74.152 -57.1688 533.588
-74.0931 -56.1673 533.164
-74.0931 -55.2113 533.164
-70.082 -42.2753 504.301
-70.082 -41.371 504.301
-69.9768 -40.4059 503.544
-69.9768 -39.503 503.544
-69.9768 -38.6001 503.544
-68.3351 -35.931 491.731
-68.285 -35.0236 491.37
-77.2878 -16.7041 556.153
-77.1598 -15.6809 555.232
-77.096 -14.6731 554.773
-76.9052 -13.6445 553.4
-76.6522 -12.6105 551.579
-75.8414 -6.60554 545.745
-75.8414 -5.62694 545.745
-75.8414 -4.64834 545.745
-75.965 -3.67573 546.634
-76.027 -2.69773 547.08
-76.2758 0.246051 548.871
-76.2758 1.23026 548.871
-76.3383 2.21627 549.321
-76.9052 3.22506 553.4
-76.5263 4.19661 550.674
-76.7153 5.19684 552.033
-76.9052 6.20203 553.4
-76.9052 7.19436 553.4
-76.9052 9.179 553.4
-77.1598 11.2006 555.232
-77.4805 12.2469 557.54
-77.4162 13.2357 557.077
-77.3519 14.2228 556.615
-77.3519 15.2209 556.615
-77.4162 16.2324 557.077
-77.1598 17.1743 555.232
-77.4162 18.2303 557.077
-77.4162 19.2292 557.077
-77.4162 20.2281 557.077
-77.545 21.2623 558.004
-77.934 22.3746 560.803
-77.934 23.3802 560.803
-77.934 24.3858 560.803
-77.8689 25.3702 560.335
-77.8689 26.3749 560.335
-77.8689 27.3797 560.335
-77.739 28.3371 559.4
-77.739 29.3402 559.4
-77.8689 30.394 560.335
-77.934 31.425 560.803
-77.934 32.4306 560.803
-77.934 33.4362 560.803
-77.8689 35.4178 560.335
-77.8689 36.4226 560.335
-77.6742 39.3382 558.934
-77.9992 40.5093 561.272
-77.934 41.481 560.803
-77.9992 42.5222 561.272
-77.934 43.4922 560.803
-77.9992 44.535 561.272
-78.3928 45.7713 564.105
-78.4588 46.8222 564.579
-78.4588 47.8346 564.579
-78.4588 48.8469 564.579
-78.4588 49.8593 564.579
-77.934 50.5314 560.803
-77.6095 51.3224 558.468
-77.4805 52.2369 557.54
-77.6095 53.3253 558.468
-77.6095 54.3267 558.468
-77.6095 55.3281 558.468
-77.4805 56.2359 557.54
-77.4805 57.2356 557.54
-77.4162 58.187 557.077
-77.4162 59.1859 557.077
-77.4162 60.1848 557.077
-77.4162 61.1838 557.077
-77.4162 62.1827 557.077
-77.4162 63.1816 557.077
-77.4162 64.1805 557.077
-77.3519 65.1253 556.615
-77.3519 66.1234 556.615
-77.4162 67.1773 557.077
-66.3882 132.134 477.721
-66.4355 133.085 478.062
-66.3882 133.847 477.721
-66.2938 134.512 477.042
-66.0589 134.888 475.351
-65.9654 135.548 474.678
-65.7792 136.014 473.338
-65.6402 136.574 472.338
-65.594 137.324 472.006
-65.5479 138.073 471.674
-65.2725 138.336 469.692
-65.364 139.373 470.351
-65.4099 140.315 470.681
-65.4558 141.258 471.012
-65.364 141.903 470.351
-64.5046 140.87 464.166
-64.4154 141.506 463.525
-64.2378 141.945 462.247
-64.1494 142.577 461.611
-64.1494 143.405 461.611
-64.1053 144.133 461.293
-63.8856 144.464 459.712
-63.7981 145.089 459.083
-63.8418 146.012 459.398
-63.7981 146.736 459.083
-62.8093 150.135 451.968
-62.6826 151.449 451.056
-62.6405 152.156 450.753
-61.8918 151.136 445.365
-61.8097 151.733 444.775
-61.7279 153.125 444.186
-61.6055 153.616 443.305
-61.5648 154.309 443.012
-61.5241 155.001 442.72
-61.443 155.59 442.136
-61.443 156.382 442.136
-60.7225 155.332 436.951
-60.7225 156.116 436.951
-60.683 156.797 436.667
-60.6435 157.477 436.383
-60.5647 158.054 435.816
-60.5254 158.733 435.533
-60.4861 159.41 435.25
-60.2126 159.466 433.282
-60.1737 160.14 433.002
-60.5647 161.962 435.816
-60.5647 162.743 435.816
-60.5254 163.419 435.533
-59.4067 161.165 427.483
-59.331 161.725 426.939
-59.2933 162.387 426.667
-59.2556 163.048 426.396
-59.0304 163.191 424.775
-58.9931 163.849 424.507
-58.7699 163.987 422.901
-58.6959 164.538 422.368
-58.4383 164.57 420.514
-58.4017 165.22 420.251
-58.4017 165.974 420.251
-58.4017 166.727 420.251
-76.9284 -131.482 560.803
-76.8641 -130.368 560.335
-76.5444 -128.825 558.004
-76.5444 -127.824 558.004
-76.672 -127.035 558.934
-76.4808 -125.718 557.54
-76.5444 -124.822 558.004
-76.9928 -124.547 561.272
-77.3813 -124.164 564.105
-77.9055 -123.987 567.926
-78.0376 -123.177 568.889
-78.0376 -122.157 568.889
-78.1039 -121.24 569.372
-78.37 -120.628 571.312
-78.6379 -120.013 573.265
-72.5602 -86.0763 528.959
-72.1053 -84.5941 525.643
-72.0488 -83.5861 525.231
-72.0488 -82.6443 525.231
-71.9925 -81.6385 524.82
-71.2675 -78.9532 519.536
-73.0209 -78.9867 532.318
-73.0209 -78.0322 532.318
-72.9052 -76.9555 531.474
-72.963 -76.0628 531.896
-72.963 -75.109 531.896
-73.0209 -74.2141 532.318
-73.0209 -73.2596 532.318
-73.3119 -72.5931 534.439
-73.4289 -71.7491 535.292
-73.4289 -70.7893 535.292
-73.4875 -69.8852 535.719
-73.4289 -68.8696 535.292
-73.2535 -67.7475 534.013
-73.0209 -66.5779 532.318
-73.137 -65.7277 533.164
-73.0209 -64.6689 532.318
-73.0209 -63.7143 532.318
-73.0209 -62.7598 532.318
-73.0789 -61.8544 532.741
-73.0789 -60.8991 532.741
-73.0789 -59.9438 532.741
-73.0789 -58.9885 532.741
-73.1952 -58.1256 533.588
-73.137 -57.1234 533.164
-73.0789 -56.1227 532.741
-73.1952 -55.2552 533.588
-69.2819 -42.3389 505.061
-69.4912 -41.5585 506.586
-69.4912 -40.6501 506.586
-69.2819 -39.622 505.061
-69.4912 -38.8333 506.586
-69.2819 -37.8107 505.061
-67.4534 -35.931 491.731
-67.3546 -34.998 491.011
-67.1579 -34.0179 489.577
-67.109 -33.1159 489.22
-67.109 -32.2386 489.22
-67.109 -31.3614 489.22
-76.1642 -14.6853 555.232
-75.9128 -13.6445 553.4
-74.6805 -6.58946 544.416
-74.6805 -5.61324 544.416
-74.6805 -4.63702 544.416
-74.8628 -3.66974 545.745
-74.8628 -2.69115 545.745
-74.9238 -1.71394 546.189
-75.1072 0.245448 547.527
-75.046 1.22624 547.08
-75.2916 2.21446 548.871
-76.1642 3.23573 555.232
-75.7878 4.21043 552.488
-75.7878 5.20112 552.488
-75.9755 6.20715 553.857
-75.9755 7.20029 553.857
-75.9755 8.19344 553.857
-76.0383 9.19418 554.314
-76.2273 10.2135 555.692
-76.2905 11.2192 556.153
-76.6081 12.2673 558.468
-76.4808 13.2467 557.54
-76.4808 14.2464 557.54
-76.4808 15.2462 557.54
-76.4808 16.2459 557.54
-76.4173 17.2313 557.077
-76.4808 18.2454 557.54
-76.4808 19.2452 557.54
-76.4808 20.2449 557.54
-76.5444 21.2623 558.004
-76.7359 22.3186 559.4
-76.8 23.3412 559.867
-76.8 24.3451 559.867
-76.8 25.349 559.867
-76.7359 26.331 559.4
-76.7359 27.334 559.4
-76.6081 28.2899 558.468
-76.6081 29.2913 558.468
-76.8 30.3686 559.867
-76.8641 31.3988 560.335
-76.8641 32.4035 560.335
-76.8641 33.4083 560.335
-76.8641 35.4178 560.335
-76.8641 36.4226 560.335
-76.8641 37.4273 560.335
-76.8641 38.4321 560.335
-76.9284 39.4698 560.803
-76.9928 40.5093 561.272
-76.9928 41.5157 561.272
-77.0573 42.5578 561.742
-76.9928 43.5286 561.272
-77.0573 44.5723 561.742
-77.1866 45.6561 562.685
-77.3813 46.7828 564.105
-77.5117 47.8749 565.055
-77.5117 48.8881 565.055
-77.7081 50.0278 566.487
-76.8641 52.4987 560.335
-76.7359 53.4142 559.4
-76.8 54.4627 559.867
-76.5444 55.2821 558.004
-76.4173 56.1892 557.077
-76.4173 57.1881 557.077
-76.4173 58.187 557.077
-76.3538 59.1368 556.615
-76.4173 60.1848 557.077
-76.4808 61.2346 557.54
-76.4173 62.1827 557.077
-76.4173 63.1816 557.077
-76.4173 64.1805 557.077
-76.3538 65.1253 556.615
-76.3538 66.1234 556.615
-65.5783 133.085 478.062
-65.485 133.752 477.381
-65.4384 134.512 477.042
-65.2527 134.984 475.688
-65.1603 135.644 475.014
-65.0682 136.303 474.343
-64.8389 136.67 472.671
-64.7476 137.324 472.006
-64.6112 137.879 471.012
-64.4302 138.336 469.692
-64.4754 139.275 470.021
-64.4754 140.118 470.021
-64.5659 141.159 470.681
-64.6566 142.202 471.343
-63.6722 140.87 464.166
-63.6722 141.702 464.166
-63.4965 142.141 462.885
-63.3653 142.675 461.929
-63.3653 143.504 461.929
-63.3217 144.233 461.611
-63.0613 144.464 459.712
-62.9749 145.089 459.083
-62.9749 145.912 459.083
-61.9989 148.514 451.968
-61.9989 149.324 451.968
-62.0407 150.236 452.273
-62.0826 151.149 452.578
-62.0407 151.858 452.273
-62.2085 153.082 453.496
-61.0527 151.036 445.07
-60.7303 153.413 442.72
-60.6902 154.106 442.428
-60.6502 154.797 442.136
-60.451 155.078 440.684
-60.4113 155.766 440.394
-60.0172 155.535 437.521
-60.0172 156.319 437.521
-59.9781 157.001 437.236
-59.9781 157.785 437.236
-59.8221 158.157 436.099
-59.7832 158.836 435.816
-59.7056 159.41 435.25
-59.4741 159.569 433.562
-59.4356 160.243 433.282
-59.7444 161.857 435.533
-59.7444 162.638 435.533
-59.7832 163.525 435.816
-58.7525 161.473 428.302
-58.6775 162.034 427.755
-58.5655 162.491 426.939
-58.491 163.048 426.396
-58.3427 163.398 425.314
-58.2319 163.849 424.507
-57.9021 163.677 422.102
-57.7567 164.021 421.042
-57.612 164.364 419.988
-57.576 165.013 419.725
-57.4681 165.455 418.938
-57.3606 165.896 418.155
-75.4183 -128.611 557.077
-75.481 -127.718 557.54
-75.6067 -126.929 558.468
-75.4183 -125.614 557.077
-75.481 -124.719 557.54
-75.9228 -124.443 560.803
-76.4341 -124.269 564.579
-76.8221 -123.882 567.445
-76.9523 -123.073 568.407
-76.9523 -122.053 568.407
-77.0829 -121.24 569.372
-77.2797 -120.526 570.826
-77.4775 -119.808 572.287
-71.107 -85.4697 525.231
-71.0514 -84.4618 524.82
-70.8297 -83.2601 523.183
-70.7745 -82.2578 522.775
-70.7194 -81.257 522.368
-70.3359 -79.8848 519.536
-70.2815 -78.8921 519.133
-70.3359 -78.0216 519.536
-71.7249 -77.6623 529.795
-71.8952 -76.8946 531.053
-72.0093 -76.0628 531.896
-72.0664 -75.1686 532.318
-72.0664 -74.2141 532.318
-72.0664 -73.2596 532.318
-72.2959 -72.5353 534.013
-72.469 -71.7491 535.292
-72.469 -70.7893 535.292
-72.469 -69.8294 535.292
-72.469 -68.8696 535.292
-72.2384 -67.6936 533.588
-72.1236 -66.6308 532.741
-72.181 -65.7277 533.164
-72.0093 -64.6176 531.896
-72.0664 -63.7143 532.318
-72.0664 -62.7598 532.318
-72.181 -61.9036 533.164
-72.181 -60.9475 533.164
-72.1236 -59.9438 532.741
-72.181 -59.0354 533.164
-72.181 -58.0794 533.164
-72.181 -57.1234 533.164
-72.1236 -56.1227 532.741
-66.5716 -35.931 491.731
-66.4741 -34.998 491.011
-66.2801 -34.0179 489.577
-66.2317 -33.1159 489.22
-66.2317 -32.2386 489.22
-73.9444 -5.63152 546.189
-73.8842 -4.64834 545.745
-73.8842 -3.66974 545.745
-73.8842 -2.69115 545.745
-73.9444 -1.71394 546.189
-73.9444 -0.734547 546.189
-74.1254 0.245448 547.527
-74.2467 1.22925 548.422
-74.3683 2.21627 549.321
-74.9824 3.22772 553.857
-74.9205 4.21738 553.4
-74.9205 5.20971 553.4
-74.9205 6.20203 553.4
-74.9205 7.19436 553.4
-74.9205 8.18668 553.4
-74.9824 9.18658 553.857
-75.1686 10.205 555.232
-75.1686 11.2006 555.232
-75.6697 12.2775 558.934
-75.481 13.2467 557.54
-75.481 14.2464 557.54
-75.6067 15.2716 558.468
-75.5438 16.2594 558.004
-75.481 17.2457 557.54
-75.5438 18.2606 558.004
-75.5438 19.2612 558.004
-75.481 20.2449 557.54
-75.481 21.2447 557.54
-75.6067 22.2815 558.468
-75.7328 23.3217 559.4
-75.6697 24.3045 558.934
-75.6067 25.2857 558.468
-75.5438 26.2652 558.004
-75.6697 27.3113 558.934
-75.5438 28.2664 558.004
-75.7328 29.3402 559.4
-75.8594 30.394 560.335
-75.9228 31.425 560.803
-75.8594 32.4035 560.335
-75.9228 33.4362 560.803
-75.8594 34.413 560.335
-75.9228 35.4474 560.803
-75.9228 36.453 560.803
-75.9228 37.4586 560.803
-75.9228 38.4642 560.803
-75.9863 39.5028 561.272
-76.1776 40.6112 562.685
-76.05 41.5505 561.742
-76.3056 42.7008 563.631
-76.3056 43.7115 563.631
-76.3698 44.7598 564.105
-76.3698 45.7713 564.105
-76.4341 46.8222 564.579
-76.4341 47.8346 564.579
-76.563 48.9293 565.532
-76.8871 50.1548 567.926
-75.9228 52.5426 560.803
-75.9228 53.5482 560.803
-75.8594 54.5082 560.335
-75.6697 55.3742 558.934
-75.481 56.2359 557.54
-75.481 57.2356 557.54
-75.4183 58.187 557.077
-75.3558 59.1368 556.615
-75.4183 60.1848 557.077
-75.481 61.2346 557.54
-75.4183 62.1827 557.077
-75.4183 63.1816 557.077
-75.4183 64.1805 557.077
-75.4183 65.1794 557.077
-75.4183 66.1783 557.077
-75.4183 67.1773 557.077
-64.3086 130.534 475.014
-64.4912 131.759 476.364
-64.675 132.991 477.721
-64.629 133.752 477.381
-64.629 134.608 477.381
-64.3541 134.888 475.351
-64.3086 135.644 475.014
-64.0816 136.014 473.338
-63.9463 136.574 472.338
-63.8563 137.228 471.674
-63.7219 137.783 470.681
-63.6326 138.432 470.021
-63.6326 139.275 470.021
-63.6326 140.118 470.021
-63.6772 141.06 470.351
-63.7219 142.003 470.681
-62.8399 140.87 464.166
-62.8399 141.702 464.166
-62.7531 142.337 463.525
-62.537 142.675 461.929
-62.537 143.504 461.929
-62.537 144.332 461.929
-62.2369 144.464 459.712
-61.9397 144.594 457.517
-61.8554 145.217 456.894
-61.1885 147.703 451.968
-61.1885 148.514 451.968
-61.1885 149.324 451.968
-61.2297 150.236 452.273
-61.2297 151.047 452.273
-61.1885 151.755 451.968
-61.1885 152.566 451.968
-59.8969 153.312 442.428
-59.818 153.903 441.845
-59.7 154.39 440.973
-59.6216 154.977 440.394
-59.2713 155.636 437.807
-59.2327 156.319 437.521
-59.2327 157.104 437.521
-59.2327 157.888 437.521
-59.1555 158.466 436.951
-59.0017 158.836 435.816
-58.9634 159.514 435.533
-58.6966 159.569 433.562
-58.6966 160.347 433.562
-58.8107 161.437 434.404
-58.6208 161.693 433.002
-58.8488 163.101 434.686
-57.9845 162.241 428.302
-57.7999 162.491 426.939
-57.7631 163.152 426.667
-57.5071 163.191 424.775
-57.1812 163.023 422.368
-57.1452 163.677 422.102
-57.0733 164.228 421.572
-56.9302 164.57 420.514
-56.9302 165.324 420.514
-56.8945 165.974 420.251
-56.5755 165.792 417.894
-74.5432 -129.825 558.004
-74.4813 -128.718 557.54
-74.5432 -127.824 558.004
-74.6053 -126.929 558.468
-74.4813 -125.718 557.54
-74.4813 -124.719 557.54
-74.8546 -124.339 560.335
-75.1686 -123.852 562.685
-75.6765 -123.673 566.487
-75.9974 -123.177 568.889
-76.1913 -122.469 570.34
-76.2561 -121.549 570.826
-76.3862 -120.731 571.799
-76.4513 -119.808 572.287
-70.0008 -85.2694 524
-69.9461 -84.264 523.591
-69.7827 -83.1304 522.368
-69.7827 -82.1937 522.368
-69.7284 -81.1938 521.961
-69.4043 -79.8848 519.536
-69.3506 -78.8921 519.133
-69.4043 -78.0216 519.536
-69.4581 -77.1498 519.938
-69.4043 -76.1584 519.536
-70.943 -76.8946 531.053
-71.1119 -76.1231 532.318
-71.1119 -75.1686 532.318
-71.1119 -74.2141 532.318
-71.1684 -73.3177 532.741
-71.4521 -72.651 534.865
-71.5663 -71.8064 535.719
-71.5663 -70.8458 535.719
-71.5663 -69.8852 535.719
-71.5092 -68.8696 535.292
-71.3384 -67.7475 534.013
-71.1119 -66.5779 532.318
-71.1119 -65.6234 532.318
-70.6632 -64.2609 528.959
-70.7749 -63.4124 529.795
-70.9992 -62.6604 531.474
-71.1119 -61.8053 532.318
-71.1684 -60.8991 532.741
-71.1119 -59.8962 532.318
-71.1684 -58.9885 532.741
-71.2249 -58.0794 533.164
-71.1119 -57.0327 532.318
-65.8831 -36.0367 493.177
-65.6899 -35.0493 491.731
-65.5937 -34.1175 491.011
-65.3545 -32.2386 489.22
-65.3068 -31.3385 488.863
-65.3068 -30.4619 488.863
-65.3068 -29.5853 488.863
-65.3068 -28.7087 488.863
-73.3232 -5.65917 548.871
-73.0244 -4.65592 546.634
-73.0244 -3.67573 546.634
-73.084 -2.69773 547.08
-73.0244 -1.71534 546.634
-73.1436 -0.736345 547.527
-73.3232 0.246051 548.871
-73.3232 1.23026 548.871
-73.4434 2.21809 549.771
-73.9282 3.22506 553.4
-73.8064 4.21043 552.488
-73.8064 5.20112 552.488
-73.9282 6.20203 553.4
-73.9282 7.19436 553.4
-73.9282 8.18668 553.4
-73.9282 9.179 553.4
-74.2344 10.2135 555.692
-74.2344 11.2099 555.692
-74.7298 12.2878 559.4
-74.5432 13.2577 558.004
-74.5432 14.2583 558.004
-74.6053 15.2716 558.468
-74.5432 16.2594 558.004
-74.4813 17.2457 557.54
-74.5432 18.2606 558.004
-74.5432 19.2612 558.004
-74.4813 20.2449 557.54
-74.4813 21.2447 557.54
-74.4813 22.2444 557.54
-74.4813 23.2442 557.54
-74.4194 24.2238 557.077
-74.4194 25.2227 557.077
-74.4813 26.2434 557.54
-74.5432 27.2658 558.004
-74.5432 28.2664 558.004
-74.7298 29.3402 559.4
-74.7921 30.3686 559.867
-74.8546 31.3988 560.335
-74.7921 32.3765 559.867
-74.9172 33.4362 560.803
-74.8546 34.413 560.335
-74.9172 35.4474 560.803
-75.0427 36.5141 561.742
-75.1056 37.5528 562.213
-75.1056 38.5609 562.213
-75.2317 39.6355 563.157
-75.2949 40.6795 563.631
-75.2949 41.6902 563.631
-75.3583 42.7367 564.105
-75.3583 43.7483 564.105
-75.4217 44.7974 564.579
-75.4852 45.8484 565.055
-75.4852 46.8616 565.055
-75.4852 47.8749 565.055
-75.6126 48.9706 566.009
-75.8046 50.1124 567.445
-75.1686 52.7189 562.685
-75.1686 53.7279 562.685
-74.9172 54.5538 560.803
-74.7921 55.4667 559.867
-74.4813 56.2359 557.54
-74.4813 57.2356 557.54
-74.4194 58.187 557.077
-74.4194 59.1859 557.077
-74.4194 60.1848 557.077
-74.296 61.0823 556.153
-74.173 61.9768 555.232
-74.296 63.0768 556.153
-74.296 64.0741 556.153
-74.2344 65.0174 555.692
-74.296 66.0686 556.153
-74.6675 67.4012 558.934
-63.4119 129.59 474.678
-63.4119 130.441 474.678
-63.5919 131.665 476.026
-63.7729 132.896 477.381
-63.7276 133.657 477.042
-63.7276 134.512 477.042
-63.5018 134.888 475.351
-63.2329 136.014 473.338
-63.1437 136.67 472.671
-63.0105 137.228 471.674
-62.9663 137.976 471.343
-62.7897 138.432 470.021
-62.7897 139.275 470.021
-62.7897 140.118 470.021
-62.8338 141.06 470.351
-62.7897 141.804 470.021
-62.2229 141.359 465.778
-62.0935 141.898 464.81
-62.0505 142.633 464.488
-61.7087 142.675 461.929
-61.7087 143.504 461.929
-61.6662 144.233 461.611
-61.2866 144.167 458.769
-61.0777 144.496 457.205
-61.0361 145.217 456.894
-61.0777 146.136 457.205
-61.0361 146.855 456.894
-60.6642 147.589 454.11
-60.4187 147.803 452.273
-60.2157 148.114 450.753
-60.2562 149.023 451.056
-60.378 150.135 451.968
-60.3374 150.843 451.664
-60.2157 151.348 450.753
-60.4187 152.669 452.273
-60.378 153.376 451.968
-58.8319 151.818 440.394
-58.7933 152.507 440.105
-58.8319 153.397 440.394
-58.8319 154.187 440.394
-58.8319 154.977 440.394
-58.7933 155.664 440.105
-58.6778 156.146 439.241
-58.5627 156.626 438.379
-58.5245 157.309 438.093
-58.4863 157.991 437.807
-58.4863 158.777 437.807
-58.334 159.146 436.667
-58.296 159.825 436.383
-57.8444 159.363 433.002
-57.8444 160.14 433.002
-57.8818 161.02 433.282
-57.8444 161.693 433.002
-57.8818 162.574 433.282
-57.8818 163.351 433.282
-57.2165 162.241 428.302
-57.0344 162.491 426.939
-56.8895 162.841 425.854
-56.4238 162.266 422.368
-56.4238 163.023 422.368
-56.3528 163.574 421.837
-56.282 164.124 421.307
-56.141 164.467 420.251
-56.141 165.22 420.251
-56.1058 165.87 419.988
-55.861 165.896 418.155
-69.7147 -124.016 528.959
-73.4815 -128.718 557.54
-73.8499 -128.358 560.335
-73.8499 -127.353 560.335
-73.8499 -126.349 560.335
-73.9116 -125.449 560.803
-73.9735 -124.547 561.272
-74.2219 -123.956 563.157
-74.5348 -123.464 565.532
-74.9138 -123.073 568.407
-74.9773 -122.157 568.889
-75.1047 -121.343 569.856
-75.2967 -120.628 571.312
-75.4251 -119.808 572.287
-68.846 -85.9404 522.368
-69.1152 -85.3361 524.41
-69.0612 -84.3298 524
-68.9534 -83.2601 523.183
-68.9534 -82.3219 523.183
-68.8997 -81.3204 522.775
-68.7924 -80.2578 521.961
-68.5258 -79.0144 519.938
-68.4727 -78.0216 519.536
-68.4197 -77.0304 519.133
-68.6322 -76.3358 520.746
-69.1692 -75.9921 524.82
-69.9353 -75.8822 530.633
-70.2131 -75.2283 532.741
-70.2131 -74.273 532.741
-70.2131 -73.3177 532.741
-70.3808 -72.5353 534.013
-70.6057 -71.8064 535.719
-70.3808 -70.6202 534.013
-70.3808 -69.6626 534.013
-70.1574 -68.4869 532.318
-69.9353 -67.3187 530.633
-69.7147 -66.1579 528.959
-69.6598 -65.158 528.542
-69.6049 -64.1597 528.126
-69.7147 -63.3124 528.959
-69.7698 -62.4131 529.377
-70.1017 -61.7563 531.896
-70.1574 -60.8508 532.318
-70.1574 -59.8962 532.318
-70.1574 -58.9417 532.318
-70.1574 -57.9872 532.318
-70.1017 -56.9875 531.896
-64.8557 -35.9574 492.091
-64.8081 -35.0493 491.731
-64.7132 -34.1175 491.011
-64.6659 -33.2128 490.651
-64.6659 -32.3329 490.651
-64.5714 -31.4072 489.935
-64.5714 -30.5287 489.935
-64.8081 -28.8771 491.731
-72.2208 -5.64993 547.974
-72.0442 -4.65592 546.634
-71.9856 -3.67273 546.189
-72.103 -2.69773 547.08
-72.2799 -1.72095 548.422
-72.3983 -0.738758 549.321
-72.3983 0.246253 549.321
-72.3983 1.23126 549.321
-72.4576 2.21809 549.771
-72.696 3.21445 551.579
-72.6362 4.20005 551.126
-72.8157 5.20112 552.488
-72.9359 6.20203 553.4
-72.9359 7.19436 553.4
-72.9961 8.19344 553.857
-72.9961 9.18658 553.857
-73.2987 10.2219 556.153
-73.2987 11.2192 556.153
-73.6652 12.2775 558.934
-73.5427 13.2577 558.004
-73.6652 14.282 558.934
-73.7267 15.297 559.4
-73.6652 16.2865 558.934
-73.6652 17.2888 558.934
-73.4815 18.2454 557.54
-73.5427 19.2612 558.004
-73.4815 20.2449 557.54
-73.4815 21.2447 557.54
-73.5427 22.2629 558.004
-73.5427 23.2635 558.004
-73.4815 24.2439 557.54
-73.4815 25.2437 557.54
-73.6039 26.2871 558.468
-73.7882 27.3569 559.867
-73.6652 28.3135 558.934
-73.7882 29.3647 559.867
-73.7882 30.3686 559.867
-73.8499 31.3988 560.335
-73.7267 32.3495 559.4
-73.7882 33.3804 559.867
-73.9116 34.4418 560.803
-73.9116 35.4474 560.803
-74.0975 36.5447 562.213
-74.4093 37.7108 564.579
-74.2843 38.6581 563.631
-74.3467 39.7022 564.105
-74.3467 40.7137 564.105
-74.3467 41.7252 564.105
-74.3467 42.7367 564.105
-74.3467 43.7483 564.105
-74.4093 44.7974 564.579
-74.472 45.8484 565.055
-74.472 46.8616 565.055
-74.472 47.8749 565.055
-74.6607 49.012 566.487
-74.8504 50.1548 567.926
-74.2843 52.8075 563.631
-74.1596 53.7279 562.685
-73.9735 54.5995 561.272
-73.8499 55.513 560.335
-73.4205 56.1892 557.077
-73.4815 57.2356 557.54
-73.3596 58.1387 556.615
-73.3596 59.1368 556.615
-73.3596 60.1349 556.615
-73.238 61.0317 555.692
-73.238 62.0281 555.692
-73.2987 63.0768 556.153
-73.2987 64.0741 556.153
-73.2987 65.0713 556.153
-73.3596 66.1234 556.615
-73.4815 67.2331 557.54
-62.605 128.83 475.014
-62.6494 129.774 475.351
-62.6494 130.626 475.351
-62.8275 131.852 476.703
-62.9169 132.896 477.381
-62.8722 133.657 477.042
-62.7829 134.321 476.364
-62.6494 134.888 475.351
-62.605 135.644 475.014
-62.3841 136.014 473.338
-62.2523 136.574 472.338
-61.7738 138.045 468.707
-61.8602 139.08 469.363
-61.7738 139.726 468.707
-61.817 140.665 469.035
-61.9469 141.804 470.021
-61.9036 142.547 469.692
-61.9469 143.489 470.021
-60.8385 141.749 461.611
-60.8385 142.577 461.611
-60.7966 143.306 461.293
-60.6298 143.738 460.028
-60.5468 144.365 459.398
-60.2579 144.496 457.205
-60.1758 145.118 456.583
-60.1758 145.937 456.583
-60.1349 146.655 456.272
-59.8094 146.675 453.803
-59.7286 147.29 453.189
-59.6077 147.803 452.273
-59.4874 148.314 451.36
-59.2879 148.623 449.846
-59.4474 149.832 451.056
-59.3277 150.337 450.148
-59.2879 151.043 449.846
-59.4074 152.156 450.753
-59.2482 152.554 449.545
-58.0422 151.818 440.394
-58.0041 152.507 440.105
-58.0422 153.397 440.394
-58.0422 154.187 440.394
-58.1185 155.18 440.973
-58.0803 155.869 440.684
-58.0041 156.453 440.105
-57.9281 157.036 439.528
-57.7389 158.095 438.093
-57.6636 158.673 437.521
-57.0311 157.709 432.723
-56.8478 157.975 431.331
-56.9944 159.158 432.444
-57.1048 160.243 433.282
-57.1417 161.124 433.562
-57.1048 161.797 433.282
-57.2157 162.89 434.123
-57.327 163.986 434.968
-56.4485 162.241 428.302
-56.2688 162.491 426.939
-56.1259 162.841 425.854
-55.4569 161.655 420.778
-55.4917 162.511 421.042
-55.3874 162.959 420.251
-55.3874 163.713 420.251
-55.3874 164.467 420.251
-55.4569 165.428 420.778
-55.4221 166.078 420.514
-55.4221 166.832 420.514
-68.7662 -124.965 528.959
-68.9838 -124.409 530.633
-68.9293 -123.36 530.214
-68.8749 -122.312 529.795
-72.7236 -127.141 559.4
-72.663 -126.033 558.934
-72.906 -125.449 560.803
-73.1507 -124.861 562.685
-73.8946 -125.111 568.407
-73.9572 -124.197 568.889
-73.9572 -123.177 568.889
-73.9572 -122.157 568.889
-74.0829 -121.343 569.856
-74.2722 -120.628 571.312
-74.399 -119.808 572.287
-68.0153 -86.0745 523.183
-68.2282 -85.4028 524.82
-68.2816 -84.5279 525.231
-68.2816 -83.5861 525.231
-68.2282 -82.5796 524.82
-68.0153 -81.3838 523.183
-67.8037 -80.1954 521.556
-67.5411 -78.9532 519.536
-67.4888 -77.9612 519.133
-67.4366 -76.9708 518.732
-67.4888 -76.0995 519.133
-68.2282 -75.9921 524.82
-68.2816 -75.1097 525.231
-68.2282 -74.1099 524.82
-69.2578 -74.273 532.741
-69.3129 -70.5079 533.164
-69.2578 -69.4966 532.741
-68.7662 -68.0548 528.959
-68.55 -66.8953 527.296
-68.4424 -65.8463 526.468
-68.4961 -64.9532 526.882
-68.55 -64.0588 527.296
-68.712 -63.2625 528.542
-68.7662 -62.3639 528.959
-69.0932 -61.7073 531.474
-69.2028 -60.8508 532.318
-69.148 -59.8487 531.896
-69.148 -58.895 531.896
-69.148 -57.9412 531.896
-69.0932 -56.9423 531.474
-68.8205 -55.7683 529.377
-63.8795 -35.0236 491.37
-63.8795 -34.1425 491.37
-63.8328 -33.2371 491.011
-63.7861 -32.3329 490.651
-63.8328 -31.4762 491.011
-63.7861 -30.5733 490.651
-63.9264 -28.8771 491.731
-63.9264 -27.9953 491.731
-71.0062 -6.61092 546.189
-70.7756 -5.61324 544.416
-70.8907 -4.64456 545.301
-70.9484 -3.66974 545.745
-71.0062 -2.69334 546.189
-71.5304 -1.7266 550.222
-71.5304 -0.73997 550.222
-71.5891 0.246859 550.674
-71.5891 1.2343 550.674
-71.8842 2.23089 552.943
-71.7069 3.21445 551.579
-71.5891 4.19661 550.674
-71.7659 5.19684 552.033
-71.9436 6.20203 553.4
-72.003 7.20029 553.857
-72.003 8.19344 553.857
-72.0625 9.19418 554.314
-72.3615 10.2304 556.615
-72.3615 11.2285 556.615
-72.663 12.2775 558.934
-72.663 13.2798 558.934
-72.7843 14.3059 559.867
-72.7843 15.3098 559.867
-72.663 16.2865 558.934
-72.4818 17.2457 557.54
-72.5421 18.2606 558.004
-72.6025 19.2772 558.468
-72.5421 20.2618 558.004
-72.5421 21.2623 558.004
-72.5421 22.2629 558.004
-72.5421 23.2635 558.004
-72.4216 24.2238 557.077
-72.4818 25.2437 557.54
-72.7236 26.331 559.4
-72.906 27.4026 560.803
-72.8451 28.3845 560.335
-72.906 29.4138 560.803
-72.906 30.4194 560.803
-72.906 31.425 560.803
-72.8451 32.4035 560.335
-72.8451 33.4083 560.335
-72.8451 34.413 560.335
-73.1507 35.5664 562.685
-73.1507 36.5753 562.685
-72.906 37.4586 560.803
-73.2121 38.6257 563.157
-73.2121 39.6355 563.157
-73.2736 40.6795 563.631
-73.3352 41.7252 564.105
-73.3352 42.7367 564.105
-73.3352 43.7483 564.105
-73.3969 44.7974 564.579
-73.4588 45.8484 565.055
-73.4588 46.8616 565.055
-73.5207 47.9152 565.532
-73.6449 49.012 566.487
-73.832 50.1548 567.926
-73.1507 52.7189 562.685
-73.1507 53.7279 562.685
-72.967 54.5995 561.272
-72.906 55.5594 560.803
-72.7236 56.4235 559.4
-72.7236 57.4266 559.4
-72.5421 58.2838 558.004
-72.4818 59.2351 557.54
-72.4818 60.2349 557.54
-72.4818 61.2346 557.54
-72.4818 62.2344 557.54
-72.4818 63.2341 557.54
-72.4818 64.2339 557.54
-72.5421 65.2879 558.004
-72.5421 66.2885 558.004
-72.663 67.4012 558.934
-72.7843 68.5176 559.867
-72.7843 69.5216 559.867
-61.6659 128.648 474.343
-61.797 129.774 475.351
-61.8847 130.812 476.026
-62.0609 132.04 477.381
-62.0609 132.896 477.381
-62.0168 133.657 477.042
-62.0168 134.512 477.042
-61.8408 134.984 475.688
-61.7532 135.644 475.014
-61.6659 136.303 474.343
-60.7635 136.823 467.401
-60.7635 137.661 467.401
-60.7635 138.499 467.401
-60.7212 139.24 467.075
-60.7212 140.077 467.075
-60.343 140.037 464.166
-60.343 140.87 464.166
-60.3012 141.604 463.845
-60.3848 142.633 464.488
-60.3848 143.466 464.488
-60.0107 143.405 461.611
-59.7639 143.64 459.712
-59.6821 144.266 459.083
-59.438 144.496 457.205
-59.1156 144.528 454.726
-59.1959 145.54 455.343
-59.1558 146.258 455.034
-58.9957 146.675 453.803
-58.9558 147.389 453.496
-58.8761 148.002 452.883
-58.678 148.314 451.36
-58.5205 148.723 450.148
-58.5992 149.731 450.753
-58.5205 150.337 450.148
-58.4421 150.942 449.545
-58.4813 151.85 449.846
-58.2858 152.146 448.343
-57.5169 151.726 442.428
-57.479 152.418 442.136
-57.3655 152.909 441.263
-57.4033 153.801 441.554
-57.4033 154.593 441.554
-57.4411 155.487 441.845
-57.4033 156.176 441.554
-57.2525 156.556 440.394
-57.2149 157.242 440.105
-57.1774 157.928 439.817
-56.8049 158.466 436.951
-56.2552 157.709 432.723
-56.1465 158.178 431.887
-56.1827 159.055 432.165
-56.2915 160.14 433.002
-56.3279 161.02 433.282
-56.3279 161.797 433.282
-56.4373 162.89 434.123
-56.4008 163.562 433.842
-55.6449 162.138 428.028
-55.5032 162.491 426.939
-55.4327 163.048 426.396
-54.6338 161.452 420.251
-54.7024 162.409 420.778
-54.7024 163.164 420.778
-54.7367 164.021 421.042
-54.7024 164.673 420.778
-54.84 165.844 421.837
-54.7367 166.286 421.042
-54.7024 166.937 420.778
-67.7643 -126.762 528.542
-67.8177 -125.913 528.959
-67.8177 -124.965 528.959
-67.9249 -124.212 529.795
-67.9786 -123.36 530.214
-67.8713 -122.216 529.377
-67.8177 -121.171 528.959
-73.3728 -125.965 572.287
-73.4354 -125.046 572.776
-73.4354 -124.019 572.776
-73.3728 -122.887 572.287
-73.1232 -121.446 570.34
-73.1232 -120.423 570.34
-73.3728 -119.808 572.287
-67.1295 -86.1417 523.591
-67.2871 -85.4028 524.82
-67.3398 -84.5279 525.231
-67.2871 -83.5207 524.82
-67.2345 -82.515 524.41
-67.0248 -81.3204 522.775
-66.7129 -80.0088 520.342
-66.6095 -78.9532 519.536
-66.558 -77.9612 519.133
-66.558 -77.0304 519.133
-66.558 -76.0995 519.133
-67.2345 -75.9326 524.41
-67.2345 -74.9923 524.41
-67.2871 -74.1099 524.82
-67.3398 -73.2261 525.231
-67.3398 -72.2843 525.231
-66.9726 -70.9535 522.368
-66.9205 -69.0264 521.961
-66.9205 -68.0905 521.961
-67.3398 -67.5752 525.231
-67.3925 -66.6856 525.643
-67.3398 -65.6916 525.231
-67.3925 -64.8005 525.643
-67.4454 -63.9081 526.055
-67.4983 -63.0142 526.468
-67.7109 -62.2657 528.126
-67.8177 -61.4154 528.959
-67.8713 -60.5146 529.377
-67.8713 -59.5653 529.377
-67.9249 -58.6624 529.795
-67.8177 -57.6214 528.959
-67.8713 -56.7176 529.377
-67.8177 -55.7244 528.959
-63.2301 -36.0367 493.177
-63.0909 -35.075 492.091
-63.0446 -34.1675 491.731
-62.9984 -33.2614 491.37
-62.9984 -32.3803 491.37
-62.9984 -31.4992 491.37
-63.0446 -30.6406 491.731
-63.1372 -28.9195 492.453
-63.0446 -27.9953 491.731
-69.9698 -6.60554 545.745
-69.9129 -5.62237 545.301
-69.9698 -4.64834 545.745
-69.9698 -3.66974 545.745
-70.0268 -2.69334 546.189
-70.141 -1.71674 547.08
-70.486 -0.739363 549.771
-70.5438 0.246657 550.222
-70.486 1.23227 549.771
-70.486 2.21809 549.771
-70.6017 3.20917 550.674
-70.5438 4.19316 550.222
-70.6017 5.18404 550.674
-70.9512 6.20203 553.4
-71.0098 7.20029 553.857
-71.0098 8.19344 553.857
-71.1862 9.2094 555.232
-71.3634 10.2304 556.615
-71.6607 11.2753 558.934
-71.6607 12.2775 558.934
-71.7205 13.2909 559.4
-71.8403 14.3178 560.335
-71.8403 15.3226 560.335
-71.7205 16.3001 559.4
-71.6607 17.2888 558.934
-71.6607 18.291 558.934
-71.7205 19.3094 559.4
-71.6011 20.2786 558.468
-71.6607 21.2978 558.934
-71.7205 22.3186 559.4
-71.7205 23.3217 559.4
-71.482 24.2439 557.54
-71.6607 25.3068 558.934
-71.6607 26.309 558.934
-71.8403 27.3797 560.335
-71.7804 28.3608 559.867
-71.8403 29.3892 560.335
-71.9004 30.4194 560.803
-71.9004 31.425 560.803
-71.8403 32.4035 560.335
-71.8403 33.4083 560.335
-72.1417 34.5574 562.685
-72.1417 35.5664 562.685
-72.1417 36.5753 562.685
-72.1417 37.5843 562.685
-72.2629 38.6581 563.631
-72.2022 39.6355 563.157
-72.2022 40.6453 563.157
-72.2629 41.6902 563.631
-72.2629 42.7008 563.631
-72.3237 43.7483 564.105
-72.3846 44.7974 564.579
-72.4456 45.8484 565.055
-72.5067 46.9012 565.532
-72.5678 47.9557 566.009
-72.752 49.0949 567.445
-72.8136 50.1548 567.926
-72.0208 54.6452 561.742
-71.9004 55.5594 560.803
-71.9004 56.565 560.803
-71.5415 57.2832 558.004
-71.6607 58.3809 558.934
-71.482 59.2351 557.54
-71.482 60.2349 557.54
-71.5415 61.2855 558.004
-71.6607 62.3899 558.934
-71.5415 63.2867 558.004
-71.6607 64.3944 558.934
-71.5415 66.2885 558.004
-60.9879 129.013 475.688
-61.1179 130.143 476.703
-61.2049 131.184 477.381
-61.2485 132.134 477.721
-61.2485 132.991 477.721
-61.2049 133.752 477.381
-61.2485 134.704 477.721
-61.1614 135.368 477.042
-61.1179 136.126 476.703
-60.9015 136.496 475.014
-60.6866 136.863 473.338
-60.0929 137.205 468.707
-60.0929 138.045 468.707
-60.177 139.08 469.363
-60.0509 139.629 468.38
-59.9671 140.273 467.727
-59.4695 139.94 463.845
-59.4695 140.772 463.845
-59.4695 141.604 463.845
-59.3054 142.043 462.566
-59.3054 142.872 462.566
-59.1423 143.306 461.293
-58.8187 143.345 458.769
-58.7383 143.97 458.142
-58.5783 144.397 456.894
-58.3794 144.724 455.343
-58.4191 145.639 455.652
-58.3398 146.258 455.034
-58.2213 146.775 454.11
-58.1819 147.489 453.803
-58.1426 148.203 453.496
-57.8687 148.314 451.36
-57.8298 149.023 451.056
-57.7521 149.63 450.45
-57.8298 150.641 451.056
-57.8298 151.449 451.056
-57.9467 152.566 451.968
-57.5588 152.35 448.943
-56.7235 152.519 442.428
-56.6861 153.211 442.136
-56.5371 153.599 440.973
-56.5371 154.39 440.973
-56.6115 155.385 441.554
-56.3888 156.351 439.817
-56.3888 157.139 439.817
-56.1311 157.991 437.807
-56.0579 158.569 437.236
-55.731 158.424 434.686
-55.6228 158.895 433.842
-55.551 159.466 433.282
-55.5869 160.347 433.562
-55.6228 161.228 433.842
-55.5869 161.902 433.562
-55.6228 162.784 433.842
-55.5151 163.245 433.002
-54.9124 162.241 428.302
-54.7725 162.594 427.21
-53.9817 161.756 421.042
-54.0836 163.574 421.837
-54.1517 164.538 422.368
-54.1517 165.295 422.368
-54.1517 166.053 422.368
-54.1176 166.705 422.102
-54.0836 167.357 421.837
-66.8165 -126.762 528.542
-66.8165 -125.814 528.542
-66.8692 -124.965 528.959
-67.134 -124.507 531.053
-67.0808 -123.457 530.633
-66.9749 -122.312 529.795
-67.0808 -121.554 530.633
-72.3466 -122.887 572.287
-72.1005 -121.446 570.34
-72.1005 -120.423 570.34
-72.1005 -119.4 570.34
-66.036 -85.9404 522.368
-66.0874 -85.07 522.775
-66.3979 -84.5279 525.231
-66.3979 -83.5861 525.231
-66.346 -82.5796 524.82
-66.0874 -81.3204 522.775
-65.9846 -80.2578 521.961
-65.9333 -79.2602 521.556
-65.7798 -78.1427 520.342
-65.7288 -77.1498 519.938
-66.036 -76.5736 522.368
-66.2423 -75.8733 524
-66.2423 -74.9337 524
-66.2941 -74.0519 524.41
-66.346 -73.1688 524.82
-66.3979 -72.2843 525.231
-66.036 -70.9535 522.368
-66.036 -70.0169 522.368
-65.9846 -69.0264 521.961
-65.9846 -68.0905 521.961
-66.139 -67.3117 523.183
-66.346 -66.5813 524.82
-66.346 -65.6402 524.82
-66.45 -64.8005 525.643
-66.5021 -63.9081 526.055
-66.5543 -63.0142 526.468
-66.8165 -62.3147 528.542
-66.8692 -61.4154 528.959
-66.922 -60.5146 529.377
-67.0278 -59.6595 530.214
-67.134 -58.8017 531.053
-66.9749 -57.7124 529.795
-67.0278 -56.8073 530.214
-62.3457 -36.0367 493.177
-62.2542 -35.1008 492.453
-62.2085 -33.3102 492.091
-62.2085 -32.4278 492.091
-62.1629 -31.5223 491.731
-62.2542 -28.9195 492.453
-62.1629 -27.9953 491.731
-68.9912 -6.60554 545.745
-69.0474 -5.63152 546.189
-69.0474 -4.65213 546.189
-69.16 -3.67872 547.08
-69.3864 -2.70656 548.871
-69.4432 -1.72377 549.321
-69.5572 -0.73997 550.222
-69.5572 0.246657 550.222
-69.5572 1.23328 550.222
-69.5572 2.21991 550.222
-69.5572 3.20654 550.222
-69.5572 4.19316 550.222
-69.6143 5.18404 550.674
-69.9589 6.20203 553.4
-70.0167 7.20029 553.857
-70.0745 8.20021 554.314
-70.307 9.22467 556.153
-70.4237 10.2389 557.077
-70.8948 11.313 560.803
-70.8948 12.3186 560.803
-70.8356 13.3131 560.335
-70.8948 14.3298 560.803
-70.8948 15.3354 560.803
-70.8948 16.341 560.803
-70.8948 17.3466 560.803
-70.7765 18.3216 559.867
-70.7174 19.3094 559.4
-70.5996 20.2786 558.468
-70.5409 21.2623 558.004
-70.5409 22.2629 558.004
-70.5409 23.2635 558.004
-70.5409 24.2641 558.004
-70.7765 25.349 559.867
-70.8948 26.397 560.803
-70.9541 27.4255 561.272
-70.8356 28.3845 560.335
-70.8948 29.4138 560.803
-70.8948 30.4194 560.803
-70.8948 31.425 560.803
-70.8948 32.4306 560.803
-70.8948 33.4362 560.803
-70.9541 34.4706 561.272
-70.9541 35.4771 561.272
-71.0135 36.5141 561.742
-71.1327 37.5843 562.685
-71.2523 38.6581 563.631
-71.1924 39.6355 563.157
-71.1924 40.6453 563.157
-71.3122 41.7252 564.105
-71.3722 42.7727 564.579
-71.3122 43.7483 564.105
-71.3722 44.7974 564.579
-71.4323 45.8484 565.055
-71.4926 46.9012 565.532
-71.4323 47.8749 565.055
-71.7345 49.0949 567.445
-70.8948 56.565 560.803
-70.4237 57.1881 557.077
-60.3919 129.564 477.721
-60.3919 130.421 477.721
-60.3919 131.277 477.721
-60.4349 132.228 478.062
-60.3919 132.991 477.721
-60.3489 133.752 477.381
-60.3489 134.608 477.381
-60.306 135.368 477.042
-60.2631 136.126 476.703
-59.8801 136.11 473.673
-59.7535 136.67 472.671
-59.1284 136.918 467.727
-59.1284 137.757 467.727
-59.005 138.306 466.75
-59.005 139.143 466.75
-58.7597 139.398 464.81
-58.6783 140.037 464.166
-58.6783 140.87 464.166
-58.5972 141.506 463.525
-58.3954 141.847 461.929
-58.3553 142.577 461.611
-58.1153 142.815 459.712
-57.7984 142.856 457.205
-57.8378 143.774 457.517
-57.7984 144.496 457.205
-57.6804 145.019 456.272
-57.6804 145.837 456.272
-57.6412 146.556 455.962
-57.5239 147.073 455.034
-57.4459 147.689 454.418
-57.3682 148.303 453.803
-56.9827 148.114 450.753
-56.9062 148.723 450.148
-56.8299 149.33 449.545
-56.8299 150.136 449.545
-56.8299 150.942 449.545
-56.7918 151.646 449.243
-56.6779 152.146 448.343
-55.8933 152.418 442.136
-55.8565 153.11 441.845
-55.783 153.7 441.263
-55.7463 154.39 440.973
-55.783 155.283 441.263
-55.6731 155.766 440.394
-55.6366 156.453 440.105
-55.6366 157.242 440.105
-55.5273 157.721 439.241
-55.3822 158.095 438.093
-55.3461 158.777 437.807
-54.9871 159.307 434.968
-54.774 159.466 433.282
-54.774 160.243 433.282
-54.774 161.02 433.282
-54.774 161.797 433.282
-54.7387 162.469 433.002
-54.1444 162.241 428.302
-54.0065 162.594 427.21
-53.9721 163.256 426.939
-53.3943 163.023 422.368
-53.3607 163.677 422.102
-53.5292 164.953 423.435
-53.4954 165.608 423.167
-53.4954 166.367 423.167
-53.3943 166.81 422.368
-53.3943 167.567 422.368
-65.8169 -126.662 528.126
-65.9207 -125.913 528.959
-65.9728 -125.063 529.377
-66.1817 -124.507 531.053
-66.1817 -123.555 531.053
-66.0249 -122.312 529.795
-65.9207 -121.171 528.959
-66.1293 -120.603 530.633
-65.4049 -84.4618 524.82
-65.4561 -83.5861 525.231
-65.4049 -82.5796 524.82
-65.15 -81.3204 522.775
-65.0993 -80.3204 522.368
-65.0993 -79.3837 522.368
-65.0486 -78.3859 521.961
-64.7965 -77.1498 519.938
-65.0993 -76.5736 522.368
-65.3538 -75.9326 524.41
-65.2518 -74.8752 523.591
-65.3538 -74.0519 524.41
-65.3538 -73.1116 524.41
-65.3027 -72.1149 524
-65.0993 -70.9535 522.368
-65.0993 -70.0169 522.368
-65.0993 -69.0802 522.368
-65.0993 -68.1435 522.368
-65.3538 -67.4696 524.41
-65.4561 -66.6334 525.231
-65.4561 -65.6916 525.231
-65.5074 -64.8005 525.643
-65.5588 -63.9081 526.055
-65.7134 -63.1133 527.296
-65.8688 -62.3147 528.542
-65.9728 -61.4638 529.377
-66.2867 -60.8025 531.896
-66.3393 -59.8962 532.318
-66.3393 -58.9417 532.318
-66.1817 -57.8495 531.053
-66.3393 -57.0327 532.318
-61.5066 -28.9833 493.54
-61.2812 -27.9953 491.731
-67.847 -7.56567 544.416
-68.0126 -6.60554 545.745
-68.068 -5.63152 546.189
-68.068 -4.65213 546.189
-68.4022 -3.69077 548.871
-68.5143 -2.711 549.771
-68.6268 -1.72801 550.674
-68.5705 -0.73997 550.222
-68.6268 0.246859 550.674
-68.7397 1.23633 551.579
-68.853 2.22905 552.488
-68.7397 3.21445 551.579
-68.7963 4.20697 552.033
-68.9097 5.20541 552.943
-69.0235 6.20715 553.857
-69.1377 7.21221 554.773
-69.2523 8.22059 555.692
-69.3672 9.23233 556.615
-69.4825 10.2474 557.54
-69.7725 11.2941 559.867
-69.7725 12.298 559.867
-69.7725 13.302 559.867
-69.8308 14.3178 560.335
-69.8892 15.3354 560.803
-69.8308 16.3274 560.335
-69.8892 17.3466 560.803
-69.8308 18.3369 560.335
-69.8308 19.3416 560.335
-69.5403 20.2618 558.004
-69.4825 23.2442 557.54
-69.4825 24.2439 557.54
-69.6562 25.3068 558.934
-69.8892 26.397 560.803
-69.9477 27.4255 561.272
-69.8892 28.4082 560.803
-69.8892 29.4138 560.803
-69.8892 30.4194 560.803
-69.9477 31.4513 561.272
-69.9477 32.4577 561.272
-69.9477 33.4642 561.272
-70.0649 34.5284 562.213
-70.1237 35.5664 562.685
-70.1826 36.606 563.157
-70.1237 37.5843 562.685
-70.2416 38.6581 563.631
-70.1826 39.6355 563.157
-70.2416 40.6795 563.631
-70.3007 41.7252 564.105
-70.3598 42.7727 564.579
-70.3598 43.7851 564.579
-70.4191 44.8352 565.055
-70.5975 45.9646 566.487
-70.717 47.0599 567.445
-70.717 48.0774 567.445
-70.717 49.0949 567.445
-70.8369 50.1973 568.407
-59.7053 129.934 479.086
-59.6202 130.607 478.403
-59.5777 131.371 478.062
-59.5777 132.228 478.062
-59.5352 132.991 477.721
-59.4929 133.752 477.381
-59.4929 134.608 477.381
-59.4083 135.271 476.703
-59.1979 135.644 475.014
-58.9474 135.918 473.005
-58.5347 136.651 469.692
-58.4119 138.045 468.707
-58.1681 138.306 466.75
-58.1681 139.143 466.75
-58.1681 139.98 466.75
-57.9262 140.231 464.81
-57.9262 141.065 464.81
-57.8861 141.8 464.488
-57.5671 141.847 461.929
-57.488 142.479 461.293
-57.2125 142.62 459.083
-57.0563 143.872 457.83
-57.0953 144.792 458.142
-56.9397 145.217 456.894
-56.9009 145.937 456.583
-56.9009 146.755 456.583
-56.7464 147.173 455.343
-56.5545 147.489 453.803
-56.0614 147.816 449.846
-56.0614 148.623 449.846
-55.9863 149.23 449.243
-56.0238 150.136 449.545
-55.9863 150.841 449.243
-55.9488 151.545 448.943
-55.7622 151.842 447.445
-55.1733 152.62 442.72
-55.1005 153.211 442.136
-55.1005 154.004 442.136
-55.0642 154.695 441.845
-55.1005 155.59 442.136
-55.0642 156.279 441.845
-54.9556 156.762 440.973
-54.9195 157.449 440.684
-54.5967 158.88 438.093
-54.561 159.562 437.807
-53.9971 158.689 433.282
-53.8926 159.158 432.444
-53.8926 159.933 432.444
-53.9274 160.812 432.723
-53.9622 161.693 433.002
-53.9622 162.469 433.002
-53.2744 161.931 427.483
-53.2404 162.594 427.21
-53.0041 164.16 425.314
-52.9035 164.61 424.507
-52.9035 165.371 424.507
-52.7366 165.608 423.167
-52.7033 166.262 422.901
-52.637 166.81 422.368
-52.637 167.567 422.368
-64.9722 -126.862 528.959
-65.0235 -126.013 529.377
-65.2295 -125.46 531.053
-65.3329 -124.705 531.896
-65.3329 -123.751 531.896
-65.3848 -122.895 532.318
-65.1778 -120.603 530.633
-65.1778 -119.651 530.633
-64.9722 -118.325 528.959
-65.1263 -117.655 530.214
-65.0749 -116.612 529.795
-65.0749 -115.662 529.795
-65.3848 -114.304 532.318
-64.5649 -84.5941 525.643
-64.5649 -83.6516 525.643
-64.5143 -82.6443 525.231
-64.3129 -81.4473 523.591
-64.2126 -80.3829 522.775
-64.2126 -79.4455 522.775
-64.1626 -78.447 522.368
-64.1127 -77.45 521.961
-64.2126 -76.6333 522.775
-64.4134 -75.9326 524.41
-64.3129 -74.8752 523.591
-64.3631 -73.9941 524
-64.4134 -73.1116 524.41
-64.3631 -72.1149 524
-64.2126 -71.0088 522.775
-64.2126 -70.0714 522.775
-64.2126 -69.134 522.775
-64.2126 -68.1966 522.775
-64.4134 -67.4696 524.41
-64.5143 -66.6334 525.231
-64.5143 -65.6916 525.231
-64.5649 -64.8005 525.643
-64.6155 -63.9081 526.055
-64.717 -63.0637 526.882
-64.9722 -62.3639 528.959
-65.1263 -61.561 530.214
-65.3848 -60.8508 532.318
-65.4887 -59.9915 533.164
-65.4887 -59.0354 533.164
-65.3848 -57.9872 532.318
-64.9722 -52.8789 528.959
-60.7557 -29.0475 494.632
-60.4881 -28.0365 492.453
-66.9795 -9.53358 545.301
-66.8708 -8.54189 544.416
-66.7083 -7.54729 543.093
-66.8708 -6.58946 544.416
-67.0886 -5.63152 546.189
-67.0886 -4.65213 546.189
-67.5285 -3.69682 549.771
-67.8623 -2.7244 552.488
-67.9182 -1.73514 552.943
-67.8623 -0.743017 552.488
-67.8623 0.247672 552.488
-67.9182 1.23938 552.943
-67.9182 2.23089 552.943
-67.9182 3.2224 552.943
-67.9182 4.2139 552.943
-68.0304 5.21401 553.857
-68.0866 6.21228 554.314
-68.1429 7.21221 554.773
-68.3124 8.22741 556.153
-68.3691 9.23233 556.615
-68.4259 10.2389 557.077
-68.5968 11.2659 558.468
-68.7113 12.2878 559.4
-68.7686 13.302 559.867
-68.8261 14.3178 560.335
-68.8836 15.3354 560.803
-68.8836 16.341 560.803
-68.9413 17.3611 561.272
-68.8261 18.3369 560.335
-68.999 19.3902 561.742
-68.654 25.3068 558.934
-68.8836 26.397 560.803
-68.9413 27.4255 561.272
-68.9413 28.432 561.272
-68.9413 29.4384 561.272
-68.9413 30.4449 561.272
-68.999 31.4776 561.742
-68.999 32.4849 561.742
-69.0568 33.5203 562.213
-69.1728 34.5864 563.157
-69.1728 35.5962 563.157
-69.2309 36.6368 563.631
-69.2309 37.6475 563.631
-69.2891 38.6907 564.105
-69.1148 39.6022 562.685
-69.2309 40.6795 563.631
-69.3475 41.7603 564.579
-69.4059 42.8087 565.055
-69.4059 43.822 565.055
-69.4059 44.8352 565.055
-69.6406 46.0034 566.966
-69.6995 47.0599 567.445
-69.5817 47.9962 566.487
-69.5817 49.012 566.487
-69.8176 50.1973 568.407
-58.8883 130.027 479.428
-58.8883 130.887 479.428
-58.8043 131.558 478.744
-58.7623 132.322 478.403
-58.7205 133.085 478.062
-58.6369 133.752 477.381
-58.6369 134.608 477.381
-58.4289 134.984 475.688
-58.3049 135.548 474.678
-58.0993 135.918 473.005
-57.9359 136.382 471.674
-57.7733 136.843 470.351
-57.8139 137.783 470.681
-57.6924 138.336 469.692
-57.371 138.402 467.075
-57.371 139.24 467.075
-57.371 140.077 467.075
-57.0927 140.231 464.81
-57.1323 141.163 465.132
-56.9349 141.506 463.525
-56.6608 141.652 461.293
-56.6218 142.381 460.976
-56.3893 142.62 459.083
-56.1204 142.759 456.894
-56.2738 143.97 458.142
-56.2738 144.792 458.142
-56.1587 145.316 457.205
-56.1204 146.036 456.894
-56.1204 146.855 456.894
-56.006 147.373 455.962
-55.703 147.389 453.496
-55.3661 148.114 450.753
-55.2918 148.723 450.148
-55.2177 149.33 449.545
-55.2177 150.136 449.545
-55.2177 150.942 449.545
-55.1807 151.646 449.243
-55.0333 152.044 448.043
-54.4513 152.821 443.305
-54.3435 153.312 442.428
-54.3077 154.004 442.136
-54.3077 154.797 442.136
-54.3077 155.59 442.136
-54.3077 156.382 442.136
-54.3077 157.175 442.136
-54.3435 158.072 442.428
-54.3794 158.97 442.72
-53.8463 158.984 438.379
-53.1858 158.587 433.002
-53.0147 158.851 431.609
-52.9465 159.419 431.054
-52.9465 160.192 431.054
-53.0147 161.172 431.609
-52.9125 161.634 430.777
-52.4076 160.857 426.667
-52.441 161.725 426.939
-52.4076 162.387 426.667
-52.4076 163.152 426.667
-52.2746 165.028 425.584
-52.1753 165.476 424.775
-52.0106 165.713 423.435
-51.9778 166.367 423.167
-51.8143 166.6 421.837
-51.7168 167.041 421.042
-64.4302 -126.713 532.318
-64.4302 -125.758 532.318
-64.5327 -125.002 533.164
-64.584 -124.145 533.588
-64.5327 -123.09 533.164
-64.4302 -121.94 532.318
-64.3791 -120.89 531.896
-64.4302 -120.031 532.318
-64.2772 -118.794 531.053
-64.2772 -117.842 531.053
-64.2263 -116.797 530.633
-64.1756 -115.754 530.214
-64.2772 -114.985 531.053
-64.4302 -114.304 532.318
-63.6223 -83.6516 525.643
-63.6223 -82.709 525.643
-63.5228 -81.6385 524.82
-63.4731 -80.6343 524.41
-63.374 -79.5696 523.591
-63.2752 -78.5081 522.775
-63.2259 -77.5103 522.368
-63.3246 -76.6931 523.183
-63.5725 -76.0516 525.231
-63.4731 -74.9923 524.41
-63.5228 -74.1099 524.82
-63.5228 -73.1688 524.82
-63.5725 -72.2843 525.231
-63.374 -71.1197 523.591
-63.374 -70.1808 523.591
-63.4731 -69.3502 524.41
-63.5228 -68.4634 524.82
-63.6223 -67.6282 525.643
-63.6722 -66.7379 526.055
-63.6223 -65.7431 525.643
-63.6722 -64.8513 526.055
-63.7222 -63.9582 526.468
-64.0237 -63.3124 528.959
-64.0237 -62.3639 528.959
-64.1756 -61.561 530.214
-64.3791 -60.8025 531.896
-64.4302 -59.8962 532.318
-64.4814 -58.9885 532.741
-64.4302 -57.9872 532.318
