ply
format ascii 1.0
element vertex 1907
property float x
property float y
property float z
end_header
-37.734 -42.8251 668.048
-37.734 -41.6272 668.048
-37.734 -40.4293 668.048
-37.734 -39.2314 668.048
-37.6965 -37.9957 667.384
-37.6965 -36.799 667.384
-37.6965 -35.6022 667.384
-37.6965 -34.4055 667.384
-37.734 -33.2419 668.048
-37.7717 -32.0759 668.714
-37.7717 -30.8768 668.714
-37.734 -29.6482 668.048
-37.734 -28.4503 668.048
-37.7717 -27.2795 668.714
-37.6965 -26.0285 667.384
-37.6965 -24.8318 667.384
-37.734 -23.6586 668.048
-37.7717 -22.4831 668.714
-37.7717 -21.284 668.714
-37.7717 -20.0849 668.714
-37.7717 -18.8858 668.714
-37.734 -17.6691 668.048
-37.7717 -16.4876 668.714
-33.0584 137.744 585.271
-32.8008 137.711 580.71
-32.6595 138.155 578.207
-32.5752 138.832 576.716
-32.5472 139.746 576.22
-32.5752 140.901 576.716
-32.5752 141.935 576.716
-32.5472 142.846 576.22
-32.3803 143.142 573.265
-32.3251 143.924 572.287
-32.3251 144.95 572.287
-32.27 145.727 571.312
-32.2425 146.627 570.826
-32.1059 147.025 568.407
-31.8094 146.677 563.157
-31.7295 147.315 561.742
-31.7029 148.199 561.272
-31.6764 149.08 560.803
-31.6499 149.96 560.335
-31.4659 150.087 557.077
-31.3877 150.711 555.692
-31.284 151.206 553.857
-31.181 151.698 552.033
-31.0787 152.187 550.222
-31.1298 153.425 551.126
-31.0533 154.034 549.771
-31.0278 154.893 549.321
-31.0024 155.75 548.871
-30.9265 156.351 547.527
-30.8008 156.693 545.301
-30.2354 157.656 535.292
-30.2113 158.489 534.865
-30.2354 159.576 535.292
-30.2354 160.536 535.292
-30.2354 161.496 535.292
-30.2113 162.326 534.865
-30.0913 162.636 532.741
-29.5976 160.908 524
-29.4138 160.842 520.746
-29.3682 161.525 519.938
-29.4138 162.71 520.746
-29.4825 164.025 521.961
-29.4595 164.833 521.556
-29.3455 165.126 519.536
-29.3455 166.058 519.536
-29.3682 167.119 519.938
-29.3455 167.921 519.536
-29.2097 168.072 517.132
-29.1423 168.609 515.939
-28.9862 168.626 513.176
-28.9641 169.417 512.783
-28.788 169.301 509.666
-28.788 170.215 509.666
-28.4849 169.327 504.301
-28.4635 170.104 503.922
-28.4422 170.879 503.544
-28.4208 171.653 503.166
-28.3995 172.426 502.789
-28.3146 172.809 501.286
-28.2724 173.449 500.538
-28.1673 173.698 498.677
-28.0629 174.837 496.83
-27.9594 175.079 494.997
-27.9594 175.967 494.997
-27.9594 176.854 494.997
-27.7749 177.451 491.731
-27.7546 178.202 491.37
-27.7342 178.952 491.011
-27.6533 179.307 489.577
-27.6331 180.054 489.22
-27.613 180.799 488.863
-27.4132 180.361 485.326
-27.2947 180.448 483.228
-27.275 181.184 482.88
-27.2554 181.919 482.533
-27.2554 182.784 482.533
-27.2554 183.649 482.533
-26.9836 183.531 477.721
-26.9644 184.257 477.381
-26.8878 184.587 476.026
-26.8878 185.441 476.026
-26.5301 185.5 469.692
-26.3823 185.304 467.075
-36.9781 -113.662 676.129
-36.9781 -112.45 676.129
-36.9409 -111.125 675.449
-36.8666 -109.693 674.091
-36.8296 -108.376 673.414
-36.8296 -107.168 673.414
-36.7927 -105.854 672.739
-36.7927 -104.648 672.739
-36.8296 -103.546 673.414
-36.8296 -102.338 673.414
-36.7927 -101.029 672.739
-36.8296 -99.9229 673.414
-36.9037 -98.914 674.769
-36.8666 -97.6059 674.091
-36.8296 -96.3003 673.414
-36.8666 -95.1884 674.091
-36.8296 -93.8853 673.414
-35.8576 -90.2317 655.641
-35.8576 -89.0561 655.641
-35.8576 -87.8804 655.641
-35.6831 -86.283 652.452
-35.6831 -85.1131 652.452
-35.7179 -84.0249 653.087
-35.7179 -82.8538 653.087
-35.7179 -81.6827 653.087
-35.963 -81.0642 657.569
-36.1046 -80.1996 660.158
-36.1758 -79.1717 661.46
-36.2115 -78.0626 662.113
-36.2115 -76.8753 662.113
-35.9983 -75.2424 658.214
-35.963 -73.9895 657.569
-35.9983 -72.8818 658.214
-36.0691 -71.8426 659.509
-36.1046 -70.7295 660.158
-36.2473 -69.8206 662.767
-36.3551 -68.8363 664.738
-36.3551 -67.6443 664.738
-36.3551 -66.4523 664.738
-36.3551 -65.2604 664.738
-36.3551 -64.0684 664.738
-36.4273 -63.0013 666.058
-36.5361 -61.9916 668.048
-36.4998 -60.7332 667.384
-36.4998 -59.5365 667.384
-36.5361 -58.3979 668.048
-36.4635 -57.0863 666.72
-36.3191 -55.6694 664.08
-36.2832 -54.4247 663.423
-36.3911 -53.3936 665.397
-36.5361 -52.4084 668.048
-36.5361 -51.2105 668.048
-36.5361 -50.0126 668.048
-36.5726 -48.8633 668.714
-36.5726 -47.6642 668.714
-36.5361 -45.221 668.048
-36.5361 -44.023 668.048
-36.5361 -42.8251 668.048
-36.5361 -41.6272 668.048
-36.5361 -40.4293 668.048
-36.4998 -39.1924 667.384
-36.4998 -37.9957 667.384
-36.4998 -36.799 667.384
-36.4635 -35.5669 666.72
-36.4998 -34.4055 667.384
-36.5361 -33.2419 668.048
-36.5726 -32.0759 668.714
-36.6091 -30.9076 669.382
-36.5726 -29.6777 668.714
-36.5726 -28.4786 668.714
-36.6456 -27.334 670.05
-36.5726 -26.0804 668.714
-36.5726 -24.8813 668.714
-36.6091 -23.7059 669.382
-36.6823 -22.5506 670.72
-36.719 -21.3693 671.392
-36.6823 -20.1452 670.72
-36.6823 -18.9425 670.72
-36.6091 -17.7044 669.382
-36.6823 -16.5371 670.72
-31.9811 137.623 584.761
-31.8699 138.19 582.728
-31.7046 138.513 579.706
-31.5682 138.952 577.212
-31.5411 139.867 576.716
-31.5411 140.901 576.716
-31.514 141.813 576.22
-31.514 142.846 576.22
-31.3524 143.142 573.265
-31.2989 143.924 572.287
-31.2989 144.95 572.287
-31.2722 145.851 571.799
-31.219 146.627 570.826
-31.1395 147.274 569.372
-30.8514 146.923 564.105
-30.7737 147.563 562.685
-30.7222 148.323 561.742
-30.6965 149.205 561.272
-30.6452 149.96 560.335
-30.4417 149.963 556.615
-30.3661 150.586 555.232
-30.2909 151.206 553.857
-30.241 151.948 552.943
-30.1663 152.563 551.579
-30.241 153.931 552.943
-30.0921 154.16 550.222
-30.0674 155.02 549.771
-30.0428 155.878 549.321
-29.9447 156.351 547.527
-29.7022 156.059 543.093
-29.6303 156.652 541.777
-29.3224 156.947 536.147
-29.3224 157.908 536.147
-29.2989 158.743 535.719
-29.2989 159.703 535.719
-29.2989 160.664 535.719
-29.2756 161.496 535.292
-29.2056 162.067 534.013
-29.1129 162.507 532.318
-28.5688 160.407 522.368
-28.5022 160.967 521.15
-28.4359 161.525 519.938
-28.4579 162.583 520.342
-28.5465 164.025 521.961
-28.5465 164.961 521.961
-28.4359 165.254 519.938
-28.4138 166.058 519.536
-28.4138 166.99 519.536
-28.3699 167.661 518.732
-28.2389 167.813 516.336
-28.2171 168.609 515.939
-28.066 168.626 513.176
-28.0446 169.417 512.783
-27.8953 169.429 510.054
-27.8953 170.344 510.054
-27.643 169.71 505.441
-27.5599 170.104 503.922
-27.5392 170.879 503.544
-27.5392 171.782 503.544
-27.5186 172.555 503.166
-27.4774 173.197 502.412
-27.3748 173.449 500.538
-27.2124 175.096 497.567
-27.0518 174.95 494.632
-27.0718 175.967 494.997
-27.0718 176.854 494.997
-27.0518 177.611 494.632
-27.0319 178.366 494.267
-26.9723 178.857 493.177
-26.9129 179.346 492.091
-26.8932 180.096 491.731
-26.8735 180.845 491.37
-26.7754 181.063 489.577
-26.5429 180.361 485.326
-26.4282 180.448 483.228
-26.4091 182.916 482.88
-26.2767 182.86 480.459
-26.2579 183.59 480.115
-26.127 183.531 477.721
-26.1084 184.257 477.381
-25.7059 184.787 470.021
-25.6879 185.5 469.692
-25.5626 185.433 467.401
-35.6579 -109.693 674.091
-35.6579 -108.485 674.091
-35.6579 -107.276 674.091
-35.6221 -105.961 673.414
-35.6579 -104.858 674.091
-35.6937 -103.754 674.769
-35.6937 -102.544 674.769
-35.6579 -101.232 674.091
-35.6579 -100.023 674.091
-35.7297 -99.0136 675.449
-35.6937 -97.704 674.769
-35.6579 -96.3971 674.091
-35.6937 -95.2841 674.769
-35.6221 -93.8853 673.414
-34.648 -90.1436 655
-34.6142 -88.8823 654.361
-34.6819 -87.8804 655.641
-34.6142 -86.5356 654.361
-34.6142 -85.3622 654.361
-34.5805 -84.1068 653.724
-34.6142 -83.0155 654.361
-34.6819 -82.0021 655.641
-34.7839 -81.0642 657.569
-35.0243 -80.4371 662.113
-35.0589 -79.3281 662.767
-35.0589 -78.1397 662.767
-35.0589 -76.9513 662.767
-34.9897 -75.6134 661.46
-34.818 -74.0621 658.214
-34.8522 -72.9534 658.861
-34.9552 -71.9841 660.808
-34.9897 -70.869 661.46
-35.0243 -69.7517 662.113
-35.0936 -68.7001 663.423
-35.1631 -67.6443 664.738
-35.1631 -66.4523 664.738
-35.1631 -65.2604 664.738
-35.1631 -64.0684 664.738
-35.268 -63.0639 666.72
-35.3031 -61.93 667.384
-35.3382 -58.3979 668.048
-35.3382 -57.2 668.048
-35.233 -55.8353 666.058
-35.1283 -54.4786 664.08
-35.1631 -53.3407 664.738
-35.233 -52.2523 666.058
-35.3382 -51.2105 668.048
-35.3382 -50.0126 668.048
-35.3382 -48.8147 668.048
-35.3382 -47.6168 668.048
-35.3735 -46.4651 668.714
-35.3735 -45.266 668.714
-35.3382 -44.023 668.048
-35.3735 -42.8678 668.714
-35.3382 -41.6272 668.048
-35.3382 -40.4293 668.048
-35.3382 -39.2314 668.048
-35.3382 -38.0335 668.048
-35.3382 -36.8356 668.048
-35.3382 -35.6377 668.048
-35.3382 -34.4398 668.048
-35.3735 -33.275 668.714
-35.4088 -32.1079 669.382
-35.4441 -30.9385 670.05
-35.3735 -29.6777 668.714
-35.3735 -28.4786 668.714
-35.4796 -27.3614 670.72
-35.3735 -26.0804 668.714
-35.4441 -24.931 670.05
-35.5151 -23.7771 671.392
-35.5863 -22.6184 672.739
-35.5507 -21.3907 672.065
-35.5507 -20.1856 672.065
-35.6221 -19.0186 673.414
-35.6221 -17.811 673.414
-30.8518 138.31 583.235
-30.6387 138.393 579.206
-30.5595 139.072 577.709
-30.5332 139.987 577.212
-30.5332 141.022 577.212
-30.5069 141.935 576.716
-30.4807 142.846 576.22
-30.3764 143.387 574.247
-30.2985 144.046 572.776
-30.2727 144.95 572.287
-30.2469 145.851 571.799
-30.1954 146.627 570.826
-30.0929 147.149 568.889
-29.7647 146.554 562.685
-29.7149 147.315 561.742
-29.69 148.199 561.272
-29.6404 148.956 560.335
-29.5663 149.586 558.934
-29.4681 150.087 557.077
-29.3948 150.711 555.692
-29.2978 151.206 553.857
-29.2736 152.074 553.4
-29.0816 152.062 549.771
-29.0816 153.048 549.771
-29.0578 153.908 549.321
-29.0103 154.64 548.422
-28.9866 155.496 547.974
-28.9157 156.096 546.634
-28.7284 156.059 543.093
-28.5895 156.273 540.468
-28.452 157.45 537.867
-28.3837 158.034 536.576
-28.3383 160.664 535.719
-28.3383 161.624 535.719
-28.2032 161.81 533.164
-28.1138 162.25 531.474
-27.7184 160.908 524
-27.6106 161.218 521.961
-27.5249 161.65 520.342
-27.5249 162.583 520.342
-27.6106 164.025 521.961
-27.5463 164.577 520.746
-27.4822 165.126 519.536
-27.4822 166.058 519.536
-27.4822 166.99 519.536
-27.461 167.791 519.133
-27.4185 168.461 518.331
-27.292 168.609 515.939
-27.1458 168.626 513.176
-27.1251 169.417 512.783
-27.0012 169.558 510.442
-27.0218 170.604 510.831
-26.777 169.966 506.204
-26.6764 170.231 504.301
-26.6363 170.879 503.544
-26.6163 171.653 503.166
-26.5765 172.297 502.412
-26.5367 172.938 501.661
-26.4971 173.578 500.911
-26.1456 174.821 494.267
-26.1456 175.707 494.267
-26.1456 176.594 494.267
-26.1649 177.611 494.632
-26.1456 178.366 494.267
-26.1456 179.252 494.267
-26.0305 179.346 492.091
-25.9924 179.964 491.37
-25.9543 180.581 490.651
-25.8786 180.931 489.22
-25.6355 180.1 484.625
-25.5985 180.708 483.925
-25.5617 181.314 483.228
-25.4334 182.991 480.803
-25.4152 183.722 480.459
-25.3064 183.793 478.403
-25.2704 184.388 477.721
-25.2165 184.85 476.703
-24.898 185.047 470.681
-24.8805 185.76 470.351
-24.7936 185.952 468.707
-34.4145 -109.583 673.414
-34.4145 -108.376 673.414
-34.4145 -107.168 673.414
-34.4145 -105.961 673.414
-34.4491 -104.858 674.091
-34.5185 -103.858 675.449
-34.6231 -102.958 677.495
-34.5882 -101.641 676.812
-34.5882 -100.427 676.812
-34.6231 -99.3137 677.495
-34.6231 -98.0988 677.495
-34.6231 -96.884 677.495
-34.4838 -95.2841 674.769
-34.4491 -93.9797 674.091
-33.3757 -89.8803 653.087
-33.4083 -88.7957 653.724
-33.4409 -87.7089 654.361
-33.4409 -86.5356 654.361
-33.4735 -85.4456 655
-33.4735 -84.2711 655
-33.5719 -82.1628 656.925
-33.6378 -81.1437 658.214
-33.8036 -80.3578 661.46
-33.8036 -79.1717 661.46
-33.837 -78.0626 662.113
-33.837 -76.8753 662.113
-33.7703 -75.5389 660.808
-33.7371 -74.2808 660.158
-33.8036 -73.2412 661.46
-33.837 -72.1262 662.113
-33.837 -70.939 662.113
-33.8704 -69.8206 662.767
-33.9039 -68.7001 663.423
-33.9711 -67.6443 664.738
-33.9375 -66.3865 664.08
-33.9375 -65.1957 664.08
-33.9375 -64.0049 664.08
-34.1064 -63.1267 667.384
-34.1403 -57.2 668.048
-34.1403 -56.0021 668.048
-34.0386 -54.6409 666.058
-34.0724 -53.4997 666.72
-34.1403 -52.4084 668.048
-34.1403 -48.8147 668.048
-34.1744 -47.6642 668.714
-34.1744 -46.4651 668.714
-34.2085 -45.3112 669.382
-34.2426 -44.155 670.05
-34.2426 -42.9535 670.05
-34.2085 -41.7103 669.382
-34.2085 -40.51 669.382
-34.1744 -39.2705 668.714
-34.1744 -38.0714 668.714
-34.1744 -36.8723 668.714
-34.1744 -35.6732 668.714
-34.2085 -34.5085 669.382
-34.2769 -33.3749 670.72
-34.2769 -32.1722 670.72
-34.2769 -30.9695 670.72
-34.2769 -29.7668 670.72
-34.2769 -28.5641 670.72
-34.3112 -27.3888 671.392
-34.2426 -26.1325 670.05
-34.3456 -25.006 672.065
-34.38 -23.8248 672.739
-34.3456 -22.5958 672.065
-34.3456 -21.3907 672.065
-34.3112 -20.1653 671.392
-34.2769 -18.9425 670.72
-34.2769 -17.7398 670.72
-30.0411 135.185 587.836
-29.9623 136.933 586.294
-29.8319 137.384 583.743
-29.7027 137.831 581.214
-29.6513 138.633 580.208
-29.6257 139.552 579.706
-29.6257 140.592 579.706
-29.5745 141.387 578.706
-29.4982 142.057 577.212
-29.4475 142.846 576.22
-29.3466 143.387 574.247
-29.2715 144.046 572.776
-29.2216 144.826 571.799
-29.0975 145.232 569.372
-29.0728 146.129 568.889
-28.9013 146.281 565.532
-28.7799 146.677 563.157
-28.6836 147.192 561.272
-28.6596 148.075 560.803
-28.6357 148.956 560.335
-28.5879 149.71 559.4
-28.5165 150.337 558.004
-28.4455 150.961 556.615
-28.422 151.833 556.153
-28.3514 152.451 554.773
-28.2813 153.066 553.4
-28.1419 153.3 550.674
-28.1189 154.16 550.222
-28.0728 154.893 549.321
-28.0498 155.75 548.871
-27.9355 156.096 546.634
-27.7546 156.059 543.093
-27.6204 156.273 540.468
-27.5538 156.863 539.164
-27.5538 157.83 539.164
-27.4875 158.415 537.867
-27.3777 160.664 535.719
-27.3559 161.496 535.292
-27.2039 161.553 532.318
-27.1178 161.993 530.633
-26.8417 161.286 525.231
-26.6746 161.218 521.961
-26.6539 162.028 521.556
-26.6125 162.71 520.746
-26.6954 164.153 522.368
-26.6332 164.705 521.15
-26.5918 166.316 520.342
-26.5712 167.119 519.938
-26.4891 167.532 518.331
-26.3871 167.813 516.336
-26.3466 168.479 515.542
-26.2056 168.497 512.783
-26.1656 169.158 512
-26.0661 169.429 510.054
-26.0661 170.344 510.054
-25.8889 170.095 506.586
-25.8109 170.488 505.061
-25.7527 171.007 503.922
-25.7334 171.782 503.544
-25.6948 172.426 502.789
-25.6563 173.068 502.036
-25.618 173.708 501.286
-25.428 175.096 497.567
-25.2966 175.079 494.997
-25.2779 175.837 494.632
-25.2779 176.724 494.632
-25.2966 177.742 494.997
-25.2779 178.498 494.632
-25.2593 179.252 494.267
-25.1297 179.214 491.731
-25.1113 179.964 491.37
-25.0014 180.054 489.22
-24.9468 180.536 488.152
-24.8024 180.361 485.326
-24.6952 181.314 483.228
-24.6774 182.05 482.88
-24.6419 182.653 482.186
-24.5889 183.122 481.148
-24.5536 183.722 480.459
-24.501 184.187 479.428
-24.4137 184.388 477.721
-24.379 184.981 477.042
-24.379 185.836 477.042
-24.1047 185.437 471.674
-24.0708 186.021 471.012
-23.9866 186.212 469.363
-33.612 -112.142 681.626
-33.4759 -110.47 678.867
-33.442 -109.143 678.18
-33.442 -107.927 678.18
-33.4083 -106.603 677.495
-33.4083 -105.388 677.495
-33.4083 -104.173 677.495
-33.442 -103.062 678.18
-33.4083 -101.743 677.495
-33.4083 -100.529 677.495
-33.442 -99.4141 678.18
-33.4083 -98.0988 677.495
-33.442 -96.9819 678.18
-33.3073 -95.3801 675.449
-33.2738 -94.0742 674.769
-32.2047 -89.8803 653.087
-32.2675 -88.8823 654.361
-32.299 -87.7946 655
-32.299 -86.6201 655
-32.3306 -85.5291 655.641
-32.3622 -84.436 656.282
-32.4257 -83.4224 657.569
-32.3939 -82.1628 656.925
-32.4575 -81.1437 658.214
-32.5854 -80.2786 660.808
-32.5533 -79.0158 660.158
-32.6175 -77.9856 661.46
-32.6175 -76.7995 661.46
-32.5854 -75.5389 660.808
-32.4575 -74.0621 658.214
-32.5533 -73.097 660.158
-32.6497 -72.1262 662.113
-32.6497 -70.939 662.113
-32.682 -69.8206 662.767
-32.7467 -68.7681 664.08
-32.8769 -67.846 666.72
-32.8769 -66.6505 666.72
-32.8769 -65.455 666.72
-32.8443 -64.1956 666.058
-32.9424 -63.1895 668.048
-33.0411 -58.5729 670.05
-33.0082 -57.3142 669.382
-32.9424 -56.0021 668.048
-32.9096 -54.7497 667.384
-32.9096 -53.553 667.384
-32.9096 -52.3562 667.384
-32.9096 -51.1595 667.384
-32.9096 -49.9628 667.384
-32.9424 -48.8147 668.048
-32.9424 -47.6168 668.048
-33.0082 -46.5115 669.382
-33.0082 -45.3112 669.382
-33.1073 -44.2434 671.392
-33.0742 -42.9964 670.72
-33.0411 -41.752 670.05
-33.0411 -40.5505 670.05
-33.0082 -39.3097 669.382
-33.0082 -38.1094 669.382
-32.9753 -36.8723 668.714
-33.0411 -35.7445 670.05
-33.1405 -34.6469 672.065
-33.207 -33.5089 673.414
-33.2404 -32.3338 674.091
-33.2738 -31.1564 674.769
-33.207 -29.8863 673.414
-33.1737 -28.65 672.739
-33.207 -27.4713 673.414
-33.207 -26.2637 673.414
-33.2404 -25.0814 674.091
-33.2738 -23.8967 674.769
-33.2404 -22.6639 674.091
-33.2404 -21.4552 674.091
-33.3073 -20.2872 675.449
-29.0124 135.303 588.351
-29.0124 136.358 588.351
-28.987 137.293 587.836
-28.8858 137.864 585.782
-28.7852 138.431 583.743
-28.6109 138.633 580.208
-28.5862 139.552 579.706
-28.5862 140.592 579.706
-28.5615 141.509 579.206
-28.5122 142.302 578.207
-28.5122 143.339 578.207
-28.4142 143.879 576.22
-28.2685 144.17 573.265
-28.2203 144.95 572.287
-28.1722 145.727 571.312
-28.0527 146.129 568.889
-27.8872 146.281 565.532
-27.7468 146.554 562.685
-27.6771 147.192 561.272
-27.654 148.075 560.803
-27.6309 148.956 560.335
-27.6078 149.835 559.867
-27.5848 150.713 559.4
-27.4475 150.961 556.615
-27.402 151.707 555.692
-27.11 152.062 549.771
-27.0878 152.923 549.321
-27.0878 153.908 549.321
-26.9993 154.387 547.527
-27.0214 155.496 547.974
-26.9334 155.969 546.189
-26.7807 156.059 543.093
-26.6512 156.273 540.468
-26.6084 156.989 539.598
-26.587 157.83 539.164
-26.5656 158.669 538.731
-26.396 160.536 535.292
-26.312 160.982 533.588
-26.187 161.169 531.053
-25.8796 161.16 524.82
-25.7587 161.343 522.368
-25.6787 161.776 520.746
-25.5992 162.206 519.133
-25.7387 164.025 521.961
-25.619 164.195 519.536
-25.5992 164.999 519.133
-25.619 166.058 519.536
-25.4417 167.684 515.939
-25.3442 167.963 513.962
-25.2861 168.497 512.783
-25.2282 169.029 511.61
-25.1324 169.301 509.666
-25.1133 170.085 509.279
-24.9805 170.095 506.586
-24.9428 170.745 505.822
-24.8305 170.879 503.544
-24.8305 171.782 503.544
-24.8118 172.555 503.166
-24.7932 173.327 502.789
-24.7561 173.968 502.036
-24.7007 174.476 500.911
-24.7007 175.375 500.911
-24.5357 175.096 497.567
-24.409 175.079 494.997
-24.391 175.837 494.632
-24.391 176.724 494.632
-24.391 177.611 494.632
-24.409 178.629 494.997
-24.409 179.517 494.997
-24.2479 179.214 491.731
-24.2302 179.964 491.37
-24.1241 180.054 489.22
-24.1066 180.799 488.863
-23.8803 179.97 484.275
-23.8287 180.448 483.228
-23.8115 181.184 482.88
-23.7773 181.788 482.186
-23.7431 182.39 481.493
-23.7431 183.254 481.493
-23.6921 183.722 480.459
-23.6413 184.187 479.428
-23.5739 184.519 478.062
-23.5403 185.113 477.381
-23.5571 186.101 477.721
-23.5571 186.958 477.721
-23.21 185.047 470.681
-23.1937 185.76 470.351
-32.2586 -104.384 678.867
-32.226 -103.062 678.18
-32.1934 -101.743 677.495
-32.1609 -100.427 676.812
-32.1934 -99.3137 677.495
-32.1934 -98.0988 677.495
-32.226 -96.9819 678.18
-32.1934 -95.6691 677.495
-32.1285 -94.2639 676.129
-31.1549 -90.2317 655.641
-31.216 -89.2305 656.925
-31.216 -88.0526 656.925
-31.216 -86.8746 656.925
-31.216 -85.6966 656.925
-31.216 -84.5187 656.925
-31.216 -83.3407 656.925
-31.216 -82.1628 656.925
-31.2772 -81.1437 658.214
-31.4005 -80.2786 660.808
-31.3387 -78.9381 659.509
-31.3696 -77.8321 660.158
-31.4005 -76.7238 660.808
-31.3696 -75.4645 660.158
-31.2772 -74.0621 658.214
-31.3387 -73.0252 659.509
-31.4005 -71.9841 660.808
-31.4005 -70.7992 660.808
-31.4936 -69.8206 662.767
-31.5247 -68.7001 663.423
-31.6499 -67.7786 666.058
-31.6499 -66.5843 666.058
-31.6499 -65.39 666.058
-31.6185 -64.1319 665.397
-31.7129 -63.1267 667.384
-31.8396 -57.3714 670.05
-31.7445 -54.8042 668.048
-31.7129 -53.553 667.384
-31.7129 -52.3562 667.384
-31.7129 -51.1595 667.384
-31.7445 -50.0126 668.048
-31.7445 -48.8147 668.048
-31.7129 -47.5694 667.384
-31.7762 -46.4651 668.714
-31.7762 -45.266 668.714
-31.8396 -44.155 670.05
-31.8396 -42.9535 670.05
-31.8715 -41.7937 670.72
-31.8715 -40.591 670.72
-31.8396 -39.349 670.05
-31.8396 -38.1475 670.05
-31.8079 -36.9091 669.382
-31.8715 -35.7803 670.72
-31.9674 -34.6816 672.739
-32.1285 -33.644 676.129
-32.226 -32.53 678.18
-32.2586 -31.3456 678.867
-32.2586 -30.1283 678.867
-32.2586 -28.911 678.867
-31.9995 -27.4713 673.414
-32.0317 -26.2901 674.091
-32.0962 -25.1319 675.449
-32.226 -24.0175 678.18
-32.226 -22.8014 678.18
-32.2586 -21.6072 678.867
-32.2913 -20.4105 679.555
-32.2913 -19.192 679.555
-27.982 135.422 588.868
-27.9329 137.293 587.836
-27.7868 137.623 584.761
-27.7143 138.31 583.235
-27.5705 138.633 580.208
-27.5705 139.673 580.208
-27.5705 140.714 580.208
-27.4991 141.387 578.706
-27.381 141.813 576.22
-27.2173 143.019 572.776
-27.1709 143.801 571.799
-27.1478 144.703 571.312
-27.0786 145.356 569.856
-27.0326 146.129 568.889
-26.8505 146.158 565.055
-26.7828 146.8 563.631
-26.693 147.315 561.742
-26.6707 148.199 561.272
-26.6484 149.08 560.803
-26.6484 150.086 560.803
-26.6261 150.965 560.335
-26.4494 150.961 556.615
-26.3183 151.206 553.857
-26.2966 152.074 553.4
-26.2533 152.814 552.488
-26.1028 152.923 549.321
-26.1028 153.908 549.321
-26.0388 154.513 547.974
-25.9963 155.242 547.08
-25.9751 156.096 546.634
-25.8278 156.185 543.534
-25.6408 156.022 539.598
-25.5585 156.486 537.867
-25.538 157.324 537.436
-25.4768 157.908 536.147
-25.4565 158.743 535.719
-25.4361 159.576 535.292
-25.4361 160.536 535.292
-25.3149 160.726 532.741
-25.175 160.787 529.795
-24.9191 160.093 524.41
-24.8802 160.782 523.591
-24.8414 161.469 522.775
-24.822 162.28 522.368
-24.7834 162.963 521.556
-24.8414 164.281 522.775
-24.7066 164.322 519.938
-24.5165 163.983 515.939
-24.6874 166.058 519.536
-24.6683 166.86 519.133
-24.4789 166.502 515.146
-24.4226 167.041 513.962
-24.3852 167.706 513.176
-24.348 168.368 512.391
-24.2553 168.643 510.442
-24.2001 169.172 509.279
-24.1634 169.827 508.507
-24.0721 170.095 506.586
-24.054 170.874 506.204
-24.0177 171.523 505.441
-23.9816 172.169 504.681
-23.9455 172.814 503.922
-23.9455 173.718 503.922
-23.9096 174.36 503.166
-23.8202 174.607 501.286
-23.7847 175.244 500.538
-23.6435 175.096 497.567
-23.5214 175.079 494.997
-23.4867 175.707 494.267
-23.4867 176.594 494.267
-23.504 177.611 494.632
-23.504 178.498 494.632
-23.5214 179.517 494.997
-23.3491 179.083 491.37
-23.3662 180.096 491.731
-23.2299 179.923 488.863
-23.1624 180.274 487.442
-22.9953 179.841 483.925
-22.9953 180.708 483.925
-22.9456 181.184 482.88
-22.9126 181.788 482.186
-22.8797 182.39 481.493
-22.8797 183.254 481.493
-22.8142 183.59 480.115
-22.7491 183.924 478.744
-22.7167 184.519 478.062
-22.6843 185.113 477.381
-22.7005 186.101 477.721
-22.7167 187.091 478.062
-22.4605 185.829 472.671
-22.4131 186.283 471.674
-31.0413 -104.384 678.867
-31.0413 -103.167 678.867
-31.0413 -101.949 678.867
-31.0413 -100.732 678.867
-30.9473 -99.2134 676.812
-31.0099 -98.198 678.18
-31.0413 -97.0801 678.867
-30.0086 -90.32 656.282
-30.038 -89.2305 656.925
-30.038 -88.0526 656.925
-30.038 -86.8746 656.925
-30.038 -85.6966 656.925
-30.038 -84.5187 656.925
-30.0674 -83.4224 657.569
-30.0674 -82.2433 657.569
-30.0969 -81.1437 658.214
-30.2156 -80.2786 660.808
-30.1858 -79.0158 660.158
-30.2156 -77.9087 660.808
-30.2156 -76.7238 660.808
-30.2156 -75.5389 660.808
-30.1265 -74.1348 658.861
-30.1858 -73.097 660.158
-30.2454 -72.0551 661.46
-30.2454 -70.869 661.46
-30.3051 -69.8206 662.767
-30.3351 -68.7001 663.423
-30.4254 -67.7114 665.397
-30.4254 -66.5182 665.397
-30.4254 -65.3251 665.397
-30.3952 -64.0684 664.738
-30.4254 -62.9388 665.397
-30.6688 -58.6315 670.72
-30.6688 -57.4288 670.72
-30.5771 -56.0579 668.714
-30.5466 -54.8042 668.048
-30.5162 -53.553 667.384
-30.4859 -52.3042 666.72
-30.5162 -51.1595 667.384
-30.5466 -50.0126 668.048
-30.5771 -48.8633 668.714
-30.4859 -47.5221 666.72
-30.5162 -46.3727 667.384
-30.5466 -45.221 668.048
-30.5771 -44.0669 668.714
-30.5771 -42.8678 668.714
-30.6381 -41.752 670.05
-30.6688 -40.591 670.72
-30.6995 -39.4278 671.392
-30.6995 -38.2239 671.392
-30.6995 -37.02 671.392
-30.7611 -35.8879 672.739
-30.792 -34.7164 673.414
-31.0099 -33.7461 678.18
-31.0413 -32.5629 678.867
-31.0727 -31.3774 679.555
-31.0727 -30.1588 679.555
-31.0727 -28.9403 679.555
-30.9161 -27.582 676.129
-30.9161 -26.3696 676.129
-30.9161 -25.1572 676.129
-30.9786 -23.9932 677.495
-31.0099 -22.8014 678.18
-31.0413 -21.6072 678.867
-31.0727 -20.4105 679.555
-31.0727 -19.192 679.555
-31.1042 -17.9917 680.244
-26.8084 136.933 586.294
-26.6917 137.384 583.743
-26.5991 137.95 581.718
-26.5072 138.513 579.706
-26.5072 139.552 579.706
-26.5072 140.592 579.706
-26.4386 141.265 578.207
-26.3478 141.813 576.22
-26.3251 142.724 575.726
-26.1903 143.019 572.776
-26.1679 143.924 572.287
-26.1456 144.826 571.799
-26.0567 145.356 569.856
-25.9905 146.005 568.407
-25.8372 146.158 565.055
-25.7938 146.923 564.105
-25.6858 147.315 561.742
-25.6643 148.199 561.272
-25.6214 148.956 560.335
-25.4936 149.212 557.54
-25.4724 150.087 557.077
-25.3671 150.462 554.773
-25.3252 151.206 553.857
-25.3252 152.199 553.857
-25.3043 153.066 553.4
-25.1384 153.048 549.771
-25.1178 153.908 549.321
-25.0972 154.766 548.871
-25.0357 155.369 547.527
-24.9746 155.969 546.189
-24.7729 155.68 541.777
-24.6732 156.022 539.598
-24.6336 156.737 538.731
-24.6336 157.703 538.731
-24.5941 158.415 537.867
-24.5547 159.124 537.006
-24.4763 159.576 535.292
-24.4763 160.536 535.292
-24.1867 159.585 528.959
-24.1297 160.155 527.711
-24.0351 160.47 525.643
-24.0163 161.286 525.231
-23.96 161.847 524
-23.904 162.406 522.775
-23.8297 162.836 521.15
-23.8853 164.153 522.368
-23.7375 164.068 519.133
-23.5732 163.857 515.542
-23.5914 164.908 515.939
-23.5732 165.706 515.542
-23.501 166.12 513.962
-23.501 167.041 513.962
-23.465 167.706 513.176
-23.4471 168.497 512.783
-23.3578 168.772 510.831
-23.2869 169.172 509.279
-23.1812 169.314 506.969
-23.1463 169.966 506.204
-23.1288 170.745 505.822
-23.1114 171.523 505.441
-23.0766 172.169 504.681
-23.0419 172.814 503.922
-23.0246 173.588 503.544
-22.9214 173.708 501.286
-22.853 174.086 499.792
-22.7851 174.463 498.306
-22.7682 175.226 497.936
-22.7008 175.597 496.462
-22.6171 175.837 494.632
-22.6171 176.724 494.632
-22.6171 177.611 494.632
-22.6171 178.498 494.632
-22.6171 179.385 494.632
-22.468 179.083 491.37
-22.4845 180.096 491.731
-22.3696 180.054 489.22
-22.0957 179.581 483.228
-22.0798 180.318 482.88
-22.0639 181.054 482.533
-22.048 181.788 482.186
-22.0322 182.521 481.839
-22.0164 183.254 481.493
-21.9848 183.853 480.803
-21.969 184.583 480.459
-21.9376 185.179 479.771
-21.8439 185.245 477.721
-21.8906 186.5 478.744
-21.9219 187.626 479.428
-21.8594 187.948 478.062
-21.5674 186.283 471.674
-28.8883 -90.4971 657.569
-28.9167 -89.4056 658.214
-28.9167 -88.2254 658.214
-28.9167 -87.0451 658.214
-28.9167 -85.8648 658.214
-28.8883 -84.6015 657.569
-28.8883 -83.4224 657.569
-28.9167 -82.324 658.214
-28.9451 -81.2234 658.861
-29.0306 -80.2786 660.808
-29.0021 -79.0158 660.158
-29.0593 -77.9856 661.46
-29.0879 -76.8753 662.113
-29.1167 -75.7628 662.767
-29.0879 -74.5008 662.113
-29.1167 -73.386 662.767
-29.1167 -72.1975 662.767
-29.1167 -71.0091 662.767
-29.1167 -69.8206 662.767
-29.1455 -68.7001 663.423
-29.1743 -67.5773 664.08
-29.1743 -66.3865 664.08
-29.3487 -65.5854 668.048
-29.3195 -63.1267 667.384
-29.3487 -60.7937 668.048
-29.5251 -59.9541 672.065
-29.4956 -58.6902 671.392
-29.4956 -57.4863 671.392
-29.4073 -56.1139 669.382
-29.3487 -54.8042 668.048
-29.3195 -53.553 667.384
-29.2613 -52.2523 666.058
-29.3195 -51.1595 667.384
-29.3195 -49.9628 667.384
-29.3487 -48.8147 668.048
-29.3195 -47.5694 667.384
-29.3195 -46.3727 667.384
-29.3487 -45.221 668.048
-29.378 -44.0669 668.714
-29.4073 -42.9106 669.382
-29.4367 -41.752 670.05
-29.4956 -40.6317 671.392
-29.5251 -39.4673 672.065
-29.5548 -38.3006 672.739
-29.5844 -37.1315 673.414
-29.5844 -35.924 673.414
-29.7938 -34.9621 678.18
-29.824 -33.7802 678.867
-29.8845 -32.629 680.244
-29.9148 -31.4411 680.934
-29.9148 -30.2201 680.934
-30.0062 -29.0876 683.015
-29.8542 -27.7218 679.555
-29.7938 -26.4496 678.18
-29.7637 -25.2081 677.495
-29.7637 -23.9932 677.495
-29.7637 -22.7784 677.495
-29.7938 -21.5853 678.18
-29.8542 -20.4105 679.555
-29.8542 -19.192 679.555
-29.8542 -17.9734 679.555
-29.824 -16.7379 678.867
-29.8542 -15.5364 679.555
-25.5782 137.026 582.223
-25.4897 137.592 580.208
-25.4677 138.513 579.706
-25.4677 139.552 579.706
-25.4677 140.592 579.706
-25.4457 141.509 579.206
-25.3145 141.813 576.22
-25.2928 142.724 575.726
-25.2062 143.264 573.756
-25.1632 144.046 572.776
-25.1417 144.95 572.287
-25.1203 145.851 571.799
-24.9924 146.129 568.889
-24.8659 146.404 566.009
-24.7822 146.923 564.105
-24.6578 147.192 561.272
-24.6372 148.075 560.803
-24.6166 148.956 560.335
-24.5961 149.835 559.867
-24.5142 150.337 558.004
-24.4532 150.961 556.615
-24.3521 151.331 554.314
-24.113 152.798 548.871
-24.113 153.782 548.871
-24.054 154.387 547.527
-24.0147 155.116 546.634
-23.9757 155.842 545.745
-23.8206 155.806 542.215
-23.763 156.399 540.904
-23.7056 156.989 539.598
-23.7056 157.957 539.598
-23.6866 158.797 539.164
-23.6675 159.635 538.731
-23.554 159.831 536.147
-23.4977 160.408 534.865
-23.2382 159.585 528.959
-23.2199 160.407 528.542
-23.1107 160.596 526.055
-23.0925 161.412 525.643
-23.0745 162.228 525.231
-22.9845 162.533 523.183
-22.9308 163.09 521.961
-22.9487 164.153 522.368
-22.8066 164.068 519.133
-22.6314 163.731 515.146
-22.6662 164.908 515.939
-22.6837 165.961 516.336
-22.5104 165.612 512.391
-22.5276 166.658 512.783
-22.5104 167.45 512.391
-22.4589 167.984 511.22
-22.3906 168.387 509.666
-22.3736 169.172 509.279
-22.289 169.442 507.353
-22.2722 170.223 506.969
-22.2722 171.132 506.969
-22.2554 171.911 506.586
-22.2218 172.559 505.822
-22.0885 172.426 502.789
-22.006 172.68 500.911
-21.9732 173.319 500.164
-21.9569 174.086 499.792
-21.9405 174.852 499.42
-21.9242 175.617 499.048
-21.8429 175.858 497.198
-21.7462 175.967 494.997
-21.7302 176.724 494.632
-21.7302 177.611 494.632
-21.7302 178.498 494.632
-21.7302 179.385 494.632
-21.5869 179.083 491.37
-21.4924 179.177 489.22
-21.4455 179.661 488.152
-21.2139 180.318 482.88
-21.1986 181.054 482.533
-21.1834 181.788 482.186
-21.1986 182.784 482.533
-21.1834 183.517 482.186
-21.1226 183.853 480.803
-21.1075 184.583 480.459
-21.0022 184.519 478.062
-20.9872 185.245 477.721
-21.1075 187.168 480.459
-21.0924 187.895 480.115
-21.0472 188.351 479.086
-21.0172 188.94 478.403
-27.7364 -91.7662 658.214
-27.8183 -90.8534 660.158
-27.8183 -89.6696 660.158
-27.8183 -88.4859 660.158
-27.7636 -87.1306 658.861
-27.7636 -85.9492 658.861
-27.7364 -84.6845 658.214
-27.7364 -83.5043 658.214
-27.7364 -82.324 658.214
-27.7636 -81.2234 658.861
-27.8457 -80.2786 660.808
-27.791 -78.9381 659.509
-27.8457 -77.9087 660.808
-27.9007 -76.8753 662.113
-27.9283 -75.7628 662.767
-27.9007 -74.5008 662.113
-27.9559 -73.4585 663.423
-27.9283 -72.1975 662.767
-27.9283 -71.0091 662.767
-27.9283 -69.8206 662.767
-27.9283 -68.6322 662.767
-27.9559 -67.5105 663.423
-27.9559 -66.3209 663.423
-27.9836 -65.1957 664.08
-27.9283 -63.8785 662.767
-28.0669 -63.0013 666.058
-28.1508 -61.9916 668.048
-28.1789 -60.8543 668.714
-28.3769 -60.0745 673.414
-28.32 -58.749 672.065
-28.2917 -57.4863 671.392
-28.2917 -56.2824 671.392
-28.1508 -54.8042 668.048
-28.1508 -53.6063 668.048
-28.1228 -52.3562 667.384
-28.1228 -51.1595 667.384
-28.1508 -50.0126 668.048
-28.1789 -48.8633 668.714
-28.1789 -47.6642 668.714
-28.1508 -46.4189 668.048
-28.1508 -45.221 668.048
-28.207 -44.1109 669.382
-28.2352 -42.9535 670.05
-28.2917 -41.8356 671.392
-28.32 -40.6724 672.065
-28.32 -39.4673 672.065
-28.3484 -38.3006 672.739
-28.4054 -37.1688 674.091
-28.4913 -36.0688 676.129
-28.6067 -34.9975 678.867
-28.6357 -33.8144 679.555
-28.6938 -32.6621 680.934
-28.7522 -31.5051 682.32
-28.7522 -30.2816 682.32
-28.8108 -29.1173 683.711
-28.723 -27.8063 681.626
-28.6357 -26.5032 679.555
-28.6067 -25.2591 678.867
-28.6067 -24.0418 678.867
-28.6067 -22.8245 678.867
-28.6067 -21.6072 678.867
-28.6647 -20.4312 680.244
-28.6647 -19.2114 680.244
-28.6647 -17.9917 680.244
-28.6938 -16.7889 680.934
-28.723 -15.5837 681.626
-24.4705 136.67 580.71
-24.4493 137.592 580.208
-24.4493 138.633 580.208
-24.4493 139.673 580.208
-24.4493 140.714 580.208
-24.4493 141.754 580.208
-24.3231 142.057 577.212
-24.2813 142.846 576.22
-24.1774 143.264 573.756
-24.1361 144.046 572.776
-24.1155 144.95 572.287
-24.095 145.851 571.799
-23.9927 146.253 569.372
-23.8913 146.652 566.966
-23.8108 147.171 565.055
-23.6712 147.315 561.742
-23.6316 148.075 560.803
-23.6316 149.08 560.803
-23.6316 150.086 560.803
-23.5528 150.588 558.934
-23.4746 151.086 557.077
-23.3582 151.331 554.314
-23.1288 152.798 548.871
-23.1099 153.656 548.422
-23.0722 154.387 547.527
-23.0533 155.242 547.08
-23.0346 156.096 546.634
-22.8483 155.806 542.215
-22.7747 156.273 540.468
-22.738 156.989 539.598
-22.7747 158.211 540.468
-22.7564 159.052 540.033
-22.738 159.892 539.598
-22.6833 160.472 538.299
-22.4669 159.898 533.164
-22.325 159.837 529.795
-22.3073 160.66 529.377
-22.2546 161.228 528.126
-22.1674 161.539 526.055
-22.15 162.355 525.643
-22.098 162.914 524.41
-22.0463 163.471 523.183
-22.0291 164.281 522.775
-21.9436 164.577 520.746
-21.8757 164.999 519.133
-21.7578 165.035 516.336
-21.691 165.452 514.751
-21.6246 165.866 513.176
-21.6246 166.786 513.176
-21.5916 167.45 512.391
-21.5258 167.856 510.831
-21.4931 168.515 510.054
-21.4604 169.172 509.279
-21.3631 169.314 506.969
-21.3309 169.966 506.204
-21.2987 171.523 505.441
-21.2347 171.911 503.922
-21.2028 172.555 503.166
-21.1552 173.068 502.036
-21.0921 173.449 500.538
-21.0764 174.216 500.164
-21.0293 174.722 499.048
-20.9669 175.096 497.567
-20.8586 175.079 494.997
-20.8279 175.707 494.267
-20.8125 176.464 493.903
-20.8125 177.349 493.903
-20.8125 178.235 493.903
-20.7362 178.463 492.091
-20.7058 179.083 491.37
-20.5403 178.525 487.442
-20.3627 178.715 483.228
-20.3188 179.194 482.186
-20.3334 180.188 482.533
-20.3042 180.793 481.839
-20.2896 181.527 481.493
-20.2896 182.39 481.493
-20.275 183.122 481.148
-20.246 183.722 480.459
-20.2315 184.451 480.115
-20.145 184.519 478.062
-20.1163 185.113 477.381
-20.246 187.168 480.459
-20.2315 187.895 480.115
-20.217 188.62 479.771
-20.2026 189.345 479.428
-26.5822 -91.8563 658.861
-26.6345 -90.8534 660.158
-26.6871 -89.8465 661.46
-26.5561 -88.2254 658.214
-26.5561 -87.0451 658.214
-26.5561 -85.8648 658.214
-26.5561 -84.6845 658.214
-26.5561 -83.5043 658.214
-26.5822 -82.4049 658.861
-26.6871 -81.5439 661.46
-26.6345 -80.1996 660.158
-26.4782 -78.5519 656.282
-26.5301 -77.5268 657.569
-26.6345 -76.6483 660.158
-26.7134 -75.688 662.113
-26.6871 -74.4273 661.46
-26.7663 -73.4585 663.423
-26.7398 -72.1975 662.767
-26.7398 -71.0091 662.767
-26.7398 -69.8206 662.767
-26.7663 -68.7001 663.423
-26.7663 -67.5105 663.423
-26.7663 -66.3209 663.423
-26.8459 -65.3251 665.397
-26.8459 -64.1319 665.397
-26.8726 -63.0013 666.058
-26.9529 -61.9916 668.048
-26.9529 -60.7937 668.048
-27.0878 -59.8941 671.392
-27.1421 -58.8079 672.739
-27.1149 -57.5439 672.065
-27.1421 -56.3953 672.739
-27.0337 -54.9684 670.05
-26.9798 -53.6597 668.714
-26.9798 -52.4606 668.714
-26.9798 -51.2615 668.714
-27.0607 -50.2126 670.72
-27.1149 -49.1081 672.065
-27.0607 -47.8072 670.72
-26.9529 -46.4189 668.048
-26.9798 -45.266 668.714
-27.0337 -44.155 670.05
-27.0607 -42.9964 670.72
-27.0878 -41.8356 671.392
-27.1421 -40.7132 672.739
-27.1694 -39.5465 673.414
-27.1967 -38.3775 674.091
-27.3894 -37.4321 678.867
-27.334 -36.1417 677.495
-27.4171 -35.033 679.555
-27.4449 -33.8487 680.244
-27.5007 -32.6953 681.626
-27.5287 -31.5051 682.32
-27.5287 -30.2816 682.32
-27.5848 -29.1173 683.711
-27.5287 -27.8346 682.32
-27.4171 -26.5032 679.555
-27.4171 -25.2847 679.555
-27.3894 -24.0418 678.867
-27.4171 -22.8476 679.555
-27.4449 -21.651 680.244
-27.5287 -20.4936 682.32
-27.5007 -19.2505 681.626
-27.5287 -18.0466 682.32
-27.5848 -16.8574 683.711
-27.5567 -15.6155 683.015
-27.4449 -14.3323 680.244
-23.4292 134.588 580.71
-23.4089 135.512 580.208
-23.4089 136.552 580.208
-23.4089 137.592 580.208
-23.3887 138.513 579.706
-23.3887 139.552 579.706
-23.4089 140.714 580.208
-23.4089 141.754 580.208
-23.3081 142.179 577.709
-23.248 142.846 576.22
-23.1883 143.51 574.739
-23.109 144.046 572.776
-23.0696 144.826 571.799
-23.05 145.727 571.312
-22.9522 146.129 568.889
-22.8746 146.652 566.966
-22.7976 147.171 565.055
-22.7401 147.811 563.631
-22.6639 148.323 561.742
-22.6449 149.205 561.272
-22.6449 150.211 561.272
-22.5694 150.713 559.4
-22.4384 150.836 556.153
-22.3457 151.206 553.857
-22.1627 153.908 549.321
-22.1265 154.64 548.422
-22.0904 155.369 547.527
-22.0544 156.096 546.634
-21.8938 155.932 542.654
-21.8408 156.525 541.34
-21.8231 157.369 540.904
-21.8584 158.595 541.777
-21.8231 159.309 540.904
-21.8056 160.15 540.468
-21.7355 160.601 538.731
-21.4938 159.771 532.741
-21.4597 160.471 531.896
-21.4427 161.297 531.474
-21.3412 161.482 528.959
-21.2407 161.666 526.468
-21.2074 162.355 525.643
-21.1908 163.169 525.231
-21.1412 163.727 524
-21.1082 164.409 523.183
-21.0589 164.961 521.961
-20.8802 164.489 517.531
-20.8319 165.035 516.336
-20.768 165.452 514.751
-20.6886 165.739 512.783
-20.6728 166.531 512.391
-20.6255 167.067 511.22
-20.5785 167.6 510.054
-20.5628 168.387 509.666
-20.5316 169.044 508.893
-20.485 169.57 507.737
-20.454 170.223 506.969
-20.4386 171.003 506.586
-20.3924 171.523 505.441
-20.3158 171.782 503.544
-20.3006 172.555 503.166
-20.2247 172.809 501.286
-20.1795 173.319 500.164
-20.1344 173.827 499.048
-20.0896 174.333 497.936
-20.0301 174.707 496.462
-19.971 175.079 494.997
-19.9416 175.707 494.267
-19.9416 176.594 494.267
-19.9269 177.349 493.903
-19.8684 177.711 492.453
-19.7957 177.941 490.651
-19.7379 178.299 489.22
-19.7092 178.916 488.507
-19.4262 178.074 481.493
-19.3984 178.68 480.803
-19.4123 179.671 481.148
-19.4262 180.664 481.493
-19.4541 181.788 482.186
-19.4821 182.916 482.88
-19.4402 183.385 481.839
-19.3984 183.853 480.803
-19.3984 184.715 480.803
-19.274 184.388 477.721
-19.2603 185.113 477.381
-19.3845 188.029 480.459
-19.3291 188.351 479.086
-19.3291 189.21 479.086
-27.6261 -107.613 716.582
-27.5378 -105.989 714.292
-27.5378 -104.708 714.292
-27.5672 -103.537 715.054
-27.6261 -102.473 716.582
-27.6556 -101.297 717.348
-25.4508 -92.0371 660.158
-25.5262 -91.1225 662.113
-25.5262 -89.9352 662.113
-25.4508 -88.4859 660.158
-25.4258 -87.2163 659.509
-25.3759 -85.8648 658.214
-25.4008 -84.7677 658.861
-25.4008 -83.5863 658.861
-25.4508 -82.5671 660.158
-25.501 -81.5439 661.46
-25.4508 -80.1996 660.158
-25.4508 -79.0158 660.158
-25.3759 -77.6029 658.214
-25.4508 -76.6483 660.158
-25.5262 -75.688 662.113
-25.5262 -74.5008 662.113
-25.5767 -73.4585 663.423
-25.5514 -72.1975 662.767
-25.5514 -71.0091 662.767
-25.5514 -69.8206 662.767
-25.6528 -68.9045 665.397
-25.7294 -67.9135 667.384
-25.7294 -66.7168 667.384
-25.7294 -65.5201 667.384
-25.755 -64.3875 668.048
-25.7294 -63.1267 667.384
-25.755 -61.9916 668.048
-25.8064 -60.9151 669.382
-25.9098 -59.9541 672.065
-25.9358 -58.8079 672.739
-25.9358 -57.6016 672.739
-25.9358 -56.3953 672.739
-25.9358 -55.189 672.739
-25.8839 -53.8746 671.392
-25.8839 -52.6707 671.392
-25.8839 -51.4668 671.392
-25.9358 -50.3637 672.739
-25.9618 -49.2068 673.414
-25.9879 -48.0475 674.091
-25.7807 -46.4651 668.714
-25.755 -45.221 668.048
-25.7807 -44.0669 668.714
-25.858 -42.9964 670.72
-25.8839 -41.8356 671.392
-25.9358 -40.7132 672.739
-25.9618 -39.5465 673.414
-26.2518 -36.3251 680.934
-26.2518 -35.1041 680.934
-26.2518 -33.8831 680.934
-26.3052 -32.7285 682.32
-26.332 -31.5371 683.015
-26.3588 -30.3433 683.711
-26.3857 -29.147 684.409
-26.332 -27.8629 683.015
-26.2251 -26.5301 680.244
-26.1986 -25.2847 679.555
-26.1721 -24.0418 678.867
-26.1721 -22.8245 678.867
-26.1986 -21.6291 679.555
-26.2518 -20.452 680.934
-26.2518 -19.231 680.934
-26.3052 -18.0466 682.32
-26.3588 -16.8574 683.711
-26.332 -15.6155 683.015
-26.2785 -14.3615 681.626
-22.4267 134.821 581.718
-22.3879 135.629 580.71
-22.3685 136.552 580.208
-22.3685 137.592 580.208
-22.3685 138.633 580.208
-22.3685 139.673 580.208
-22.3685 140.714 580.208
-22.3492 141.631 579.706
-22.2722 142.179 577.709
-22.2148 142.846 576.22
-22.1577 143.51 574.739
-22.0631 143.924 572.287
-22.0443 144.826 571.799
-22.0443 145.851 571.799
-21.9321 146.129 568.889
-21.895 146.9 567.926
-21.895 147.919 567.926
-21.766 148.059 564.579
-21.7112 148.696 563.157
-21.6748 149.455 562.213
-21.6385 150.211 561.272
-21.4589 149.963 556.615
-21.4411 150.836 556.153
-21.4056 151.582 555.232
-21.0914 153.28 547.08
-21.0742 154.135 546.634
-21.057 154.989 546.189
-21.0228 155.715 545.301
-20.9377 156.059 543.093
-20.9038 156.779 542.215
-20.8869 157.623 541.777
-20.9038 158.723 542.215
-20.8701 159.438 541.34
-20.8029 159.892 539.598
-20.6699 159.831 536.147
-20.604 160.28 534.439
-20.5222 160.598 532.318
-20.5222 161.553 532.318
-20.3927 161.482 528.959
-20.2967 161.666 526.468
-20.2649 162.355 525.643
-20.249 163.169 525.231
-20.2174 163.855 524.41
-20.17 164.409 523.183
-20.123 164.961 521.961
-19.983 164.744 518.331
-19.9061 165.035 516.336
-19.8755 165.706 515.542
-19.7842 165.866 513.176
-19.7691 166.658 512.783
-19.754 167.45 512.391
-19.6788 167.728 510.442
-19.6639 168.515 510.054
-19.634 169.172 509.279
-19.5598 169.442 507.353
-19.5155 169.966 506.204
-19.5155 170.874 506.204
-19.4714 171.393 505.061
-19.4275 171.911 503.922
-19.3983 172.555 503.166
-19.3114 172.68 500.911
-19.2253 172.804 498.677
-19.211 173.569 498.306
-19.1825 174.204 497.567
-19.1541 174.837 496.83
-19.0834 175.079 494.997
-19.0693 175.837 494.632
-19.0553 176.594 494.267
-19.0272 177.219 493.54
-18.9714 177.581 492.091
-18.9436 178.202 491.37
-18.9297 178.952 491.011
-18.5495 177.946 481.148
-18.5362 178.68 480.803
-18.5495 179.671 481.148
-18.5495 180.534 481.148
-18.4832 182.468 479.428
-18.4174 182.675 477.721
-18.4174 183.531 477.721
-18.4174 184.388 477.721
-18.4043 185.113 477.381
-18.5628 187.571 481.493
-18.5495 188.299 481.148
-18.5362 189.026 480.803
-18.5229 189.752 480.459
-26.3411 -107.613 716.582
-26.4258 -106.67 718.886
-26.3975 -105.268 718.116
-26.4258 -104.092 718.886
-26.4258 -102.803 718.886
-26.4542 -101.623 719.657
-24.3389 -89.9352 662.113
-24.3389 -88.7479 662.113
-24.3389 -87.5607 662.113
-24.3629 -86.4588 662.767
-24.3629 -85.2703 662.767
-24.3629 -84.0819 662.767
-24.267 -81.3833 660.158
-24.267 -79.0158 660.158
-24.267 -77.8321 660.158
-24.267 -76.6483 660.158
-24.387 -75.8378 663.423
-24.3389 -74.5008 662.113
-24.3389 -73.3135 662.113
-24.3389 -72.1262 662.113
-24.3629 -71.0091 662.767
-24.3629 -69.8206 662.767
-24.5326 -69.1102 667.384
-24.5326 -67.9135 667.384
-24.5571 -66.7833 668.048
-24.5571 -65.5854 668.048
-24.5816 -64.4516 668.714
-24.5083 -63.0639 666.72
-24.5083 -61.8684 666.72
-24.5816 -60.8543 668.714
-24.7047 -59.9541 672.065
-24.7543 -58.867 673.414
-24.7543 -57.6595 673.414
-24.7543 -56.4519 673.414
-24.7295 -55.189 672.739
-24.7295 -53.9827 672.739
-24.7295 -52.7764 672.739
-24.7295 -51.57 672.739
-24.7295 -50.3637 672.739
-24.7792 -49.2562 674.091
-24.7792 -48.0475 674.091
-24.6553 -46.6045 670.72
-24.5816 -45.266 668.714
-24.5816 -44.0669 668.714
-24.6061 -42.9106 669.382
-24.6061 -41.7103 669.382
-24.7047 -40.6724 672.065
-24.8041 -39.6261 674.769
-25.1328 -36.4732 683.711
-25.1328 -35.2473 683.711
-25.1072 -33.9866 683.015
-25.0817 -32.7285 682.32
-25.0817 -31.5051 682.32
-25.0817 -30.2816 682.32
-25.1328 -29.1173 683.711
-25.1072 -27.8629 683.015
-25.0817 -26.6111 682.32
-25.0308 -25.336 680.934
-25.0054 -24.0905 680.244
-24.98 -22.8476 679.555
-25.0308 -21.673 680.934
-25.1072 -20.5144 683.015
-25.0817 -19.2701 682.32
-25.1072 -18.065 683.015
-25.1072 -16.8402 683.015
-25.0817 -15.5996 682.32
-21.4955 135.526 584.761
-21.4022 135.982 582.223
-21.3466 136.67 580.71
-21.3281 137.592 580.208
-21.3281 138.633 580.208
-21.3281 139.673 580.208
-21.3097 140.592 579.706
-21.2546 141.265 578.207
-21.1997 141.935 576.716
-21.1634 142.724 575.726
-21.0549 143.019 572.776
-21.0369 143.924 572.287
-21.019 144.826 571.799
-21.0011 145.727 571.312
-20.912 146.129 568.889
-20.912 147.149 568.889
-20.8943 148.044 568.407
-20.8766 148.937 567.926
-20.684 149.58 562.685
-20.6321 150.211 561.272
-20.4608 149.963 556.615
-20.4608 150.961 556.615
-20.4269 151.707 555.692
-20.1268 153.405 547.527
-20.094 154.135 546.634
-20.0776 154.989 546.189
-20.0287 155.589 544.858
-19.9477 155.932 542.654
-19.9315 156.779 542.215
-19.9154 157.623 541.777
-19.9154 158.595 541.777
-19.8673 159.181 540.468
-19.8353 159.892 539.598
-19.7085 159.831 536.147
-19.6613 160.408 534.865
-19.5677 160.598 532.318
-19.5522 161.425 531.896
-19.4136 161.228 528.126
-19.3375 161.539 526.055
-19.3223 162.355 525.643
-19.3072 163.169 525.231
-19.2921 163.983 524.82
-19.2319 164.409 523.183
-19.187 164.961 521.961
-18.9948 165.162 516.734
-18.9656 165.833 515.939
-18.9365 166.502 515.146
-18.893 167.041 513.962
-18.864 167.706 513.176
-18.8208 168.24 512
-18.7635 168.643 510.442
-18.735 169.301 509.666
-18.65 169.442 507.353
-18.6078 169.966 506.204
-18.5797 170.616 505.441
-18.5239 171.007 503.922
-18.4961 171.653 503.166
-18.4408 172.039 501.661
-18.3858 172.423 500.164
-18.3039 172.547 497.936
-18.3175 173.569 498.306
-18.3039 174.333 497.936
-18.2767 174.966 497.198
-18.1958 175.079 494.997
-18.1824 175.837 494.632
-18.169 176.594 494.267
-18.1422 177.219 493.54
-18.089 177.581 492.091
-18.0625 178.202 491.37
-18.0493 178.952 491.011
-17.9181 179.399 487.442
-17.6741 178.68 480.803
-17.6741 179.543 480.803
-17.6614 180.275 480.459
-17.6235 180.749 479.428
-17.6235 181.608 479.428
-17.5733 181.948 478.062
-17.5608 182.675 477.721
-17.5608 183.531 477.721
-17.5733 184.519 478.062
-17.5233 184.85 476.703
-17.7249 188.705 482.186
-17.7121 189.434 481.839
-24.8439 -107.975 710.509
-25.1637 -108.075 719.657
-25.1637 -106.785 719.657
-25.1368 -105.381 718.886
-25.1368 -104.092 718.886
-25.1637 -102.913 719.657
-25.1908 -101.732 720.43
-23.1745 -90.0241 662.767
-23.1745 -88.8356 662.767
-23.1745 -87.6472 662.767
-23.1745 -86.4588 662.767
-23.2665 -85.6087 665.397
-23.0833 -81.3833 660.158
-23.2665 -80.8361 665.397
-23.2665 -79.6429 665.397
-23.2665 -78.4498 665.397
-23.2665 -77.2566 665.397
-23.2204 -75.9128 664.08
-23.2204 -74.7221 664.08
-23.2204 -73.5313 664.08
-23.1974 -72.2689 663.423
-23.2204 -71.1497 664.08
-23.2896 -70.1673 666.058
-23.4996 -69.595 672.065
-23.4058 -68.1169 669.382
-23.3825 -66.8498 668.714
-23.3825 -65.6507 668.714
-23.3825 -64.4516 668.714
-23.3592 -63.1895 668.048
-23.3359 -61.93 667.384
-23.4058 -60.9151 669.382
-23.5232 -60.0142 672.739
-23.5705 -58.9261 674.091
-23.5468 -57.6595 673.414
-23.5468 -56.4519 673.414
-23.5468 -55.2444 673.414
-23.5232 -53.9827 672.739
-23.5232 -52.7764 672.739
-23.4996 -51.5184 672.065
-23.4526 -50.2126 670.72
-23.5468 -49.2068 673.414
-23.6417 -48.1928 676.129
-23.4058 -46.5115 669.382
-23.3592 -45.221 668.048
-23.3825 -44.0669 668.714
-23.4058 -42.9106 669.382
-23.3825 -41.6687 668.714
-23.5232 -40.7132 672.739
-23.6417 -39.706 676.129
-24.1034 -35.5371 689.332
-23.9312 -34.056 684.409
-23.9068 -32.7953 683.711
-23.8097 -31.4411 680.934
-23.8339 -30.2508 681.626
-23.8825 -29.0876 683.015
-23.8582 -27.8346 682.32
-23.8339 -26.584 681.626
-23.8582 -25.3876 682.32
-23.8339 -24.1395 681.626
-23.7615 -22.8476 679.555
-23.8097 -21.673 680.934
-23.9068 -20.5354 683.711
-23.8825 -19.2897 683.015
-23.8825 -18.065 683.015
-23.9068 -16.8574 683.711
-23.8582 -15.5996 682.32
-24.0786 0.308701 688.625
-24.1282 1.54668 690.042
-24.1282 2.78402 690.042
-24.1282 4.02137 690.042
-24.1779 5.26955 691.464
-20.4469 135.526 584.761
-20.3759 136.1 582.728
-20.3053 136.67 580.71
-20.2877 137.592 580.208
-20.2877 138.633 580.208
-20.2527 139.432 579.206
-20.183 139.987 577.212
-20.1656 140.901 576.716
-20.1483 141.813 576.22
-20.0965 142.479 574.739
-20.045 143.142 573.265
-20.0278 144.046 572.776
-19.9937 144.826 571.799
-19.9937 145.851 571.799
-19.9257 146.378 569.856
-19.8919 147.149 568.889
-19.8751 148.044 568.407
-19.8415 148.811 567.445
-19.6092 149.08 560.803
-19.5113 149.337 558.004
-19.4627 149.963 556.615
-19.4627 150.961 556.615
