ply
format ascii 1.0
element vertex 1922
property float x
property float y
property float z
end_header
-180.72 30.3831 880.211
-180.247 31.8778 877.906
-180.247 33.452 877.906
-181.196 35.2106 882.527
-124.736 126.643 607.537
-124.736 127.732 607.537
-124.398 128.472 605.89
-124.511 129.676 606.438
-124.736 131 607.537
-124.736 132.09 607.537
-124.963 133.421 608.639
-124.174 133.663 604.797
-123.617 134.143 602.083
-123.285 134.859 600.466
-123.174 135.814 599.929
-123.174 136.89 599.929
-122.735 137.474 597.79
-122.517 138.3 596.726
-122.191 138.999 595.138
-121.651 139.447 592.509
-121.01 139.769 589.385
-120.797 140.578 588.351
-120.586 141.385 587.321
-120.691 142.563 587.836
-120.375 143.241 586.294
-120.375 144.292 586.294
-118.408 144.003 576.716
-118.205 144.788 575.726
-117.801 145.322 573.756
-117.599 146.101 572.776
-117.599 147.128 572.776
-117.599 148.155 572.776
-117.499 149.054 572.287
-117 149.443 569.856
-116.702 150.082 568.407
-116.406 150.718 566.966
-115.819 150.969 564.105
-115.431 151.471 562.213
-115.141 152.097 560.803
-114.949 152.847 559.867
-114.376 153.084 557.077
-114.186 153.828 556.153
-113.528 153.931 552.943
-113.154 154.414 551.126
-112.876 155.02 549.771
-112.599 155.623 548.422
-112.599 156.606 548.422
-112.232 157.076 546.634
-112.232 158.056 546.634
-112.232 159.036 546.634
-112.232 160.017 546.634
-110.698 158.797 539.164
-110.521 159.507 538.299
-110.167 159.959 536.576
-110.079 160.792 536.147
-109.991 161.624 535.719
-109.38 161.681 532.741
-109.293 162.507 532.318
-109.206 163.332 531.896
-109.206 164.286 531.896
-109.206 165.24 531.896
-109.293 166.325 532.318
-109.293 167.28 532.318
-107.25 165.09 522.368
-107.166 165.897 521.961
-106.751 166.187 519.938
-106.668 166.99 519.536
-106.668 167.921 519.536
-106.586 168.722 519.133
-105.93 168.609 515.939
-104.881 167.856 510.831
-104.642 168.387 509.666
-104.642 169.301 509.666
-104.642 170.215 509.666
-104.483 170.869 508.893
-104.167 171.262 507.353
-103.853 171.652 505.822
-103.385 171.782 503.544
-103.307 172.555 503.166
-103.076 173.068 502.036
-102.998 173.838 501.661
-102.845 174.476 500.911
-102.768 175.244 500.538
-102.615 175.879 499.792
-101.63 175.079 494.997
-101.48 175.707 494.267
-101.48 176.594 494.267
-101.406 177.349 493.903
-101.406 178.235 493.903
-101.48 179.252 494.267
-101.555 180.272 494.632
-101.555 181.159 494.632
-101.48 181.911 494.267
-101.63 183.067 494.997
-98.5747 180.146 480.115
-98.5747 181.007 480.115
-98.5042 181.738 479.771
-98.4338 182.468 479.428
-98.3635 183.197 479.086
-98.2232 183.793 478.403
-98.0833 184.388 477.721
-97.9437 184.981 477.042
-97.5275 185.047 475.014
-97.3896 185.636 474.343
-97.3208 186.354 474.007
-96.9098 186.414 472.006
-96.5024 186.473 470.021
-115.683 -92.4956 568.407
-115.683 -91.4764 568.407
-115.585 -90.3805 567.926
-115.683 -89.4379 568.407
-115.781 -88.4937 568.889
-115.781 -87.4736 568.889
-115.781 -86.4535 568.889
-116.077 -85.6513 570.34
-116.374 -84.845 571.799
-116.374 -83.8197 571.799
-116.175 -82.6535 570.826
-115.978 -81.4912 569.856
-115.88 -80.401 569.372
-115.781 -79.3128 568.889
-115.683 -78.2263 568.407
-115.683 -77.2071 568.407
-116.077 -76.447 570.34
-116.175 -75.4885 570.826
-116.473 -74.6555 572.287
-184.717 18.309 907.605
-184.219 19.8827 905.156
-183.723 21.4478 902.719
-182.495 22.9124 896.685
-180.803 24.2929 888.371
-179.85 25.7495 883.69
-179.377 27.2622 881.367
-179.142 28.8048 880.211
-178.907 30.3433 879.057
-178.907 31.9196 879.057
-178.673 33.452 877.906
-122.757 127.895 603.166
-123.201 129.442 605.343
-123.647 131 607.537
-123.312 131.732 605.89
-123.089 132.579 604.797
-122.868 133.423 603.709
-122.537 134.143 602.083
-122.208 134.859 600.466
-121.881 135.572 598.858
-121.881 136.646 598.858
-121.555 137.352 597.258
-121.339 138.177 596.196
-120.695 138.507 593.033
-120.589 139.447 592.509
-119.953 139.769 589.385
-119.637 140.455 587.836
-119.115 140.892 585.271
-119.115 141.941 585.271
-118.908 142.742 584.251
-118.804 143.664 583.743
-117.273 143.879 576.22
-116.972 144.54 574.739
-116.473 144.95 572.287
-116.473 145.976 572.287
-116.473 147.002 572.287
-116.374 147.902 571.799
-116.077 148.547 570.34
-115.781 149.19 568.889
-115.585 149.955 567.926
-114.904 150.084 564.579
-114.711 150.843 563.631
-114.423 151.471 562.213
-114.136 152.097 560.803
-113.66 152.465 558.468
-113.283 152.957 556.615
-112.908 153.446 554.773
-112.536 153.931 552.943
-112.351 154.668 552.033
-111.982 155.147 550.222
-111.89 156.006 549.771
-111.89 156.991 549.771
-111.616 157.59 548.422
-111.252 158.056 546.634
-111.343 159.166 547.08
-111.252 160.017 546.634
-109.908 159.052 540.033
-109.556 159.507 538.299
-109.118 159.831 536.147
-109.118 160.792 536.147
-108.943 161.496 535.292
-108.51 161.81 533.164
-108.252 162.378 531.896
-108.167 163.203 531.474
-108.338 164.416 532.318
-108.338 165.371 532.318
-108.424 166.458 532.741
-108.424 167.413 532.741
-106.562 165.477 523.591
-106.313 166.027 522.368
-106.23 166.833 521.961
-106.148 167.639 521.556
-105.819 168.051 519.938
-105.573 168.592 518.732
-105.086 168.739 516.336
-103.965 168.772 510.831
-103.807 169.429 510.054
-103.728 170.215 509.666
-103.649 170.999 509.279
-103.257 171.262 507.353
-102.946 171.652 505.822
-102.482 171.782 503.544
-102.405 172.555 503.166
-102.099 172.938 501.661
-102.023 173.708 501.286
-101.87 174.346 500.538
-101.718 174.983 499.792
-100.743 175.079 494.997
-100.594 175.707 494.267
-100.668 176.724 494.632
-100.594 177.48 494.267
-100.594 178.366 494.267
-100.52 179.12 493.903
-100.594 180.139 494.267
-100.594 181.025 494.267
-97.9944 180.664 481.493
-97.8539 181.267 480.803
-97.6439 181.738 479.771
-97.6439 182.598 479.771
-97.5044 183.197 479.086
-97.2959 183.662 478.062
-97.0193 183.995 476.703
-96.7443 184.326 475.351
-96.4708 184.654 474.007
-96.1989 184.982 472.671
-96.1989 185.829 472.671
-96.1311 186.545 472.338
-95.6596 186.473 470.021
-114.664 -92.4956 568.407
-114.761 -91.554 568.889
-114.664 -90.4571 568.407
-114.664 -89.4379 568.407
-114.761 -88.4937 568.889
-114.761 -87.4736 568.889
-114.761 -86.4535 568.889
-115.054 -85.6513 570.34
-115.348 -84.845 571.799
-115.348 -83.8197 571.799
-115.054 -82.5832 570.34
-114.761 -81.353 568.889
-114.859 -80.401 569.372
-114.761 -79.3128 568.889
-114.664 -78.2263 568.407
-114.664 -77.2071 568.407
-115.25 -76.5772 571.312
-115.447 -75.6817 572.287
-116.041 -75.0397 575.232
-116.14 -74.0717 575.726
-183.09 18.309 907.605
-182.596 19.8827 905.156
-181.372 21.3616 899.089
-180.646 22.8818 895.488
-178.973 24.2608 887.196
-178.031 25.7156 882.527
-178.031 27.2981 882.527
-177.797 28.8426 881.367
-177.331 30.3433 879.057
-177.099 31.8778 877.906
-177.099 33.452 877.906
-121.676 127.895 603.166
-122.336 130.763 606.438
-122.225 131.732 605.89
-122.115 132.698 605.343
-121.895 133.543 604.253
-121.676 134.384 603.166
-121.24 134.98 601.004
-121.131 135.936 600.466
-120.915 136.768 599.393
-120.484 137.352 597.258
-120.27 138.177 596.196
-119.632 138.507 593.033
-119.421 139.324 591.986
-118.791 139.646 588.868
-118.479 140.332 587.321
-118.272 141.138 586.294
-117.758 142.618 583.743
-117.451 143.29 582.223
-116.641 143.339 578.207
-115.842 143.387 574.247
-115.644 144.17 573.265
-115.447 144.95 572.287
-115.447 145.976 572.287
-115.447 147.002 572.287
-115.348 147.902 571.799
-115.152 148.674 570.826
-114.956 149.443 569.856
-114.567 149.955 567.926
-113.796 149.958 564.105
-113.7 150.843 563.631
-113.414 151.471 562.213
-113.035 151.97 560.335
-112.378 152.085 557.077
-112.192 152.83 556.153
-111.914 153.446 554.773
-111.637 154.058 553.4
-111.453 154.795 552.488
-110.905 155.02 549.771
-110.905 156.006 549.771
-110.814 156.863 549.321
-110.723 157.719 548.871
-110.542 158.444 547.974
-110.723 159.687 548.871
-110.723 160.671 548.871
-108.59 158.542 538.299
-108.329 159.124 537.006
-108.156 159.831 536.147
-108.156 160.792 536.147
-108.07 161.624 535.719
-107.898 162.326 534.865
-107.384 162.507 532.318
-107.299 163.332 531.896
-107.299 164.286 531.896
-107.214 165.109 531.474
-106.875 165.537 529.795
-106.706 166.225 528.959
-105.459 165.219 522.775
-105.213 165.768 521.556
-105.131 166.574 521.15
-104.886 167.119 519.938
-104.724 167.791 519.133
-104.724 168.722 519.133
-104.481 169.26 517.931
-103.443 169.417 512.783
-103.049 169.688 510.831
-102.814 170.215 509.666
-102.658 170.869 508.893
-102.27 171.132 506.969
-101.885 171.393 505.061
-101.579 171.782 503.544
-101.579 172.685 503.544
-101.351 173.197 502.412
-101.124 173.708 501.286
-100.897 174.216 500.164
-100.448 174.333 497.936
-99.5611 173.679 493.54
-99.3418 174.179 492.453
-99.3418 175.062 492.453
-99.3418 175.945 492.453
-99.2689 176.699 492.091
-99.4147 177.842 492.814
-99.4147 178.726 492.814
-99.5611 179.874 493.54
-99.5611 180.759 493.54
-99.2689 181.111 492.091
-97.2008 179.929 481.839
-96.9918 180.405 480.803
-96.9223 181.137 480.459
-96.7144 181.608 479.428
-96.5075 182.077 478.403
-96.5075 182.935 478.403
-96.3014 183.401 477.381
-95.8919 183.473 475.351
-95.6208 183.805 474.007
-95.3513 184.134 472.671
-95.2841 184.851 472.338
-95.2841 185.698 472.338
-95.2841 186.545 472.338
-94.7503 186.342 469.692
-113.645 -92.4956 568.407
-113.741 -91.554 568.889
-113.645 -90.4571 568.407
-113.741 -89.5138 568.889
-113.838 -88.5688 569.372
-113.741 -87.4736 568.889
-113.934 -86.6004 569.856
-114.226 -85.7972 571.312
-114.323 -84.845 571.799
-114.323 -83.8197 571.799
-114.128 -82.6535 570.826
-113.838 -81.422 569.372
-113.838 -80.401 569.372
-113.741 -79.3128 568.889
-113.741 -78.2927 568.889
-113.741 -77.2726 568.889
-114.031 -76.447 570.34
-114.323 -75.6172 571.799
-114.616 -74.7831 573.265
-114.812 -73.8815 574.247
-114.911 -72.9142 574.739
-114.812 -71.8221 574.247
-114.616 -70.6713 573.265
-114.323 -69.4653 571.799
-181.708 16.7041 908.835
-181.217 18.2843 906.379
-180.243 19.8025 901.506
-179.519 21.333 897.885
-178.801 22.8513 894.294
-177.148 24.2287 886.024
-176.914 25.7834 884.855
-176.914 27.3701 884.855
-175.985 28.8048 880.211
-175.755 30.3433 879.057
-175.525 31.8778 877.906
-120.594 130.058 603.166
-120.594 131.139 603.166
-120.594 132.221 603.166
-120.594 133.303 603.166
-120.378 134.143 602.083
-120.27 135.101 601.543
-120.162 136.058 601.004
-119.947 136.89 599.929
-119.201 137.108 596.196
-118.884 137.809 594.61
-118.568 138.507 593.033
-118.568 139.57 593.033
-118.255 140.262 591.464
-117.529 140.455 587.836
-116.813 140.646 584.251
-116.813 141.694 584.251
-116.711 142.618 583.743
-116.407 143.29 582.223
-115.904 143.71 579.706
-115.405 144.127 577.212
-115.306 145.037 576.716
-115.009 145.696 575.232
-115.009 146.727 575.232
-114.518 147.128 572.776
-114.42 148.028 572.287
-114.323 148.927 571.799
-113.838 149.316 569.372
-113.165 149.449 566.009
-112.785 149.958 564.105
-112.595 150.716 563.157
-112.312 151.344 561.742
-111.844 151.716 559.4
-111.287 151.959 556.615
-110.827 152.325 554.314
-110.736 153.192 553.857
-110.553 153.931 552.943
-110.462 154.795 552.488
-110.009 155.147 550.222
-110.009 156.134 550.222
-109.559 156.478 547.974
-108.584 156.059 543.093
-108.408 156.779 542.215
-108.496 157.878 542.654
-108.321 158.595 541.777
-107.798 158.797 539.164
-107.367 159.124 537.006
-107.195 159.831 536.147
-107.109 160.664 535.719
-107.109 161.624 535.719
-107.024 162.455 535.292
-106.683 162.895 533.588
-106.514 163.592 532.741
-106.261 164.156 531.474
-105.177 164.369 526.055
-104.93 164.924 524.82
-104.44 165.09 522.368
-104.116 165.511 520.746
-104.035 166.316 520.342
-103.874 166.99 519.536
-103.793 167.791 519.133
-103.793 168.722 519.133
-103.473 169.129 517.531
-102.681 169.676 513.568
-102.133 169.688 510.831
-101.9 170.215 509.666
-101.746 170.869 508.893
-101.438 171.262 507.353
-101.361 172.041 506.969
-100.828 172.04 504.301
-100.676 172.685 503.544
-100.601 173.457 503.166
-100.225 173.708 501.286
-99.7032 173.698 498.677
-99.4076 174.075 497.198
-98.8215 173.935 494.267
-98.5311 174.307 492.814
-98.4587 175.062 492.453
-98.3865 175.816 492.091
-98.3865 176.699 492.091
-98.5311 177.842 492.814
-98.3144 178.333 491.731
-98.6761 179.874 493.54
-98.6761 180.759 493.54
-98.7487 181.777 493.903
-97.0339 181.231 485.326
-96.6144 181.314 483.228
-96.406 181.788 482.186
-95.992 181.868 480.115
-95.7863 182.338 479.086
-95.5815 182.805 478.062
-95.4454 183.401 477.381
-95.0395 183.473 475.351
-94.905 184.065 474.678
-94.8379 184.785 474.343
-94.5037 184.982 472.671
-94.5037 185.829 472.671
-94.4372 186.545 472.338
-93.9739 186.473 470.021
-112.913 -92.7314 569.856
-112.913 -91.7095 569.856
-112.721 -90.5339 568.889
-112.913 -89.6659 569.856
-113.105 -88.7949 570.826
-113.105 -87.7713 570.826
-113.201 -86.8217 571.312
-113.298 -85.8704 571.799
-113.394 -84.9174 572.287
-113.298 -83.8197 571.799
-113.105 -82.6535 570.826
-112.817 -81.422 569.372
-112.817 -80.401 569.372
-112.721 -79.3128 568.889
-112.721 -78.2927 568.889
-112.721 -77.2726 568.889
-113.009 -76.447 570.34
-113.201 -75.5528 571.312
-113.394 -74.6555 572.287
-113.491 -73.6922 572.776
-113.491 -72.6651 572.776
-113.588 -71.6993 573.265
-113.685 -70.7318 573.756
-113.491 -69.5839 572.776
-113.394 -68.4984 572.287
-113.394 -67.4722 572.287
-113.394 -66.446 572.287
-113.394 -65.4198 572.287
-180.568 15.1154 911.305
-179.835 16.6815 907.605
-179.592 18.2843 906.379
-179.108 19.8559 903.936
-177.909 21.333 897.885
-177.197 22.8513 894.294
-175.791 24.2608 887.196
-175.559 25.8175 886.024
-175.559 27.4063 886.024
-174.866 28.8806 882.527
-173.95 30.3036 877.906
-173.95 31.8778 877.906
-119.513 130.058 603.166
-119.513 131.139 603.166
-119.62 132.34 603.709
-119.62 133.423 603.709
-119.298 134.143 602.083
-119.191 135.101 601.543
-118.978 135.936 600.466
-118.342 136.281 597.258
-118.132 137.108 596.196
-117.817 137.809 594.61
-117.505 138.507 593.033
-117.505 139.57 593.033
-116.885 139.892 589.904
-116.475 140.455 587.836
-116.373 141.385 587.321
-116.577 142.688 588.351
-115.564 142.494 583.235
-114.964 142.794 580.208
-114.964 143.835 580.208
-114.765 144.625 579.206
-114.174 144.913 576.22
-113.588 145.197 573.265
-113.588 146.225 573.265
-113.491 147.128 572.776
-113.394 148.028 572.287
-113.298 148.927 571.799
-113.009 149.57 570.34
-111.867 149.072 564.579
-111.679 149.832 563.631
-111.398 150.463 562.213
-111.212 151.218 561.272
-110.564 151.338 558.004
-110.197 151.833 556.153
-109.924 152.451 554.773
-109.833 153.319 554.314
-109.561 153.931 552.943
-108.933 154.034 549.771
-108.844 154.893 549.321
-108.755 155.75 548.871
-108.311 156.096 546.634
-107.784 156.312 543.974
-107.523 156.905 542.654
-107.523 157.878 542.654
-107.523 158.851 542.654
-107.09 159.181 540.468
-106.574 159.379 537.867
-106.318 159.959 536.576
-106.149 160.664 535.719
-106.149 161.624 535.719
-106.064 162.455 535.292
-105.811 163.025 534.013
-105.475 163.462 532.318
-105.224 164.026 531.053
-104.644 164.069 528.126
-104.152 164.24 525.643
-103.746 164.538 523.591
-103.503 165.09 522.368
-103.342 165.768 521.556
-103.342 166.704 521.556
-103.102 167.249 520.342
-103.022 168.051 519.938
-102.862 168.722 519.133
-102.545 169.129 517.531
-101.604 168.497 512.783
-101.604 169.417 512.783
-101.217 169.688 510.831
-100.986 170.215 509.666
-100.833 170.869 508.893
-100.452 171.132 506.969
-100.376 171.911 506.586
-99.8483 171.911 503.922
-99.8483 172.814 503.922
-99.7733 173.588 503.544
-99.6985 174.36 503.166
-98.2248 173.56 495.728
-97.9352 173.935 494.267
-97.7911 174.564 493.54
-97.6474 175.191 492.814
-97.5757 175.945 492.453
-97.5757 176.828 492.453
-97.6474 177.842 492.814
-97.5041 178.463 492.091
-97.7192 179.741 493.177
-97.8631 180.892 493.903
-96.303 181.494 486.029
-96.1636 182.102 485.326
-95.8169 182.312 483.576
-95.1311 181.868 480.115
-94.7918 182.077 478.403
-94.6568 182.675 477.721
-94.5221 183.27 477.042
-94.254 183.603 475.688
-94.1872 184.326 475.351
-94.0539 184.916 474.678
-93.7222 185.112 473.005
-93.6562 185.829 472.671
-93.5902 186.545 472.338
-93.1311 186.473 470.021
-111.701 -91.554 568.889
-111.701 -90.5339 568.889
-111.891 -89.6659 569.856
-112.177 -88.8706 571.312
-112.081 -87.7713 570.826
-112.177 -86.8217 571.312
-112.272 -85.8704 571.799
-112.368 -84.9174 572.287
-112.272 -83.8197 571.799
-112.081 -82.6535 570.826
-111.796 -81.422 569.372
-111.701 -80.3329 568.889
-111.701 -79.3128 568.889
-111.701 -78.2927 568.889
-111.701 -77.2726 568.889
-111.986 -76.447 570.34
-112.081 -75.4885 570.826
-112.368 -74.6555 572.287
-112.368 -73.6293 572.287
-112.464 -72.6651 572.776
-112.464 -71.6381 572.776
-112.56 -70.6713 573.265
-112.368 -69.5246 572.287
-112.272 -68.44 571.799
-112.464 -67.5298 572.776
-112.464 -66.5027 572.776
-112.464 -65.4756 572.776
-112.56 -64.5037 573.265
-112.656 -63.53 573.756
-112.56 -62.4478 573.265
-112.56 -61.4198 573.265
-178.934 15.1154 911.305
-178.208 16.6815 907.605
-177.967 18.2843 906.379
-177.487 19.8559 903.936
-176.535 21.3616 899.089
-175.828 22.8818 895.488
-173.97 24.2287 886.024
-173.97 25.8175 886.024
-174.2 27.4425 887.196
-173.741 28.9568 884.855
-172.376 30.3036 877.906
-172.376 31.8778 877.906
-118.859 130.527 605.343
-118.859 131.613 605.343
-118.859 132.698 605.343
-118.645 133.543 604.253
-118.112 134.023 601.543
-117.901 134.859 600.466
-117.271 135.21 597.258
-117.167 136.16 596.726
-117.063 137.108 596.196
-116.751 137.809 594.61
-116.339 138.385 592.509
-116.339 139.447 592.509
-115.624 139.646 588.868
-115.118 140.087 586.294
-114.817 140.769 584.761
-114.617 141.571 583.743
-114.022 141.877 580.71
-113.923 142.794 580.208
-113.628 143.462 578.706
-113.14 144.913 576.22
-112.464 145.073 572.776
-112.368 145.976 572.287
-112.368 147.002 572.287
-112.368 148.028 572.287
-112.272 148.927 571.799
-111.606 149.063 568.407
-110.668 148.821 563.631
-110.483 149.58 562.685
-110.298 150.337 561.742
-110.205 151.218 561.272
-109.564 151.338 558.004
-109.2 151.833 556.153
-108.929 152.451 554.773
-108.749 153.192 553.857
-108.66 154.058 553.4
-108.302 154.541 551.579
-108.036 155.147 550.222
-108.036 156.134 550.222
-107.682 156.606 548.422
-107.244 156.948 546.189
-106.896 157.415 544.416
-106.896 158.391 544.416
-106.896 159.367 544.416
-105.95 158.924 539.598
-105.356 158.997 536.576
-105.356 159.959 536.576
-105.188 160.664 535.719
-105.188 161.624 535.719
-105.188 162.585 535.719
-105.104 163.415 535.292
-104.853 163.982 534.013
-104.52 164.416 532.318
-103.372 163.554 526.468
-103.21 164.24 525.643
-102.967 164.795 524.41
-102.646 165.219 522.775
-102.567 166.027 522.368
-102.487 166.833 521.961
-102.407 167.639 521.556
-102.01 167.921 519.536
-101.931 168.722 519.133
-101.382 168.739 516.336
-100.762 168.626 513.176
-100.454 169.946 511.61
-100.149 170.344 510.054
-99.9206 170.869 508.893
-99.6183 171.262 507.353
-99.4678 171.911 506.586
-98.8704 171.782 503.544
-98.8704 172.685 503.544
-98.7962 173.457 503.166
-98.6482 174.098 502.412
-97.4078 173.688 496.095
-97.1205 174.063 494.632
-96.9775 174.692 493.903
-96.7637 175.191 492.814
-96.7637 176.075 492.814
-96.6927 176.828 492.453
-96.7637 177.842 492.814
-96.5509 178.333 491.731
-97.0489 180.139 494.267
-96.6927 180.361 492.453
-95.918 179.791 488.507
-95.7785 180.405 487.797
-95.5006 180.754 486.382
-95.4314 181.494 486.029
-94.9498 181.445 483.576
-94.8814 182.181 483.228
-94.3377 181.998 480.459
-93.867 181.948 478.062
-93.8001 182.675 477.721
-93.3348 182.621 475.351
-93.2687 183.343 475.014
-93.2027 184.065 474.678
-92.874 184.264 473.005
-92.7432 184.851 472.338
-92.7432 185.698 472.338
-92.7432 186.545 472.338
-92.2237 186.342 469.692
-110.775 -91.6317 569.372
-110.963 -90.7648 570.34
-111.247 -89.9716 571.799
-111.247 -88.9463 571.799
-111.152 -87.8461 571.312
-111.247 -86.8957 571.799
-111.247 -85.8704 571.799
-111.342 -84.9174 572.287
-111.247 -83.8197 571.799
-110.869 -82.513 569.856
-110.681 -81.353 568.889
-110.681 -80.3329 568.889
-110.681 -79.3128 568.889
-110.681 -78.2927 568.889
-110.775 -77.3382 569.372
-111.058 -76.512 570.826
-111.152 -75.5528 571.312
-111.342 -74.6555 572.287
-111.437 -73.6922 572.776
-111.437 -72.6651 572.776
-111.437 -71.6381 572.776
-111.437 -70.611 572.776
-111.342 -69.5246 572.287
-111.342 -68.4984 572.287
-111.437 -67.5298 572.776
-111.437 -66.5027 572.776
-111.437 -65.4756 572.776
-111.437 -64.4486 572.776
-111.532 -63.4757 573.265
-111.437 -62.3944 572.776
-111.342 -61.315 572.287
-177.3 15.1154 911.305
-176.58 16.6815 907.605
-176.341 18.2843 906.379
-175.866 19.8559 903.936
-174.923 21.3616 899.089
-174.455 22.9124 896.685
-172.838 24.2929 888.371
-172.609 25.8516 887.196
-172.838 27.4789 888.371
-171.701 28.8806 882.527
-170.802 30.3036 877.906
-170.802 31.8778 877.906
-117.88 131.732 605.89
-117.773 132.698 605.343
-117.034 132.944 601.543
-116.824 133.783 600.466
-116.824 134.859 600.466
-116.2 135.21 597.258
-116.097 136.16 596.726
-115.994 137.108 596.196
-115.685 137.809 594.61
-115.378 138.507 593.033
-115.378 139.57 593.033
-115.073 140.262 591.464
-114.467 140.578 588.351
-114.467 141.633 588.351
-114.467 142.688 588.351
-113.177 142.123 581.718
-112.785 142.671 579.706
-112.204 142.969 576.716
-111.723 143.387 574.247
-111.532 144.17 573.265
-111.342 144.95 572.287
-111.342 145.976 572.287
-111.342 147.002 572.287
-111.247 147.902 571.799
-111.247 148.927 571.799
-110.028 148.309 565.532
-109.658 148.821 563.631
-109.566 149.706 563.157
-109.29 150.337 561.742
-109.199 151.218 561.272
-108.835 151.716 559.4
-108.203 151.833 556.153
-107.845 152.325 554.314
-107.756 153.192 553.857
-107.667 154.058 553.4
-107.401 154.668 552.033
-107.225 155.402 551.126
-107.049 156.134 550.222
-106.874 156.863 549.321
-106.438 157.204 547.08
-105.748 157.16 543.534
-105.577 157.878 542.654
-105.491 158.723 542.215
-104.898 158.797 539.164
-104.311 158.87 536.147
-104.311 159.831 536.147
-104.227 160.664 535.719
-104.227 161.624 535.719
-104.144 162.455 535.292
-103.978 163.155 534.439
-103.813 163.852 533.588
-102.912 163.379 528.959
-102.347 163.425 526.055
-102.267 164.24 525.643
-101.788 164.409 523.183
-101.63 165.09 522.368
-101.551 165.897 521.961
-101.63 166.963 522.368
-101.551 167.769 521.961
-101.393 168.443 521.15
-101.001 168.722 519.133
-100.456 168.739 516.336
-99.7651 168.497 512.783
-99.5368 169.946 511.61
-99.1586 170.215 509.666
-99.0081 170.869 508.893
-98.7085 171.262 507.353
-98.5594 171.911 506.586
-97.9675 171.782 503.544
-97.9675 172.685 503.544
-97.8206 173.327 502.789
-97.6011 173.838 501.661
-96.5183 173.688 496.095
-96.2336 174.063 494.632
-96.0211 174.564 493.54
-95.7393 174.934 492.091
-95.6691 175.687 491.731
-95.6691 176.569 491.731
-95.6691 177.451 491.731
-95.4592 177.941 490.651
-95.5291 178.952 491.011
-95.3894 179.569 490.293
-95.042 179.791 488.507
-94.9038 180.405 487.797
-94.6972 180.885 486.735
-94.4915 181.363 485.677
-94.2866 181.839 484.625
-94.0149 182.181 483.228
-93.4762 181.998 480.459
-93.0761 182.077 478.403
-92.9435 182.675 477.721
-92.4824 182.621 475.351
-92.4824 183.473 475.351
-92.3515 184.065 474.678
-92.0259 184.264 473.005
-91.767 184.591 471.674
-91.767 185.437 471.674
-111.074 -91.7005 576.22
-109.94 -89.7421 570.34
-110.41 -89.0982 572.776
-110.316 -87.996 572.287
-110.316 -85.9436 572.287
-110.316 -84.9174 572.287
-110.222 -83.8197 571.799
-109.847 -82.513 569.856
-109.754 -81.422 569.372
-109.661 -80.3329 568.889
-109.754 -79.3801 569.372
-109.754 -78.3591 569.372
-109.847 -77.4039 569.856
-110.128 -76.5772 571.312
-110.128 -75.5528 571.312
-110.316 -74.6555 572.287
-110.316 -73.6293 572.287
-110.41 -72.6651 572.776
-110.316 -71.5769 572.287
-110.41 -70.611 572.776
-110.316 -69.5246 572.287
-110.316 -68.4984 572.287
-110.41 -67.5298 572.776
-110.41 -66.5027 572.776
-110.41 -65.4756 572.776
-110.504 -64.5037 573.265
-110.599 -63.53 573.756
-110.504 -62.4478 573.265
-110.41 -61.3674 572.776
-110.316 -60.2888 572.287
-110.504 -59.3639 573.265
-110.693 -58.4359 574.247
-110.693 -57.4062 574.247
-110.316 -56.184 572.287
-110.316 -55.1579 572.287
-175.427 15.0949 910.068
-174.953 16.6815 907.605
-174.48 18.2596 905.156
-174.245 19.8559 903.936
-173.079 21.333 897.885
-172.617 22.8818 895.488
-171.245 24.2929 888.371
-171.019 25.8516 887.196
-171.245 27.4789 888.371
-171.019 29.0334 887.196
-169.228 30.3036 877.906
-169.228 31.8778 877.906
-116.793 131.732 605.89
-116.688 132.698 605.343
-116.688 133.784 605.343
-116.268 134.384 603.166
-116.059 135.223 602.083
-115.644 135.814 599.929
-115.027 136.16 596.726
-114.924 137.108 596.196
-114.72 137.931 595.138
-114.416 138.63 593.558
-114.416 139.694 593.558
-114.113 140.385 591.986
-113.412 140.578 588.351
-113.313 141.509 587.836
-113.115 142.314 586.807
-112.524 142.618 583.743
-111.843 142.794 580.208
-111.361 143.215 577.709
-110.788 143.51 574.739
-110.504 144.17 573.265
-110.316 144.95 572.287
-110.316 145.976 572.287
-110.316 147.002 572.287
-110.222 147.902 571.799
-110.222 148.927 571.799
-108.647 148.821 563.631
-108.465 149.58 562.685
-108.283 150.337 561.742
-108.102 151.091 560.803
-106.587 150.957 552.943
-106.675 152.074 553.4
-106.675 153.066 553.4
-106.587 153.931 552.943
-106.412 154.668 552.033
-106.237 155.402 551.126
-106.062 156.134 550.222
-105.802 156.735 548.871
-105.371 157.076 546.634
-104.604 156.905 542.654
-104.435 157.623 541.777
-104.266 158.339 540.904
-103.931 158.797 539.164
-103.598 159.251 537.436
-103.349 159.831 536.147
-103.267 160.664 535.719
-103.184 161.496 535.292
-103.102 162.326 534.865
-102.856 162.895 533.588
-102.774 163.722 533.164
-101.964 163.379 528.959
-101.324 163.297 525.643
-101.324 164.24 525.643
-100.929 164.538 523.591
-100.772 165.219 522.775
-100.615 165.897 521.961
-100.693 166.963 522.368
-100.693 167.9 522.368
-100.147 167.921 519.536
-99.6071 167.942 516.734
-99.2249 168.221 514.751
-98.8456 168.497 512.783
-98.7701 170.206 512.391
-98.6194 170.864 511.61
-98.2447 171.129 509.666
-98.0956 171.781 508.893
-97.7249 172.041 506.969
-96.9917 171.653 503.166
-96.9917 172.555 503.166
-96.7739 173.068 502.036
-96.5571 173.578 500.911
-95.9837 173.44 497.936
-95.7704 173.946 496.83
-95.3466 174.063 494.632
-95.3466 174.95 494.632
-95.2763 175.707 494.267
-95.1361 176.334 493.54
-95.0662 177.088 493.177
-95.1361 178.104 493.54
-94.8569 178.463 492.091
-94.9963 179.609 492.814
-94.7874 180.096 491.731
-94.2347 179.923 488.863
-93.9608 180.274 487.442
-93.8244 180.885 486.735
-93.6884 181.494 486.029
-93.6884 182.366 486.029
-92.7475 182.26 481.148
-92.2841 182.207 478.744
-92.0869 182.675 477.721
-91.8253 183.01 476.364
-91.5652 183.343 475.014
-91.4356 183.934 474.343
-91.1135 184.134 472.671
-90.9852 184.721 472.006
-109.664 -91.3865 574.247
-109.29 -90.0484 572.287
-109.29 -89.0222 572.287
-109.196 -83.8197 571.799
-108.918 -82.5832 570.34
-108.641 -81.353 568.889
-108.641 -80.3329 568.889
-108.733 -79.3801 569.372
-108.733 -78.3591 569.372
-108.918 -77.4697 570.34
-109.103 -76.5772 571.312
-109.103 -75.5528 571.312
-109.29 -74.6555 572.287
-109.29 -73.6293 572.287
-109.29 -72.6031 572.287
-109.29 -71.5769 572.287
-109.383 -70.611 572.776
-109.29 -69.5246 572.287
-109.29 -68.4984 572.287
-109.383 -67.5298 572.776
-109.383 -66.5027 572.776
-109.383 -65.4756 572.776
-109.476 -64.5037 573.265
-109.476 -63.4757 573.265
-109.57 -62.5012 573.756
-109.664 -61.525 574.247
-109.758 -60.5471 574.739
-109.946 -59.6187 575.726
-109.946 -58.5863 575.726
-109.946 -57.554 575.726
-109.29 -56.184 572.287
-109.476 -55.2521 573.265
-173.56 15.0745 908.835
-173.325 16.6815 907.605
-172.857 18.2596 905.156
-172.624 19.8559 903.936
-171.469 21.333 897.885
-171.24 22.9124 896.685
-170.329 24.3898 891.915
-169.877 25.9202 889.55
-170.329 27.5885 891.915
-170.329 29.1878 891.915
-170.329 32.3865 891.915
-115.602 131.613 605.343
-115.707 132.818 605.89
-115.707 133.905 605.89
-115.602 134.869 605.343
-115.29 135.588 603.709
-114.877 136.18 601.543
-114.058 136.281 597.258
-113.653 136.864 595.138
-113.352 137.565 593.558
-113.151 138.385 592.509
-113.151 139.447 592.509
-112.654 139.892 589.904
-112.357 140.578 588.351
-112.357 141.633 588.351
-112.259 142.563 587.836
-111.574 142.742 584.251
-110.802 142.794 580.208
-109.946 142.724 575.726
-109.29 142.897 572.287
-109.383 144.046 572.776
-109.29 144.95 572.287
-109.29 145.976 572.287
-109.29 147.002 572.287
-109.29 148.028 572.287
-109.29 149.054 572.287
-107.818 148.059 564.579
-107.727 148.946 564.105
-107.276 149.33 561.742
-107.096 150.086 560.803
-107.007 150.965 560.335
-105.683 151.081 553.4
-105.683 152.074 553.4
-105.683 153.066 553.4
-105.595 153.931 552.943
-105.162 154.287 550.674
-105.248 155.402 551.126
-105.076 156.134 550.222
-104.732 156.606 548.422
-103.463 155.68 541.777
-103.463 156.652 541.777
-103.213 157.242 540.468
-103.047 157.957 539.598
-102.881 158.669 538.731
-102.388 158.87 536.147
-102.388 159.831 536.147
-102.306 160.664 535.719
-102.143 161.367 534.865
-101.899 161.938 533.588
-101.657 162.507 532.318
-101.657 163.462 532.318
-101.015 163.379 528.959
-100.461 163.425 526.055
-100.382 164.24 525.643
-99.8342 164.281 522.775
-99.7565 165.09 522.368
-99.6013 165.768 521.556
-99.6013 166.704 521.556
-99.5239 167.509 521.15
-99.1388 167.791 519.133
-98.6805 167.942 516.734
-98.5287 168.609 515.939
-98.001 168.626 513.176
-97.9261 169.417 512.783
-97.8513 170.206 512.391
-97.702 170.864 511.61
-97.3308 171.129 509.666
-97.2569 171.912 509.279
-96.889 172.171 507.353
-96.1616 171.782 503.544
-96.0895 172.555 503.166
-95.802 172.938 501.661
-95.5875 173.449 500.538
-95.4451 174.086 499.792
-95.1614 174.463 498.306
-95.0203 175.096 497.567
-94.5294 175.079 494.997
-94.5294 175.967 494.997
-94.1818 176.204 493.177
-94.4597 177.611 494.632
-94.4597 178.498 494.632
-93.8369 178.202 491.37
-93.7682 178.952 491.011
-93.4944 179.307 489.577
-93.2901 179.791 488.507
-93.1544 180.405 487.797
-93.0191 181.016 487.088
-92.8842 181.626 486.382
-92.8169 182.366 486.029
-92.4151 182.444 483.925
-91.7531 181.998 480.459
-91.3604 182.077 478.403
-91.2303 182.675 477.721
-90.9065 182.88 476.026
-90.7777 183.473 475.351
-90.6492 184.065 474.678
-90.3295 184.264 473.005
-90.0755 184.591 471.674
-90.0755 185.437 471.674
-108.263 -90.0484 572.287
-107.803 -80.4694 569.856
-107.987 -79.5828 570.826
-107.987 -78.5592 570.826
-107.987 -77.5356 570.826
-107.987 -76.512 570.826
-107.895 -75.4243 570.34
-108.079 -74.5283 571.312
-108.171 -73.5666 571.799
-108.263 -72.6031 572.287
-108.263 -71.5769 572.287
-108.356 -70.611 572.776
-108.263 -69.5246 572.287
-108.356 -68.5568 572.776
-108.356 -67.5298 572.776
-108.356 -66.5027 572.776
-108.356 -65.4756 572.776
-108.448 -64.5037 573.265
-108.448 -63.4757 573.265
-108.541 -62.5012 573.756
-108.634 -61.525 574.247
-108.727 -60.5471 574.739
-108.914 -59.6187 575.726
-108.914 -58.5863 575.726
-108.914 -57.554 575.726
-108.634 -56.3765 574.247
-109.007 -55.5369 576.22
-109.007 -54.5037 576.22
-171.698 18.309 907.605
-171.466 19.9095 906.379
-169.859 21.333 897.885
-169.632 22.9124 896.685
-169.405 24.4875 895.488
-168.73 25.9891 891.915
-169.405 27.699 895.488
-169.179 29.2656 894.294
-168.73 30.7871 891.915
-114.31 131.376 604.253
-114.414 132.579 604.797
-114.517 133.784 605.343
-113.696 133.902 601.004
-113.798 135.101 601.543
-112.887 136.16 596.726
-112.786 137.108 596.196
-112.486 137.809 594.61
-112.188 138.507 593.033
-112.089 139.447 592.509
-111.694 140.015 590.423
-111.302 140.578 588.351
-111.205 141.509 587.836
-109.667 141.631 579.706
-109.667 142.671 579.706
-109.101 142.969 576.716
-108.448 143.142 573.265
-108.448 144.17 573.265
-108.356 145.073 572.776
-108.356 146.101 572.776
-108.356 147.128 572.776
-108.356 148.155 572.776
-108.356 149.182 572.776
-106.536 147.686 563.157
-106.626 148.821 563.631
-106.269 149.33 561.742
-106.091 150.086 560.803
-106.002 150.965 560.335
-105.825 151.716 559.4
-105.037 151.582 555.232
-104.863 152.325 554.314
-104.69 153.066 553.4
-104.26 153.425 551.126
-104.004 154.034 549.771
-104.004 155.02 549.771
-104.004 156.006 549.771
-103.495 156.223 547.08
-102.162 155.179 540.033
-102.079 156.022 539.598
-102.079 156.989 539.598
-102.079 157.957 539.598
-101.997 158.797 539.164
-101.915 159.635 538.731
-101.834 160.472 538.299
-101.346 160.664 535.719
-101.184 161.367 534.865
-100.782 161.681 532.741
-100.702 162.507 532.318
-100.622 163.332 531.896
-100.146 163.508 529.377
-99.6737 163.682 526.882
-99.4393 164.24 525.643
-98.8198 164.153 522.368
-98.7429 164.961 521.961
-98.7429 165.897 521.961
-98.6661 166.704 521.556
-98.6661 167.639 521.556
-98.284 167.921 519.536
-97.0066 166.658 512.783
-97.0066 167.578 512.783
-96.9325 168.368 512.391
-96.8585 169.158 512
-96.7108 169.817 511.22
-96.4902 170.344 510.054
-96.4169 171.129 509.666
-96.3437 171.912 509.279
-96.0519 172.302 507.737
-95.3303 171.911 503.922
-95.1872 172.555 503.166
-95.1159 173.327 502.789
-94.8315 173.708 501.286
-94.6194 174.216 500.164
-94.2679 174.463 498.306
-94.128 175.096 497.567
-93.7802 175.338 495.728
-93.6418 175.967 494.997
-93.1605 175.945 492.453
-92.9557 176.44 491.37
-93.0239 177.451 491.731
-92.8198 177.941 490.651
-92.6841 178.56 489.935
-92.5489 179.177 489.22
-92.4141 179.791 488.507
-92.3469 180.536 488.152
-92.0788 180.885 486.735
-91.9454 181.494 486.029
-91.8788 182.234 485.677
-91.4154 182.181 483.228
-90.9567 182.129 480.803
-90.6966 182.468 479.428
-90.4381 182.805 478.062
-90.3736 183.531 477.721
-90.3093 184.257 477.381
-89.8616 184.195 475.014
-89.5445 184.394 473.338
-89.3554 184.851 472.338
-89.3554 185.698 472.338
-107.237 -77.7341 572.287
-107.146 -76.6425 571.799
-106.872 -75.4243 570.34
-106.872 -74.4016 570.34
-107.054 -73.5039 571.312
-107.237 -72.6031 572.287
-107.146 -71.5159 571.799
-107.329 -70.611 572.776
-107.329 -69.5839 572.776
-107.329 -68.5568 572.776
-107.329 -67.5298 572.776
-107.329 -66.5027 572.776
-107.329 -65.4756 572.776
-107.42 -64.5037 573.265
-107.42 -63.4757 573.265
-107.512 -62.5012 573.756
-107.697 -61.5777 574.739
-107.697 -60.5471 574.739
-107.789 -59.5676 575.232
-107.881 -58.5863 575.726
-107.974 -57.6034 576.22
-107.974 -56.5702 576.22
-108.346 -55.7284 578.207
-108.44 -54.7388 578.706
-108.44 -53.7011 578.706
-107.974 -52.4372 576.22
-107.974 -51.404 576.22
-107.974 -50.3707 576.22
-107.604 -49.1685 574.247
-107.604 -48.1388 574.247
-170.07 19.9365 907.605
-169.383 21.4767 903.936
-168.927 23.0355 901.506
-168.474 24.586 899.089
-168.024 26.1281 896.685
-168.024 27.736 896.685
-168.024 29.3439 896.685
-113.534 131.732 605.89
-113.431 132.698 605.343
-113.329 133.663 604.797
-112.316 133.544 599.393
-112.417 134.739 599.929
-111.717 136.038 596.196
-111.519 136.864 595.138
-111.223 137.565 593.558
-110.831 139.201 591.464
-110.344 139.646 588.868
-110.151 140.455 587.836
-110.054 141.385 587.321
-108.816 141.877 580.71
-108.721 142.794 580.208
-108.16 143.092 577.212
-107.42 143.142 573.265
-107.42 144.17 573.265
-107.329 145.073 572.776
-107.329 146.101 572.776
-107.237 147.002 572.287
-107.237 148.028 572.287
-107.237 149.054 572.287
-105.793 148.059 564.579
-105.882 149.197 565.055
-105.704 149.958 564.105
-105.261 150.337 561.742
-105.085 151.091 560.803
-105.085 152.097 560.803
-104.214 151.833 556.153
-103.955 152.451 554.773
-103.784 153.192 553.857
-103.612 153.931 552.943
-103.272 154.414 551.126
-103.272 155.402 551.126
-103.018 156.006 549.771
-102.347 155.969 546.189
-102.097 156.566 544.858
-101.767 157.032 543.093
-101.52 157.623 541.777
-101.438 158.467 541.34
-101.275 159.181 540.468
-101.193 160.021 540.033
-101.112 160.86 539.598
-100.949 161.567 538.731
-100.145 161.238 534.439
-99.4319 161.042 530.633
-99.2748 161.737 529.795
-99.3533 162.816 530.214
-99.1182 163.379 528.959
-98.6514 163.554 526.468
-98.574 164.369 526.055
-97.8831 164.153 522.368
-97.8831 165.09 522.368
-97.8069 166.833 521.961
-97.8069 167.769 521.961
-97.3524 167.921 519.536
-96.1606 166.786 513.176
-96.0871 167.578 512.783
-96.0137 168.368 512.391
-95.8672 169.029 511.61
-95.7212 169.688 510.831
-95.5756 170.344 510.054
-95.503 171.129 509.666
-95.358 171.781 508.893
-95.0695 172.171 507.353
-94.3558 171.782 503.544
-94.285 172.555 503.166
-94.1438 173.197 502.412
-94.0029 173.838 501.661
-93.7925 174.346 500.538
-93.5133 174.722 499.048
-93.305 175.226 497.936
-93.0288 175.597 496.462
-92.7542 175.967 494.997
-92.2775 175.945 492.453
-92.0747 176.44 491.37
-92.1422 177.451 491.731
-92.0072 178.071 491.011
-91.9399 178.821 490.651
-91.6717 179.177 489.22
-91.6049 179.923 488.863
-91.4715 180.536 488.152
-91.206 180.885 486.735
-91.1399 181.626 486.382
-91.0738 182.366 486.029
-90.8763 182.84 484.975
-90.4837 182.916 482.88
-90.03 182.86 480.459
-89.6447 182.935 478.403
-89.4533 183.401 477.381
-89.0729 183.473 475.351
-89.0098 184.195 475.014
-88.5708 184.134 472.671
-88.3218 184.462 471.343
-88.4461 185.568 472.006
-87.951 185.37 469.363
-87.951 186.212 469.363
-106.211 -75.6817 572.287
-106.211 -74.6555 572.287
-106.302 -73.6922 572.776
-106.392 -72.7272 573.265
-106.392 -71.6993 573.265
-106.483 -70.7318 573.756
-106.392 -69.6434 573.265
-106.392 -68.6154 573.265
-106.392 -67.5875 573.265
-106.302 -66.5027 572.776
-106.392 -65.5316 573.265
-106.392 -64.5037 573.265
-106.483 -63.53 573.756
-106.483 -62.5012 573.756
-106.666 -61.5777 574.739
-106.757 -60.599 575.232
-106.757 -59.5676 575.232
-106.849 -58.5863 575.726
-106.941 -57.6034 576.22
-106.941 -56.5702 576.22
-107.033 -55.5847 576.716
-107.125 -54.5975 577.212
-107.402 -53.7011 578.706
-107.033 -52.4823 576.716
-106.941 -51.404 576.22
-106.941 -50.3707 576.22
-106.941 -49.3375 576.22
-106.941 -48.3042 576.22
-106.849 -47.2304 575.726
-106.757 -46.1584 575.232
-169.129 20.0177 911.305
-167.988 21.5057 905.156
-167.311 23.0355 901.506
-166.416 24.5202 896.685
-165.972 26.0584 894.294
-165.531 27.5885 891.915
-165.531 29.1878 891.915
-112.245 132.579 604.797
-112.143 133.543 604.253
-110.747 132.949 596.726
-110.747 134.019 596.726
-110.747 136.16 596.726
-110.55 136.986 595.666
-110.061 137.444 593.033
-109.964 138.385 592.509
-109.867 139.324 591.986
-109.673 140.138 590.943
-109.288 140.702 588.868
-109.192 141.633 588.351
-109.001 142.439 587.321
-107.681 141.754 580.208
-107.495 142.548 579.206
-106.757 142.601 575.232
-106.211 142.897 572.287
-106.211 143.924 572.287
-106.302 145.073 572.776
-106.211 145.976 572.287
-106.211 147.002 572.287
-106.211 148.028 572.287
-106.211 149.054 572.287
-104.78 148.059 564.579
-105.223 149.702 566.966
-104.78 150.084 564.579
-104.429 150.589 562.685
-104.167 151.218 561.272
-104.254 152.352 561.742
-103.388 152.085 557.077
-103.131 152.704 555.692
-102.79 153.192 553.857
-102.621 153.931 552.943
-102.368 154.541 551.579
-102.116 155.147 550.222
-102.032 156.006 549.771
-101.949 156.863 549.321
-100.63 157.751 542.215
-100.549 158.595 541.777
-100.467 159.438 541.34
-100.306 160.15 540.468
-100.064 160.73 539.164
-99.4243 160.664 535.719
-98.8715 160.726 532.741
-98.3248 160.787 529.795
-98.2472 161.61 529.377
-98.2472 162.559 529.377
-97.861 162.865 527.296
-97.7074 163.554 526.468
-97.6308 164.369 526.055
-96.9464 164.153 522.368
-96.9464 165.09 522.368
-96.871 165.897 521.961
-96.871 166.833 521.961
-96.871 167.769 521.961
-96.5704 168.182 520.342
-95.2404 167.706 513.176
-95.0949 168.368 512.391
-94.9498 169.029 511.61
-94.9498 169.946 511.61
-94.5891 170.215 509.666
-94.5891 171.129 509.666
-94.4455 171.781 508.893
-94.0175 171.911 506.586
-93.5231 171.911 503.922
-93.3828 172.555 503.166
-93.3127 173.327 502.789
-93.2429 174.098 502.412
-92.9643 174.476 500.911
-92.8257 175.113 500.164
-92.6185 175.617 499.048
-92.2752 175.858 497.198
-92.1386 176.488 496.462
-91.7988 176.724 494.632
-91.2604 176.569 491.731
-91.2604 177.451 491.731
-91.1936 178.202 491.37
-91.0601 178.821 490.651
-90.8607 179.307 489.577
-90.7283 179.923 488.863
-90.4645 180.274 487.442
-90.2677 180.754 486.382
-90.2023 181.494 486.029
-90.137 182.234 485.677
-89.6824 182.181 483.228
-89.489 182.653 482.186
-89.1047 182.729 480.115
-88.7236 182.805 478.062
-88.6604 183.531 477.721
-88.1581 183.343 475.014
-88.0334 183.934 474.343
-87.7232 184.134 472.671
-87.5997 184.721 472.006
-87.1703 184.658 469.692
-87.1093 185.37 469.363
-87.1093 186.212 469.363
-105.185 -74.6555 572.287
-105.185 -73.6293 572.287
-105.365 -72.7272 573.265
-105.185 -71.5769 572.287
-105.275 -70.611 572.776
-105.275 -69.5839 572.776
-105.365 -68.6154 573.265
-105.365 -67.5875 573.265
-105.365 -66.5595 573.265
-105.365 -65.5316 573.265
-105.365 -64.5037 573.265
-105.455 -63.53 573.756
-105.455 -62.5012 573.756
-105.726 -61.6305 575.232
-105.817 -60.6511 575.726
-105.817 -59.6187 575.726
-105.817 -58.5863 575.726
-105.908 -57.6034 576.22
-105.817 -56.5216 575.726
-105.908 -55.5369 576.22
-106.273 -54.6916 578.207
-106.548 -53.794 579.706
-106.456 -52.7089 579.206
-106.456 -51.6703 579.206
-106.273 -50.5444 578.207
-106.273 -49.5076 578.207
-106.273 -48.4708 578.207
-105.817 -47.2304 575.726
-105.908 -46.2377 576.22
-166.815 19.9365 907.605
-165.694 21.419 901.506
-165.029 22.943 897.885
-164.588 24.4875 895.488
-163.932 25.9891 891.915
-163.932 27.5885 891.915
-109.677 132.949 596.726
-109.677 134.019 596.726
-109.872 136.402 597.79
-109.774 137.352 597.258
-108.709 137.08 591.464
-108.327 137.655 589.385
-108.327 138.712 589.385
-108.043 140.455 587.836
-108.137 141.633 588.351
-107.853 142.314 586.807
-107.477 142.866 584.761
-106.733 142.918 580.71
-105.908 142.846 576.22
-105.275 143.019 572.776
-105.185 143.924 572.287
-105.185 144.95 572.287
-105.185 145.976 572.287
-105.095 146.877 571.799
-105.006 147.776 571.312
-105.006 148.801 571.312
-104.383 149.955 567.926
-103.768 150.084 564.579
-103.247 152.352 561.742
-102.389 152.085 557.077
-102.05 152.577 555.232
-101.797 153.192 553.857
-101.713 154.058 553.4
-101.629 154.923 552.943
-101.546 155.786 552.488
-101.046 156.006 549.771
-100.964 156.863 549.321
-99.7383 157.878 542.654
-99.3364 158.211 540.468
-99.2564 159.052 540.033
-99.0969 159.763 539.164
-98.8585 160.344 537.867
-98.3851 160.536 535.292
-97.5289 160.09 530.633
-97.298 160.66 529.377
-97.2212 161.482 528.959
-97.0681 162.175 528.126
-96.7634 162.61 526.468
-96.6875 163.425 526.055
-96.6875 164.369 526.055
-95.935 164.025 521.961
-95.935 164.961 521.961
-95.7116 165.511 520.746
-95.5632 166.187 519.938
-95.5632 167.119 519.938
-95.3415 167.661 518.732
-94.2481 166.658 512.783
-94.1761 167.45 512.391
-94.0324 168.112 511.61
-94.1042 169.158 512
-94.0324 169.946 511.61
-93.7464 170.344 510.054
-93.6752 171.129 509.666
-93.604 171.912 509.279
-93.3206 172.302 507.737
-93.1091 172.82 506.586
-91.9974 175.244 500.538
-91.9288 176.01 500.164
-91.5193 176.119 497.936
-91.3836 176.749 497.198
-90.979 176.854 494.997
-90.5114 176.828 492.453
-90.445 177.581 492.091
-90.3125 178.202 491.37
-90.2463 178.952 491.011
-90.0486 179.438 489.935
-89.9172 180.054 489.22
-89.7862 180.667 488.507
-89.6556 181.279 487.797
-89.3308 181.494 486.029
-89.2015 182.102 485.326
-88.8159 182.181 483.228
-88.752 182.916 482.88
-88.3703 182.991 480.803
-87.8664 182.805 478.062
-87.8038 183.531 477.721
-87.3063 183.343 475.014
-87.2445 184.065 474.678
-86.8756 184.134 472.671
-86.8144 184.851 472.338
-86.5706 185.177 471.012
-86.5706 186.021 471.012
-86.3281 186.342 469.692
-104.784 -70.9746 575.726
-104.515 -69.7626 574.247
-104.605 -68.7918 574.739
-104.426 -67.6453 573.756
-104.337 -66.5595 573.265
-104.426 -65.5877 573.756
-104.426 -64.5588 573.756
-104.426 -63.53 573.756
-104.605 -62.6083 574.739
-104.784 -61.6834 575.726
-104.784 -60.6511 575.726
-104.784 -59.6187 575.726
-104.784 -58.5863 575.726
-104.874 -57.6034 576.22
-104.784 -56.5216 575.726
-104.874 -55.5369 576.22
-104.874 -54.5037 576.22
-104.965 -52.4823 576.716
-104.965 -51.4482 576.716
-104.965 -50.414 576.716
-105.055 -49.4224 577.212
-105.236 -48.4708 578.207
-105.236 -47.434 578.207
-164.965 19.9095 906.379
-164.078 21.419 901.506
-163.419 22.943 897.885
-163.2 24.5202 896.685
-162.332 25.9891 891.915
-162.332 27.5885 891.915
-108.51 132.831 596.196
-108.51 133.9 596.196
-108.51 134.969 596.196
-108.703 136.281 597.258
-107.839 137.322 592.509
-107.176 137.534 588.868
-107.176 138.59 588.868
-107.082 139.523 588.351
-107.082 140.578 588.351
-107.082 141.633 588.351
-106.988 142.563 587.836
-106.429 142.866 584.761
-105.692 142.918 580.71
-105.055 143.092 577.212
-104.695 143.633 575.232
-104.337 144.17 573.265
-104.247 145.073 572.776
-104.159 145.976 572.287
-103.716 146.378 569.856
-103.54 147.149 568.889
-103.452 148.044 568.407
-103.19 148.685 566.966
-102.929 149.323 565.532
-102.929 150.337 565.532
-102.068 152.097 560.803
-101.39 152.085 557.077
-101.054 152.577 555.232
-100.804 153.192 553.857
-100.721 154.058 553.4
-100.721 155.051 553.4
-100.061 155.02 549.771
-100.061 156.006 549.771
-99.7335 156.478 547.974
-99.0055 156.312 543.974
-98.7652 156.905 542.654
-98.7652 157.878 542.654
-98.6854 158.723 542.215
-98.6854 159.695 542.215
-98.2881 160.021 540.033
-97.9726 160.472 538.299
-97.581 160.792 536.147
-96.9609 160.726 532.741
-96.8071 161.425 531.896
-96.501 161.865 530.214
-96.2727 162.431 528.959
-96.1211 163.122 528.126
-95.97 163.811 527.296
-95.5942 164.111 525.231
-94.9991 164.025 521.961
-95.0731 165.09 522.368
-94.9252 165.768 521.556
-94.7043 166.316 520.342
-94.5576 166.99 519.536
-94.1928 167.273 517.531
-93.3286 166.658 512.783
-93.2573 167.45 512.391
-93.115 168.112 511.61
-93.115 169.029 511.61
-93.0441 169.817 511.22
-92.8318 170.344 510.054
-92.8318 171.259 510.054
-92.7613 172.042 509.666
-92.5503 172.563 508.507
-92.2008 172.82 506.586
-90.3581 176.488 496.462
-90.0249 176.724 494.632
-89.6284 176.828 492.453
-89.4969 177.451 491.731
-89.4314 178.202 491.37
-89.3659 178.952 491.011
-89.3659 179.832 491.011
-88.9751 179.923 488.863
-88.9103 180.667 488.507
-88.781 181.279 487.797
-88.5234 181.626 486.382
-88.4593 182.366 486.029
-87.9494 182.181 483.228
-87.9494 183.047 483.228
-87.7598 183.517 482.186
-87.0091 182.805 478.062
-86.8235 183.27 477.042
-86.3323 183.084 474.343
-86.2103 183.675 473.673
-85.9675 184.004 472.338
-85.9675 184.851 472.338
-85.907 185.568 472.006
-85.9675 186.545 472.338
-85.9675 187.392 472.338
-103.752 -68.9099 575.726
-103.486 -67.7032 574.247
-103.397 -66.6165 573.756
-103.486 -65.6438 574.247
-103.574 -64.6695 574.739
-103.663 -63.6935 575.232
-103.752 -62.7158 575.726
-103.841 -61.7364 576.22
-103.841 -60.7032 576.22
-103.841 -59.6699 576.22
-103.752 -58.5863 575.726
-103.841 -57.6034 576.22
-103.841 -56.5702 576.22
-103.841 -55.5369 576.22
-103.841 -54.5037 576.22
-103.93 -52.4823 576.716
-103.93 -51.4482 576.716
-103.93 -50.414 576.716
-103.93 -49.3799 576.716
-104.289 -48.5126 578.706
-104.469 -47.557 579.706
-163.56 19.9365 907.605
-163.119 21.5057 905.156
-162.899 23.0976 903.936
-162.461 24.6521 901.506
-161.592 26.1281 896.685
-107.155 131.412 594.61
-107.346 132.713 595.666
-107.441 133.9 596.196
-107.441 134.969 596.196
-107.537 136.16 596.726
-107.441 137.108 596.196
-107.155 137.809 594.61
-106.12 140.702 588.868
-106.027 141.633 588.351
-105.842 142.439 587.321
-105.288 142.742 584.251
-104.56 142.794 580.208
-104.109 143.215 577.709
-103.752 143.756 575.726
-103.752 144.788 575.726
-103.309 145.197 573.265
-103.044 145.851 571.799
-102.607 146.253 569.372
-102.52 147.149 568.889
-102.433 148.044 568.407
-101.915 149.323 565.532
-101.743 150.084 564.579
-101.063 152.097 560.803
-100.391 152.085 557.077
-100.059 152.577 555.232
-99.9761 153.446 554.773
-99.811 154.186 553.857
-99.6464 154.923 552.943
-99.0747 155.02 549.771
-99.0747 156.006 549.771
-99.0747 156.991 549.771
-97.8713 156.059 543.093
-97.7131 156.779 542.215
-97.3982 157.242 540.468
-97.2414 157.957 539.598
-97.2414 158.924 539.598
-97.3197 160.021 540.033
-97.0852 160.601 538.731
-96.6196 160.792 536.147
-96.0056 160.726 532.741
-95.8534 161.425 531.896
-95.4748 161.737 529.795
-95.3242 162.431 528.959
-95.2491 163.25 528.542
-94.9498 163.682 526.882
-94.8009 164.369 526.055
-94.1364 165.09 522.368
-94.0631 165.897 521.961
-93.7712 166.316 520.342
-93.626 166.99 519.536
-93.4811 167.661 518.732
-93.0494 167.813 516.336
-93.0494 168.739 516.336
-92.4091 168.497 512.783
-92.3385 169.287 512.391
-92.268 170.076 512
-91.9872 170.474 510.442
