ply
format ascii 1.0
element vertex 1939
property float x
property float y
property float z
end_header
-215.781 159.756 545.745
-215.081 160.213 543.974
-214.733 160.928 543.093
-214.385 161.64 542.215
-213.694 162.088 540.468
-213.351 162.795 539.598
-213.179 163.631 539.164
-212.156 163.807 536.576
-211.817 164.506 535.719
-211.311 165.071 534.439
-211.142 165.898 534.013
-208.979 165.146 528.542
-207.833 165.182 525.643
-207.833 166.125 525.643
-207.345 166.676 524.41
-207.183 167.485 524
-206.699 168.031 522.775
-206.538 168.837 522.368
-205.577 168.984 519.938
-205.259 169.653 519.133
-203.839 169.404 515.542
-203.683 170.197 515.146
-203.37 170.859 514.356
-203.059 171.518 513.568
-202.748 172.175 512.783
-202.13 172.567 511.22
-201.669 173.088 510.054
-201.516 173.87 509.666
-200.298 173.728 506.586
-200.298 174.636 506.586
-200.298 175.545 506.586
-200.298 176.453 506.586
-200.45 177.496 506.969
-199.695 177.733 505.061
-197.907 177.039 500.538
-196.732 176.88 497.567
-195.716 176.854 494.997
-195.427 177.48 494.267
-195.427 178.366 494.267
-194.996 178.857 493.177
-194.424 179.214 491.731
-193.573 179.307 489.577
-193.291 179.923 488.863
-193.009 180.536 488.152
-192.869 181.279 487.797
-192.869 182.154 487.797
-192.869 183.029 487.797
-192.31 183.37 486.382
-191.063 183.047 483.228
-190.925 183.782 482.88
-191.063 184.78 483.228
-191.063 185.647 483.228
-190.104 185.578 480.803
-190.104 186.44 480.803
-188.885 186.101 477.721
-188.617 186.692 477.042
-188.482 187.414 476.703
-188.349 188.135 476.364
-187.815 188.454 475.014
-355.785 23.0976 903.936
-354.828 24.6521 901.506
-354.828 26.2686 901.506
-347.358 28.8806 882.527
-347.358 30.4631 882.527
-345.539 31.8778 877.906
-345.539 33.452 877.906
-344.637 34.9348 875.614
-341.959 36.2211 868.809
-341.075 37.6814 866.564
-337.586 38.8339 857.699
-335.868 40.1664 853.334
-335.868 41.6966 853.334
-334.591 43.0624 850.089
-333.323 44.4178 846.869
-329.99 45.477 838.401
-328.348 46.7466 834.229
-327.941 48.1826 833.193
-326.723 49.4922 830.1
-325.113 50.7295 826.01
-324.714 52.1465 824.994
-324.315 53.5599 823.981
-322.729 54.7683 819.952
-322.335 56.1699 818.95
-321.549 57.498 816.955
-317.298 58.1834 806.154
-315.78 59.3436 802.297
-315.403 60.7097 801.339
-315.026 62.0724 800.382
-313.53 63.2059 796.58
-312.787 64.4811 794.692
-312.047 65.7503 792.814
-309.85 66.6989 787.231
-309.124 67.951 785.387
-307.325 68.9556 780.815
-307.325 70.3557 780.815
-306.611 71.5891 779.002
-304.138 72.3974 772.719
-303.788 73.6981 771.83
-301.017 75.7686 764.79
-301.017 77.14 764.79
-298.296 77.8016 757.876
-296.287 78.6275 752.773
-295.624 79.7983 751.087
-295.624 81.1451 751.087
-293.651 81.9413 746.074
-292.674 83.0021 743.593
-291.061 83.8706 739.493
-289.465 84.7295 735.439
-288.516 85.7661 733.028
-288.516 87.0806 733.028
-286.948 87.9146 729.044
-286.015 88.9319 726.674
-285.706 90.1372 725.888
-285.397 91.34 725.103
-285.397 92.6402 725.103
-283.862 93.4354 721.205
-281.441 93.9207 715.054
-280.544 94.8994 712.774
-280.246 96.0754 712.017
-279.357 97.0431 709.757
-278.767 98.1081 708.258
-278.473 99.2733 707.511
-277.886 100.33 706.021
-276.432 101.064 702.325
-274.135 101.474 696.491
-273.567 102.51 695.047
-273.284 103.649 694.328
-271.318 104.139 689.332
-270.484 105.051 687.214
-269.38 105.85 684.409
-269.38 107.077 684.409
-269.38 108.304 684.409
-269.105 109.42 683.711
-265.052 108.979 673.414
-263.465 109.527 669.382
-262.94 110.507 668.048
-262.94 111.705 668.048
-262.679 112.79 667.384
-262.418 113.874 666.72
-260.604 114.274 662.113
-258.309 115.621 656.282
-257.553 116.456 654.361
-256.802 117.286 652.452
-256.303 118.226 651.185
-255.806 119.163 649.923
-254.819 119.863 647.414
-254.083 120.675 645.544
-253.108 121.365 643.068
-252.866 122.401 642.452
-252.624 123.435 641.838
-251.661 124.111 639.39
-251.182 125.019 638.174
-249.52 125.328 633.951
-249.049 126.227 632.755
-248.346 127.002 630.969
-247.184 127.533 628.015
-247.184 128.659 628.015
-247.184 129.785 628.015
-246.491 130.545 626.256
-245.346 131.056 623.346
-245.118 132.051 622.767
-243.76 132.43 619.317
-243.535 133.417 618.746
-243.535 134.527 618.746
-243.087 135.387 617.606
-241.53 135.62 613.651
-239.993 135.85 609.746
-239.123 136.447 607.537
-238.045 136.917 604.797
-236.977 137.382 602.083
-236.552 138.213 601.004
-236.129 139.042 599.929
-235.287 139.618 597.79
-234.868 140.44 596.726
-234.868 141.51 596.726
-234.451 142.326 595.666
-231.775 143.87 588.868
-230.964 144.418 586.807
-229.758 144.711 583.743
-229.558 145.631 583.235
-228.565 146.042 580.71
-228.367 146.956 580.208
-226.797 146.979 576.22
-226.603 147.885 575.726
-225.827 148.408 573.756
-225.442 149.182 572.776
-225.057 149.953 571.799
-225.057 150.978 571.799
-223.912 151.23 568.889
-223.533 151.992 567.926
-222.216 152.109 564.579
-221.47 152.607 562.685
-220.729 153.103 560.803
-220.177 153.723 559.4
-220.545 154.984 560.335
-221.47 156.643 562.685
-219.263 157.08 557.077
-219.081 157.948 556.615
-217.636 157.897 552.943
-216.387 157.977 549.771
-216.033 158.703 548.871
-215.328 159.166 547.08
-215.153 160.017 546.634
-215.153 160.997 546.634
-214.977 161.845 546.189
-214.628 162.56 545.301
-213.932 163.007 543.534
-213.586 163.717 542.654
-212.042 163.499 538.731
-210.856 163.546 535.719
-210.352 164.113 534.439
-209.684 164.547 532.741
-209.351 165.24 531.896
-208.196 165.276 528.959
-207.053 165.312 526.055
-206.89 166.125 525.643
-206.567 166.806 524.82
-206.567 167.747 524.82
-205.922 168.162 523.183
-205.762 168.968 522.775
-205.122 169.378 521.15
-204.328 169.653 519.133
-203.698 170.057 517.531
-203.071 170.459 515.939
-202.915 171.253 515.542
-201.983 171.387 513.176
-201.675 172.044 512.391
-200.754 172.173 510.054
-200.602 172.956 509.666
-199.994 173.343 508.122
-199.39 173.728 506.586
-199.541 174.768 506.969
-199.541 175.677 506.969
-199.541 176.587 506.969
-199.541 177.496 506.969
-199.39 178.27 506.586
-197.009 177.039 500.538
-195.985 177.012 497.936
-195.695 177.641 497.198
-195.116 178.005 495.728
-194.684 178.498 494.632
-194.398 179.12 493.903
-193.543 179.214 491.731
-192.977 179.569 490.293
-192.554 180.054 489.22
-192.274 180.667 488.507
-191.994 181.279 487.797
-191.715 181.889 487.088
-191.576 182.63 486.735
-191.16 183.104 485.677
-190.471 183.312 483.925
-190.333 184.047 483.576
-190.471 185.047 483.925
-190.608 186.049 484.275
-190.196 186.513 483.228
-189.106 186.306 480.459
-188.029 186.101 477.721
-187.361 186.294 476.026
-187.628 187.414 476.703
-187.628 188.269 476.703
-186.041 187.524 472.671
-354.642 19.8827 905.156
-354.164 21.4767 903.936
-354.164 23.0976 903.936
-353.212 24.6521 901.506
-352.265 26.1982 899.089
-346.688 27.3701 884.855
-346.688 28.9568 884.855
-346.688 30.5434 884.855
-343.965 31.8778 877.906
-343.067 33.3647 875.614
-341.285 34.7533 871.065
-339.521 36.1275 866.564
-338.646 37.5843 864.33
-336.048 38.8339 857.699
-334.338 40.1664 853.334
-333.913 41.6436 852.25
-332.645 43.0079 849.013
-330.137 44.1946 842.614
-326.853 45.2507 834.229
-326.853 46.7466 834.229
-326.853 48.2425 834.229
-325.234 49.4922 830.1
-325.234 50.9807 830.1
-323.632 52.2107 826.01
-323.632 53.6919 826.01
-323.234 55.1051 824.994
-320.475 56.1014 817.952
-319.695 57.4281 815.962
-316.614 58.3236 808.097
-314.718 59.4147 803.258
-313.966 60.7097 801.339
-312.845 61.9246 798.477
-311.731 63.1309 795.635
-310.993 64.4048 793.752
-309.164 65.4409 789.083
-308.438 66.6989 787.231
-307.716 67.951 785.387
-306.639 69.1165 782.638
-305.925 70.3557 780.815
-305.569 71.6724 779.907
-302.753 72.3974 772.719
-300.674 73.2765 767.415
-299.988 74.4821 765.663
-299.646 75.7686 764.79
-298.624 76.877 762.182
-297.273 77.8896 758.734
-295.601 78.8044 754.466
-294.277 79.7983 751.087
-293.948 81.0543 750.247
-292.965 82.124 747.737
-291.664 83.0943 744.418
-291.018 84.2421 742.769
-289.735 85.1966 739.493
-288.78 86.2374 737.055
-288.146 87.367 735.439
-284.404 87.534 725.888
-284.097 88.7396 725.103
-283.178 89.7487 722.759
-283.178 91.0447 722.759
-282.569 92.1422 721.205
-282.266 93.335 720.43
-280.758 94.1214 716.582
-279.266 94.8994 712.774
-279.266 96.1775 712.774
-278.084 97.0431 709.757
-277.79 98.2118 709.007
-277.204 99.2733 707.511
-276.912 100.436 706.765
-275.172 101.064 702.325
-272.321 101.263 695.047
-271.197 102.087 692.178
-270.638 103.115 690.752
-270.36 104.246 690.042
-270.082 105.375 689.332
-268.701 106.066 685.808
-268.426 107.186 685.108
-268.701 108.526 685.808
-267.879 109.42 683.711
-263.845 108.979 673.414
-263.58 110.076 672.739
-262.789 110.949 670.72
-262.003 111.816 668.714
-261.742 112.903 668.048
-261.222 113.874 666.72
-259.673 114.387 662.767
-257.89 114.781 658.214
-257.133 115.621 656.282
-255.632 116.116 652.452
-255.135 117.059 651.185
-254.394 117.883 649.294
-253.903 118.817 648.039
-253.413 119.748 646.789
-252.439 120.443 644.304
-252.682 121.715 644.923
-251.473 123.435 641.838
-250.276 123.992 638.781
-249.563 124.781 636.961
-247.915 125.092 632.755
-247.215 125.87 630.969
-246.288 126.526 628.604
-246.058 127.533 628.015
-245.827 128.539 627.428
-245.827 129.664 627.428
-244.911 130.302 625.089
-244.228 131.056 623.346
-244.001 132.051 622.767
-242.426 132.308 618.746
-242.202 133.294 618.175
-242.202 134.403 618.175
-241.757 135.262 617.038
-239.771 135.249 611.971
-238.682 135.727 609.192
-238.25 136.571 608.087
-237.603 137.288 606.438
-236.961 138.001 604.797
-235.474 138.213 601.004
-235.053 139.042 599.929
-234.633 139.867 598.858
-234.424 140.815 598.323
-234.215 141.762 597.79
-234.215 142.834 597.79
-233.798 143.65 596.726
-230.719 143.87 588.868
-229.711 144.292 586.294
-228.513 144.585 583.235
-227.918 145.252 581.718
-227.13 145.789 579.706
-226.738 146.576 578.706
-225.958 147.106 576.716
-225.764 148.012 576.22
-225.377 148.79 575.232
-224.798 149.437 573.756
-224.223 150.081 572.287
-224.223 151.107 572.287
-222.703 151.102 568.407
-222.326 151.863 567.445
-221.576 152.365 565.532
-221.576 153.379 565.532
-219.724 154.108 560.803
-219.54 154.984 560.335
-218.083 155.951 556.615
-217.181 156.301 554.314
-216.823 157.035 553.4
-216.644 157.897 552.943
-216.11 158.497 551.579
-215.225 158.833 549.321
-214.172 159.036 546.634
-214.172 160.017 546.634
-213.65 160.604 545.301
-212.957 161.058 543.534
-212.957 162.033 543.534
-212.441 162.612 542.215
-211.756 163.057 540.468
-211.246 163.631 539.164
-209.896 163.546 535.719
-209.728 164.375 535.292
-209.061 164.809 533.588
-208.398 165.24 531.896
-207.411 165.407 529.377
-206.595 165.702 527.296
-205.948 166.125 525.643
-205.465 166.676 524.41
-205.304 167.485 524
-204.824 168.031 522.775
-204.824 168.968 522.775
-204.029 169.246 520.746
-203.397 169.653 519.133
-202.457 169.795 516.734
-202.301 170.59 516.336
-201.99 171.253 515.542
-201.217 171.518 513.568
-200.756 172.044 512.391
-199.992 172.304 510.442
-199.84 173.088 510.054
-199.536 173.738 509.279
-198.631 173.859 506.969
-198.932 175.033 507.737
-198.782 175.81 507.353
-198.782 176.72 507.353
-198.631 177.496 506.969
-198.481 178.27 506.586
-197.141 177.969 503.166
-196.112 177.936 500.538
-195.965 178.701 500.164
-194.515 178.268 496.462
-194.227 178.894 495.728
-193.798 179.385 494.632
-192.802 179.346 492.091
-192.52 179.964 491.37
-192.379 180.713 491.011
-191.398 180.667 488.507
-191.398 181.543 488.507
-191.259 182.287 488.152
-191.259 183.162 488.152
-190.427 183.237 486.029
-190.289 183.975 485.677
-190.289 184.846 485.677
-190.427 185.852 486.029
-190.152 186.453 485.326
-189.193 186.379 482.88
-188.11 186.173 480.115
-187.573 186.5 478.744
-186.508 186.294 476.026
-186.112 186.75 475.014
-185.98 187.469 474.678
-185.193 187.524 472.671
-353.019 18.2596 905.156
-352.543 19.8559 903.936
-352.543 21.4767 903.936
-352.543 23.0976 903.936
-351.595 24.6521 901.506
-351.595 26.2686 901.506
-346.014 27.4425 887.196
-346.014 29.0334 887.196
-345.101 30.5434 884.855
-341.943 31.8361 876.759
-341.497 33.3647 875.614
-339.282 34.7082 869.936
-338.405 36.1743 867.685
-337.967 37.6814 866.564
-334.51 38.8339 857.699
-332.385 40.1154 852.25
-331.963 41.5907 851.168
-331.963 43.117 851.168
-328.214 44.1392 841.556
-326.168 45.3636 836.31
-326.168 46.8632 836.31
-325.762 48.3026 835.268
-325.357 49.7384 834.229
-324.952 51.1707 833.193
-322.947 52.3396 828.05
-322.151 53.6919 826.01
-319.398 54.7015 818.95
-318.62 56.0331 816.955
-318.62 57.498 816.955
-315.545 58.3939 809.072
-313.653 59.4859 804.221
-312.529 60.7097 801.339
-311.784 61.9984 799.428
-310.305 63.1309 795.635
-309.57 64.4048 793.752
-307.387 65.364 788.156
-306.667 66.6207 786.308
-305.592 67.7923 783.552
-304.525 68.9556 780.815
-303.817 70.1923 779.002
-301.715 71.0937 773.611
-301.02 72.3141 771.83
-299.985 73.4445 769.175
-299.298 74.6526 767.415
-298.615 75.8551 765.663
-297.935 77.0521 763.918
-296.248 77.9779 759.593
-295.245 79.0713 757.021
-293.259 79.8877 751.929
-292.603 81.0543 750.247
-292.603 82.3996 750.247
-290.975 83.2791 746.074
-290.329 84.4291 744.418
-288.409 85.1966 739.493
-286.828 86.0483 735.439
-285.575 86.9855 732.228
-283.409 87.6288 726.674
-282.796 88.7396 725.103
-282.491 89.9426 724.32
-282.491 91.2414 724.32
-282.186 92.4404 723.539
-281.882 93.6367 722.759
-280.071 94.3229 718.116
-277.988 94.8994 712.774
-277.398 95.9735 711.262
-276.227 96.8381 708.258
-275.935 98.0046 707.511
-275.645 99.1687 706.765
-273.913 99.805 702.325
-273.055 100.748 700.126
-271.074 101.263 695.047
-270.514 102.298 693.609
-269.399 103.115 690.752
-269.122 104.246 690.042
-268.846 105.375 689.332
-267.471 106.066 685.808
-267.471 107.296 685.808
-267.471 108.526 685.808
-266.653 109.42 683.711
-260.545 112.903 668.048
-260.285 113.987 667.384
-258.485 114.387 662.767
-256.709 114.781 658.214
-255.706 115.508 655.641
-254.71 116.23 653.087
-254.462 117.286 652.452
-253.721 118.112 650.553
-252.741 118.817 648.039
-252.253 119.748 646.789
-251.768 120.675 645.544
-251.284 121.598 644.304
-250.802 122.518 643.068
-250.562 123.553 642.452
-250.083 124.467 641.224
-248.657 124.9 637.567
-247.48 125.447 634.551
-246.78 126.227 632.755
-246.083 127.002 630.969
-244.931 127.533 628.015
-244.702 128.539 627.428
-244.245 129.422 626.256
-243.336 130.059 623.926
-243.11 131.056 623.346
-242.434 131.806 621.613
-241.316 132.308 618.746
-240.429 132.927 616.471
-240.208 133.909 615.905
-239.768 134.766 614.776
-238.674 135.249 611.971
-237.806 135.85 609.746
-237.375 136.695 608.639
-237.375 137.786 608.639
-235.24 137.629 603.166
-234.397 138.213 601.004
-234.187 139.166 600.466
-234.187 140.243 600.466
-233.977 141.193 599.929
-233.977 142.269 599.929
-233.977 143.345 599.929
-232.936 143.778 597.258
-232.936 144.848 597.258
-229.261 143.617 587.836
-228.66 144.292 586.294
-227.863 144.837 584.251
-227.269 145.504 582.728
-226.286 145.916 580.208
-226.091 146.829 579.706
-225.118 147.232 577.212
-224.924 148.14 576.716
-224.538 148.918 575.726
-224.153 149.693 574.739
-223.197 150.081 572.287
-223.197 151.107 572.287
-222.06 151.358 569.372
-221.684 152.121 568.407
-221.684 153.14 568.407
-221.684 154.159 568.407
-217.265 154.083 557.077
-217.084 154.953 556.615
-216.725 155.693 555.692
-216.187 156.301 554.314
-215.831 157.035 553.4
-215.831 158.028 553.4
-214.944 158.367 551.126
-214.415 158.963 549.771
-213.54 159.296 547.527
-213.366 160.147 547.08
-212.499 160.474 544.858
-211.811 160.928 543.093
-211.469 161.64 542.215
-210.787 162.088 540.468
-210.448 162.795 539.598
-210.11 163.499 538.731
-209.102 163.676 536.147
-208.935 164.506 535.719
-208.602 165.203 534.865
-207.609 165.371 532.318
-206.788 165.668 530.214
-206.299 166.225 528.959
-205.488 166.516 526.882
-204.845 166.937 525.231
-204.684 167.747 524.82
-203.887 168.031 522.775
-203.887 168.968 522.775
-203.253 169.378 521.15
-202.623 169.784 519.536
-202.31 170.452 518.732
-201.221 170.459 515.939
-200.757 170.99 514.751
-200.143 171.387 513.176
-199.837 172.044 512.391
-199.228 172.436 510.831
-199.077 173.22 510.442
-198.774 173.87 509.666
-198.623 174.651 509.279
-198.172 175.166 508.122
-198.022 175.943 507.737
-198.472 177.256 508.893
-197.872 177.63 507.353
-196.386 177.199 503.544
-195.945 177.702 502.412
-195.36 178.069 500.911
-195.068 178.701 500.164
-193.625 178.268 496.462
-194.055 179.557 497.567
-192.911 179.385 494.632
-191.92 179.346 492.091
-191.779 180.096 491.731
-191.498 180.713 491.011
-190.522 180.667 488.507
-190.245 181.279 487.797
-189.969 181.889 487.088
-189.693 182.498 486.382
-189.418 183.104 485.677
-189.144 183.709 484.975
-189.144 184.579 484.975
-189.144 185.449 484.975
-188.735 185.915 483.925
-188.192 186.245 482.533
-187.249 186.173 480.115
-186.448 186.234 478.062
-185.523 186.162 475.688
-185.26 186.75 475.014
-184.998 187.337 474.343
-184.346 187.524 472.671
-351.87 16.659 906.379
-350.922 18.235 903.936
-350.45 19.8291 902.719
-350.45 21.4478 902.719
-350.922 23.0976 903.936
-349.979 24.6521 901.506
-349.979 26.2686 901.506
-348.107 27.736 896.685
-344.423 29.0334 887.196
-343.515 30.5434 884.855
-340.371 31.8361 876.759
-339.927 33.3647 875.614
-337.723 34.7082 869.936
-335.546 36.0344 864.33
-333.826 37.3916 859.898
-331.277 38.6363 853.334
-330.437 40.0645 851.168
-330.437 41.5907 851.168
-329.6 43.0079 849.013
-327.116 44.1946 842.614
-327.116 45.7055 842.614
-327.94 47.3354 844.736
-325.48 48.4837 838.401
-322.257 49.4922 830.1
-320.67 50.7295 826.01
-319.882 52.0824 823.981
-319.882 53.5599 823.981
-318.707 54.8354 820.955
-317.929 56.1699 818.95
-316.769 57.4281 815.962
-314.094 58.3939 809.072
-312.211 59.4859 804.221
-311.092 60.7097 801.339
-310.35 61.9984 799.428
-308.878 63.1309 795.635
-308.147 64.4048 793.752
-306.695 65.518 790.012
-305.974 66.7773 788.156
-304.899 67.951 785.387
-303.125 68.9556 780.815
-302.07 70.1109 778.098
-301.022 71.2581 775.399
-300.328 72.4809 773.611
-299.982 73.783 772.719
-299.636 75.0821 771.83
-299.636 76.4661 771.83
-299.292 77.7606 770.943
-293.887 79.0713 757.021
-291.91 79.8877 751.929
-291.257 81.0543 750.247
-290.607 82.2157 748.572
-289.637 83.2791 746.074
-288.035 84.1489 741.947
-286.451 85.0091 737.866
-284.573 85.7661 733.028
-284.262 86.9855 732.228
-282.412 87.7239 727.462
-281.801 88.8356 725.888
-281.496 90.0398 725.103
-281.801 91.4389 725.888
-281.496 92.6402 725.103
-280.889 93.7378 723.539
-279.382 94.5253 719.657
-277.004 95.0003 713.532
-276.416 96.0754 712.017
-274.957 96.8381 708.258
-274.667 98.0046 707.511
-273.8 98.9601 705.279
-272.084 99.5964 700.857
-271.8 100.748 700.126
-270.108 101.368 695.768
-268.437 101.981 691.464
-267.885 103.009 690.042
-267.335 104.032 688.625
-267.335 105.267 688.625
-266.514 106.175 686.51
-266.514 107.406 686.51
-267.335 108.971 688.625
-266.787 109.98 687.214
-265.969 110.872 685.108
-259.605 109.418 668.714
-259.347 110.507 668.048
-259.347 111.705 668.048
-259.089 112.79 667.384
-258.831 113.874 666.72
-257.551 114.5 663.423
-255.78 114.894 658.861
-255.278 115.848 657.569
-254.53 116.684 655.641
-253.786 117.515 653.724
-253.046 118.341 651.818
-251.822 118.932 648.666
-251.094 119.748 646.789
-250.61 120.675 645.544
-249.41 122.401 642.452
-248.933 123.317 641.224
-247.749 123.874 638.174
-247.278 124.781 636.961
-246.11 125.328 633.951
-245.414 126.108 632.159
-244.722 126.882 630.376
-243.805 127.533 628.015
-243.122 128.299 626.256
-242.669 129.181 625.089
-242.218 130.059 623.926
-241.993 131.056 623.346
-241.544 131.929 622.19
-240.428 132.43 619.317
-239.985 133.294 618.175
-239.985 134.403 618.175
-239.324 135.138 616.471
-238.011 135.496 613.09
-236.713 135.85 609.746
-235.429 136.201 606.438
-235.004 137.04 605.343
-234.792 138.001 604.797
-233.738 138.461 602.083
-233.528 139.416 601.543
-233.528 140.494 601.543
-233.319 141.446 601.004
-232.902 142.269 599.929
-232.902 143.345 599.929
-231.658 143.65 596.726
-228.207 143.617 587.836
-227.608 144.292 586.294
-227.013 144.963 584.761
-226.815 145.885 584.251
-225.636 146.168 581.214
-225.051 146.829 579.706
-223.89 147.106 576.716
-223.89 148.14 576.716
-223.506 148.918 575.726
-222.741 149.437 573.756
-221.792 149.825 571.312
-221.603 150.721 570.826
-220.664 151.102 568.407
-220.478 151.992 567.926
-220.478 153.01 567.926
-217.712 153.103 560.803
-216.987 153.595 558.934
-216.266 154.083 557.077
-216.086 154.953 556.615
-215.907 155.822 556.153
-215.371 156.43 554.773
-214.838 157.035 553.4
-214.838 158.028 553.4
-214.484 158.758 552.488
-213.43 158.963 549.771
-213.08 159.687 548.871
-212.385 160.147 547.08
-211.008 160.084 543.534
-210.667 160.798 542.654
-210.326 161.509 541.777
-209.818 162.088 540.468
-209.48 162.795 539.598
-208.307 162.845 536.576
-207.974 163.546 535.719
-207.974 164.506 535.719
-207.312 164.94 534.013
-206.327 165.109 531.474
-205.512 165.407 529.377
-205.35 166.225 528.959
-204.544 166.516 526.882
-203.903 166.937 525.231
-203.743 167.747 524.82
-203.108 168.162 523.183
-203.425 169.364 524
-202.949 169.906 522.775
-201.536 169.653 519.133
-201.224 170.32 518.331
-200.604 170.722 516.734
-200.295 171.384 515.939
-199.528 171.649 513.962
-199.07 172.175 512.783
-198.766 172.83 512
-198.463 173.484 511.22
-198.011 174.002 510.054
-197.71 174.651 509.279
-196.962 174.901 507.353
-196.813 175.677 506.969
-195.63 177.332 503.922
-195.337 177.969 503.166
-194.316 177.936 500.538
-194.316 178.834 500.538
-192.307 177.873 495.362
-192.024 178.498 494.632
-191.741 179.12 493.903
-191.037 179.346 492.091
-190.897 180.096 491.731
-190.478 180.581 490.651
-189.646 180.667 488.507
-189.646 181.543 488.507
-189.233 182.022 487.442
-188.821 182.498 486.382
-188.547 183.104 485.677
-187.732 183.179 483.576
-187.462 183.782 482.88
-187.462 184.647 482.88
-187.327 185.38 482.533
-186.655 185.578 480.803
-186.255 186.04 479.771
-185.459 186.101 477.721
-184.408 185.899 475.014
-184.277 186.618 474.678
-184.017 187.204 474.007
-183.498 187.524 472.671
-350.245 16.659 906.379
-349.301 18.235 903.936
-349.301 19.8559 903.936
-349.301 21.4767 903.936
-349.301 23.0976 903.936
-348.362 24.6521 901.506
-349.301 26.3394 903.936
-346.499 27.736 896.685
-342.38 28.995 886.024
-341.928 30.5434 884.855
-338.357 31.7946 875.614
-337.476 33.2778 873.334
-333.997 34.4846 864.33
-332.284 35.8496 859.898
-330.588 37.2008 855.511
-328.91 38.5382 851.168
-328.91 40.0645 851.168
-328.493 41.538 850.089
-328.078 43.0079 849.013
-326.014 44.2502 843.673
-325.605 45.7055 842.614
-325.605 47.2165 842.614
-318.405 49.1274 823.981
-318.405 50.6049 823.981
-316.461 51.7645 818.95
-316.848 53.298 819.952
-316.075 54.6347 817.952
-315.306 55.9649 815.962
-313.021 57.0119 810.049
-311.516 58.1834 806.154
-310.026 59.3436 802.297
-309.286 60.6372 800.382
-308.182 61.851 797.527
-307.451 63.1309 795.635
-307.087 64.4811 794.692
-306.723 65.8281 793.752
-303.847 66.6207 786.308
-301.725 68.9556 780.815
-300.674 70.1109 778.098
-299.286 71.1758 774.504
-298.596 72.3974 772.719
-298.252 73.6981 771.83
-297.91 74.9958 770.943
-297.91 76.3782 770.943
-290.562 77.1911 751.929
-290.562 78.5394 751.929
-290.237 79.7983 751.087
-289.265 80.8734 748.572
-288.942 82.124 747.737
-287.979 83.1866 745.245
-287.341 84.3355 743.593
-285.757 85.1966 739.493
-283.568 85.86 733.83
-282.949 86.9855 732.228
-280.803 87.6288 726.674
-280.803 88.9319 726.674
-281.108 90.3328 727.462
-280.803 91.5379 726.674
-280.499 92.7405 725.888
-280.196 93.9404 725.103
-278.39 94.6269 720.43
-276.903 95.4063 716.582
-275.139 96.0754 712.017
-273.398 96.736 707.511
-273.11 97.9014 706.765
-271.394 98.5456 702.325
-271.11 99.7006 701.59
-270.262 100.643 699.396
-268.86 101.368 695.768
-268.026 102.298 693.609
-266.647 103.009 690.042
-266.1 104.032 688.625
-265.827 105.159 687.918
-265.283 106.175 686.51
-265.283 107.406 686.51
-265.827 108.86 687.918
-265.012 109.755 685.808
-259.181 108.543 670.72
-258.149 109.309 668.048
-258.406 110.617 668.714
-258.149 111.705 668.048
-257.892 112.79 667.384
-256.615 113.423 664.08
-256.108 114.387 662.767
-255.603 115.347 661.46
-254.849 116.19 659.509
-254.099 117.027 657.569
-254.099 118.206 657.569
-253.107 118.919 655
-250.659 118.932 648.666
-249.693 119.633 646.166
-248.973 120.443 644.304
-248.258 121.249 642.452
-248.02 122.284 641.838
-247.783 123.317 641.224
-246.839 123.992 638.781
-246.37 124.9 637.567
-246.136 125.923 636.961
-245.205 126.585 634.551
-244.28 127.241 632.159
-242.679 127.533 628.015
-242.226 128.419 626.842
-241.999 129.422 626.256
-241.099 130.059 623.926
-240.875 131.056 623.346
-240.428 131.929 622.19
-239.539 132.552 619.889
-239.097 133.417 618.746
-238.877 134.403 618.175
-238.877 135.511 618.175
-236.049 136.098 610.857
-234.553 136.324 606.987
-234.13 137.164 605.89
-233.918 138.126 605.343
-232.45 138.337 601.543
-232.033 139.166 600.466
-232.033 140.243 600.466
-231.826 141.193 599.929
-231.412 142.015 598.858
-231.412 143.089 598.858
-230.794 143.778 597.258
-227.752 143.996 589.385
-227.153 144.672 587.836
-226.359 145.217 585.782
-226.162 146.139 585.271
-225.375 146.677 583.235
-224.012 146.829 579.706
-222.856 147.106 576.716
-222.856 148.14 576.716
-222.473 148.918 575.726
-221.902 149.565 574.247
-220.956 149.953 571.799
-220.018 150.337 569.372
-219.459 150.974 567.926
-219.088 151.735 566.966
-218.534 152.365 565.532
-218.166 153.121 564.579
-216.707 153.103 560.803
-216.526 153.979 560.335
-215.446 154.211 557.54
-215.088 154.953 556.615
-214.554 155.564 555.232
-214.199 156.301 554.314
-214.023 157.165 553.857
-213.846 158.028 553.4
-213.494 158.758 552.488
-212.444 158.963 549.771
-210.888 158.778 545.745
-211.06 159.886 546.189
-209.694 159.825 542.654
-209.524 160.668 542.215
-209.017 161.249 540.904
-208.345 161.697 539.164
-208.011 162.403 538.299
-207.179 162.715 536.147
-207.014 163.546 535.719
-204.563 164.457 529.377
-204.402 165.276 528.959
-203.599 165.572 526.882
-203.279 166.255 526.055
-202.961 166.937 525.231
-202.644 167.616 524.41
-202.012 168.031 522.775
-201.384 168.443 521.15
-200.605 168.722 519.133
-200.45 169.522 518.732
-200.295 170.32 518.331
-199.677 170.722 516.734
-199.524 171.516 516.336
-199.217 172.177 515.542
-198.606 172.571 513.962
-198.151 173.095 512.783
-198 173.881 512.391
-197.396 174.268 510.831
-197.096 174.917 510.054
-196.946 175.698 509.666
-194.581 177.199 503.544
-193.419 177.039 500.538
-191.137 177.611 494.632
-190.996 178.366 494.267
-190.434 178.726 492.814
-190.155 179.346 492.091
-190.155 180.228 492.091
-190.016 180.978 491.731
-189.46 181.328 490.293
-190.016 182.741 491.731
-188.222 181.889 487.088
-187.813 182.366 486.029
-187.677 183.104 485.677
-186.73 183.047 483.228
-186.596 183.782 482.88
-186.327 184.382 482.186
-186.193 185.113 481.839
-185.793 185.578 480.803
-185.527 186.173 480.115
-184.34 185.836 477.042
-183.556 185.899 475.014
-183.426 186.618 474.678
-183.167 187.204 474.007
-182.78 187.656 473.005
-350.514 16.7495 911.305
-348.149 18.2596 905.156
-348.149 19.8827 905.156
-347.68 21.4767 903.936
-347.68 23.0976 903.936
-346.746 24.6521 901.506
-347.68 26.3394 903.936
-343.057 27.5885 891.915
-341.242 29.0334 887.196
-339.446 30.4631 882.527
-335.91 31.7118 873.334
-333.737 33.0625 867.685
-332.447 34.4846 864.33
-330.742 35.8496 859.898
-330.742 37.3916 859.898
-328.217 38.6363 853.334
-328.217 40.1664 853.334
-327.384 41.5907 851.168
-327.384 43.117 851.168
-325.731 44.4178 846.869
-327.384 46.1695 851.168
-325.731 47.4549 846.869
-317.708 47.7672 826.01
-317.708 49.2484 826.01
-317.317 50.6671 824.994
-315.377 51.8277 819.952
-315.377 53.298 819.952
-314.608 54.6347 817.952
-313.081 55.8291 813.981
-311.568 57.0119 810.049
-310.818 58.3236 808.097
-309.327 59.4859 804.221
-308.587 60.7823 802.297
-308.218 62.1466 801.339
-306.388 63.2059 796.58
-304.939 64.3287 792.814
-300.674 66.2325 781.725
-299.627 67.3986 779.002
-299.279 68.7156 778.098
-297.553 69.7065 773.611
-297.553 71.0937 773.611
-297.553 72.4809 773.611
-297.21 73.783 772.719
-295.847 74.8238 769.175
-294.833 75.9418 766.538
-289.214 77.1911 751.929
-289.214 78.5394 751.929
-288.244 79.6199 749.408
-287.281 80.6932 746.905
-287.281 82.0326 746.905
-286.643 83.1866 745.245
-281.944 84.4517 733.028
-281.329 85.5791 731.429
-280.717 86.7015 729.837
-279.803 87.7239 727.462
-279.5 88.9319 726.674
-279.5 90.2349 726.674
-279.198 91.4389 725.888
-278.896 92.6402 725.103
-277.396 93.4354 721.205
-277.098 94.6269 720.43
-274.445 95.0003 713.532
-273.572 95.9735 711.262
-272.417 96.8381 708.258
-271.556 97.7983 706.021
-270.135 98.5456 702.325
-269.852 99.7006 701.59
-269.289 100.748 700.126
-267.891 101.474 696.491
-267.335 102.51 695.047
-265.683 103.115 690.752
-264.865 104.032 688.625
-264.594 105.159 687.918
-264.052 106.175 686.51
-263.782 107.296 685.808
-263.512 108.415 685.108
-258.755 107.664 672.739
-257.979 108.543 670.72
-257.207 109.418 668.714
-256.951 110.507 668.048
-256.951 111.705 668.048
-256.951 112.903 668.048
-256.951 114.101 668.048
-256.44 115.069 666.72
-254.668 115.461 662.113
-253.916 116.304 660.158
-253.168 117.142 658.214
-253.168 118.322 658.214
-252.425 119.152 656.282
-249.496 118.932 648.666
-248.534 119.633 646.166
-248.056 120.559 644.923
-247.343 121.365 643.068
-246.87 122.284 641.838
-246.398 123.199 640.612
-245.227 123.757 637.567
-244.994 124.781 636.961
-244.298 125.566 635.152
-243.376 126.227 632.755
-242.689 127.002 630.969
-241.553 127.533 628.015
-239.757 127.703 623.346
-239.757 128.821 623.346
-239.312 129.697 622.19
-239.534 130.934 622.767
-239.091 131.806 621.613
-238.648 132.675 620.463
-238.428 133.664 619.889
-238.207 134.651 619.317
-237.988 135.636 618.746
-237.988 136.746 618.746
-234.1 135.604 608.639
-233.254 136.201 606.438
-233.043 137.164 605.89
-233.043 138.25 605.89
-232.623 139.086 604.797
-231.164 139.291 601.004
-231.164 140.369 601.004
-230.957 141.32 600.466
-230.75 142.269 599.929
-230.957 143.473 600.466
-230.75 144.421 599.929
-229.723 144.848 597.258
-226.695 143.996 589.385
-225.901 144.545 587.321
-225.112 145.09 585.271
-224.916 146.012 584.761
-224.329 146.677 583.235
-223.165 146.956 580.208
-222.395 147.486 578.207
-221.822 148.14 576.716
-221.631 149.046 576.22
-221.061 149.693 574.739
-219.743 149.825 571.312
-218.811 150.21 568.889
-218.441 150.974 567.926
-218.072 151.735 566.966
-217.887 152.623 566.487
-216.063 153.359 561.742
-215.521 153.979 560.335
-214.446 154.211 557.54
-214.09 154.953 556.615
-213.558 155.564 555.232
-213.205 156.301 554.314
-212.854 157.035 553.4
-212.678 157.897 552.943
-210.767 158.444 547.974
-210.252 159.036 546.634
-210.252 160.017 546.634
-208.721 159.825 542.654
-208.552 160.668 542.215
-207.88 161.119 540.468
-207.378 161.697 539.164
-207.378 162.664 539.164
-206.218 162.715 536.147
-206.053 163.546 535.719
-203.453 164.328 528.959
-203.133 165.016 528.126
-202.336 165.312 526.055
-202.178 166.125 525.643
-202.019 166.937 525.231
-201.703 167.616 524.41
-201.075 168.031 522.775
-200.139 168.182 520.342
-199.829 168.853 519.536
-199.674 169.653 519.133
-199.519 170.452 518.732
-198.904 170.854 517.132
-198.751 171.648 516.734
-198.445 172.31 515.939
-197.988 172.836 514.751
-197.382 173.227 513.176
-197.231 174.014 512.783
-196.48 174.268 510.831
-196.032 174.784 509.666
-193.387 176.032 502.789
-193.387 176.934 502.789
-192.665 177.171 500.911
-190.39 177.742 494.997
-190.25 178.498 494.632
-189.83 178.989 493.54
-189.412 179.477 492.453
-189.273 180.228 492.091
-189.134 180.978 491.731
-188.581 181.328 490.293
-186.941 181.494 486.029
-186.266 182.576 484.275
-185.864 183.047 483.228
-185.73 183.782 482.88
-185.596 184.515 482.533
-185.064 184.848 481.148
-184.798 185.445 480.459
-184.139 185.641 478.744
-183.484 185.836 477.042
-182.704 185.899 475.014
-182.704 186.75 475.014
-182.575 187.469 474.678
-182.317 188.054 474.007
-348.88 16.7495 911.305
-346.995 18.2843 906.379
-346.059 19.8559 903.936
-346.059 21.4767 903.936
-346.059 23.0976 903.936
-345.129 24.6521 901.506
-346.995 26.4106 906.379
-339.651 27.4425 887.196
-337.863 28.8806 882.527
-336.094 30.3036 877.906
-333.475 31.6294 871.065
-332.611 33.1053 868.809
-332.611 34.6632 868.809
-330.897 36.0344 864.33
-329.623 37.4396 861.002
-326.687 38.6363 853.334
-327.52 40.2689 855.511
-325.858 41.5907 851.168
-325.858 43.117 851.168
-323.395 44.3059 844.736
-324.212 47.4549 846.869
-315.45 47.6499 823.981
-316.227 49.2484 826.01
-315.838 50.6671 824.994
-313.524 51.7645 818.95
-313.524 53.233 818.95
-312.379 54.5018 815.962
-309.742 55.4924 809.072
-309.369 56.8746 808.097
-308.996 58.2534 807.124
-307.885 59.4859 804.221
-307.516 60.8551 803.258
-306.781 62.1466 801.339
-304.96 63.2059 796.58
-302.802 64.177 790.944
-298.924 64.7553 780.815
-297.884 65.9251 778.098
-297.194 67.1645 776.297
-296.508 68.3982 774.504
-295.825 69.6262 772.719
-295.825 71.0118 772.719
-296.166 72.4809 773.611
-295.825 73.783 772.719
-293.458 74.5673 766.538
-293.458 75.9418 766.538
-287.865 77.1911 751.929
-287.543 78.4514 751.087
-286.261 79.4424 747.737
-285.624 80.6035 746.074
-285.624 81.9413 746.074
-284.99 83.0943 744.418
-280.629 85.7661 733.028
-279.104 86.6073 729.044
-277.296 87.3449 724.32
-277.296 88.6437 724.32
-277.596 90.0398 725.103
-277.296 91.2414 724.32
-277.296 92.5402 724.32
-276.4 93.536 721.981
-275.807 94.6269 720.43
-275.215 95.7131 718.886
-271.147 96.8381 708.258
-269.723 97.5928 704.538
-268.875 98.5456 702.325
-268.594 99.7006 701.59
-268.313 100.853 700.857
-266.919 101.579 697.215
-266.365 102.616 695.768
-264.717 103.221 691.464
-264.173 104.246 690.042
-263.901 105.375 689.332
-263.63 106.502 688.625
-262.552 107.296 685.808
-262.016 108.304 684.409
-258.066 109.089 674.091
-257.549 110.076 672.739
-256.008 110.617 668.714
-255.753 111.705 668.048
-255.753 112.903 668.048
-255.753 114.101 668.048
-255.498 115.184 667.384
-253.731 115.575 662.767
-252.236 117.257 658.861
-251.988 118.322 658.214
-251.495 119.269 656.925
-250.758 120.094 655
-248.093 119.979 648.039
-247.853 121.024 647.414
-247.614 122.067 646.789
-245.719 122.284 641.838
-244.782 122.964 639.39
-244.084 123.757 637.567
-242.699 124.192 633.951
-242.013 124.974 632.159
-241.558 125.87 630.969
-240.878 126.644 629.194
-239.753 127.176 626.256
-238.418 127.584 622.767
-238.418 128.701 622.767
-237.756 129.457 621.037
-237.976 130.692 621.613
-237.536 131.562 620.463
-237.536 132.675 620.463
-236.878 133.417 618.746
-236.878 134.527 618.746
-236.442 135.387 617.606
-232.798 135.481 608.087
-232.166 136.201 606.438
-232.166 137.288 606.438
-231.747 138.126 605.343
-231.538 139.086 604.797
-230.292 139.416 601.543
-230.292 140.494 601.543
-230.086 141.446 601.004
-229.88 142.396 600.466
-229.88 143.473 600.466
-229.469 144.291 599.393
-228.652 144.848 597.258
-225.836 144.123 589.904
-225.045 144.672 587.836
-225.045 145.726 587.836
-224.454 146.395 586.294
-223.672 146.932 584.251
-222.509 147.211 581.214
-221.741 147.741 579.206
-220.978 148.267 577.212
-220.598 149.046 576.22
-219.842 149.565 574.247
-218.719 149.825 571.312
-217.791 150.21 568.889
-217.422 150.974 567.926
-217.055 151.735 566.966
-216.506 152.365 565.532
-216.141 153.121 564.579
-215.236 153.488 562.213
-214.696 154.108 560.803
-213.446 154.211 557.54
-213.092 154.953 556.615
-212.387 155.436 554.773
-212.036 156.172 553.857
-211.861 157.035 553.4
-211.861 158.028 553.4
-211.687 158.889 552.943
-209.442 158.185 547.08
-209.271 159.036 546.634
-209.101 159.886 546.189
-207.916 159.954 543.093
-207.748 160.798 542.654
-207.58 161.64 542.215
-207.245 162.35 541.34
-206.744 162.926 540.033
-205.75 163.106 537.436
-204.929 163.415 535.292
-202.985 163.767 530.214
-202.505 164.328 528.959
-202.345 165.146 528.542
-201.868 165.702 527.296
-201.393 166.255 526.055
-201.235 167.068 525.643
-200.92 167.747 524.82
-200.137 168.031 522.775
-199.206 168.182 520.342
-198.897 168.853 519.536
-198.743 169.653 519.133
-198.589 170.452 518.732
-197.824 171.648 516.734
-197.368 172.177 515.542
-196.462 172.307 513.176
-196.312 173.095 512.783
-195.267 174.002 510.054
-192.486 175.13 502.789
-192.342 175.9 502.412
-192.198 176.669 502.036
-191.767 177.171 500.911
-191.624 177.936 500.538
-191.338 178.567 499.792
-189.503 178.629 494.997
-189.223 179.252 494.267
-189.084 180.006 493.903
-188.529 180.361 492.453
-188.39 181.111 492.091
-188.529 182.127 492.453
-185.935 180.492 485.677
-185.398 180.839 484.275
-185.264 181.576 483.925
-185.13 182.312 483.576
-184.997 183.047 483.228
-184.864 183.782 482.88
-184.598 184.382 482.186
-184.069 184.715 480.803
-183.937 185.445 480.459
-183.28 185.641 478.744
-182.499 185.704 476.703
-181.853 185.899 475.014
-181.982 186.883 475.351
-181.853 187.602 475.014
-181.724 188.321 474.678
-347.246 15.1154 911.305
-347.246 16.7495 911.305
-344.903 18.2596 905.156
-344.438 19.8559 903.936
-342.591 21.3616 899.089
-342.591 22.9738 899.089
-341.675 24.5202 896.685
-341.675 26.1281 896.685
-337.613 27.4063 886.024
-335.398 28.8048 880.211
-334.958 30.3433 879.057
-333.647 31.7946 875.614
-331.053 33.1053 868.809
-330.198 34.5737 866.564
-327.658 35.8496 859.898
-326.82 37.2959 857.699
-325.986 38.7348 855.511
-325.157 40.1664 853.334
-323.51 41.4855 849.013
-322.693 42.8993 846.869
-321.072 44.1946 842.614
-321.072 45.7055 842.614
-321.072 47.2165 842.614
-314.745 47.7672 826.01
-314.358 49.1878 824.994
-313.203 50.4809 821.961
-311.675 51.7013 817.952
-311.675 53.168 817.952
-310.162 54.3695 813.981
-309.037 55.6266 811.028
-308.291 56.9432 809.072
-307.92 58.3236 808.097
-306.076 59.4147 803.258
-306.076 60.8551 803.258
-304.98 62.0724 800.382
-302.812 63.0561 794.692
-301.384 64.177 790.944
-299.266 65.1344 785.387
-297.871 66.2325 781.725
-297.178 67.4769 779.907
-296.833 68.7954 779.002
-295.119 69.787 774.504
-294.439 71.0118 772.719
-294.439 72.3974 772.719
-293.762 73.6134 770.943
-291.75 74.4821 765.663
-291.75 75.8551 765.663
-287.808 77.5388 755.316
-286.196 78.4514 751.087
-284.603 79.3539 746.905
-283.97 80.5139 745.245
-284.286 81.9413 746.074
-283.655 83.0943 744.418
-277.797 83.9927 729.044
-276.594 84.9308 725.888
-275.997 86.0461 724.32
-276.594 87.534 725.888
-276.295 88.7396 725.103
-276.295 90.0398 725.103
-276.295 91.34 725.103
-276.295 92.6402 725.103
-275.997 93.839 724.32
-275.699 95.0352 723.539
-275.402 96.2288 722.759
-274.515 97.2105 720.43
-268.459 96.3295 704.538
-267.896 97.3883 703.061
-267.336 98.4426 701.59
-267.057 99.5964 700.857
-267.057 100.853 700.857
-266.778 102.003 700.126
-265.117 102.616 695.768
-262.935 103.009 690.042
-262.396 104.032 688.625
-262.396 105.267 688.625
-261.59 106.175 686.51
-261.055 107.186 685.108
-260.789 108.304 684.409
-260.258 109.308 683.015
-257.634 109.419 676.129
-256.858 110.298 674.091
-256.085 111.171 672.065
-255.573 112.152 670.72
-254.809 113.015 668.714
-254.555 114.101 668.048
-253.545 114.841 665.397
-252.543 115.575 662.767
-252.543 116.764 662.767
-252.045 117.72 661.46
-251.548 118.672 660.158
-252.293 120.21 662.113
-252.543 121.518 662.767
-246.931 119.979 648.039
-246.692 121.024 647.414
-246.217 121.95 646.166
-244.802 122.401 642.452
-243.868 123.081 640
-242.94 123.757 637.567
-241.563 124.192 633.951
-240.88 124.974 632.159
-240.653 125.989 631.564
-239.525 126.526 628.604
-238.186 126.939 625.089
-237.301 127.584 622.767
-237.301 128.701 622.767
-236.861 129.577 621.613
-237.081 130.813 622.19
-236.423 131.562 620.463
-236.423 132.675 620.463
-235.551 133.294 618.175
-235.551 134.403 618.175
-234.471 134.89 615.34
-230.662 134.869 605.343
-230.662 135.955 605.343
-230.662 137.04 605.343
-230.454 138.001 604.797
-229.419 138.461 602.083
-229.008 139.291 601.004
-228.803 140.243 600.466
-228.599 141.193 599.929
-228.599 142.269 599.929
-228.599 144.421 599.929
-227.784 144.978 597.79
-224.187 143.743 588.351
-223.794 144.545 587.321
-223.599 145.471 586.807
-223.208 146.267 585.782
-222.819 147.06 584.761
-221.276 147.083 580.71
-220.893 147.868 579.706
-220.512 148.651 578.706
-219.753 149.174 576.716
-219.565 150.079 576.22
-218.252 150.209 572.776
-216.588 150.082 568.407
-216.038 150.718 566.966
-215.492 151.351 565.532
-215.31 152.237 565.055
-214.948 152.992 564.105
-214.048 153.359 561.742
-213.69 154.108 560.803
-212.447 154.211 557.54
-211.918 154.825 556.153
-211.043 155.179 553.857
-210.869 156.043 553.4
-210.695 156.906 552.943
-210.695 157.897 552.943
-210.522 158.758 552.488
-209.315 158.833 549.321
-209.143 159.687 548.871
-208.802 160.409 547.974
-206.607 159.695 542.215
-206.44 160.538 541.777
-205.941 161.119 540.468
-205.61 161.827 539.598
-205.28 162.533 538.731
-204.459 162.845 536.576
-204.132 163.546 535.719
-203.969 164.375 535.292
-201.715 164.457 529.377
-201.556 165.276 528.959
-201.397 166.094 528.542
-201.239 166.91 528.126
-200.765 167.461 526.882
-199.979 167.747 524.82
-199.045 167.9 522.368
-198.581 168.443 521.15
-197.965 168.853 519.536
-197.659 169.522 518.732
-197.659 170.452 518.732
-195.692 171.518 513.568
-195.392 172.175 512.783
-194.945 172.699 511.61
-194.352 173.088 510.054
-194.205 173.87 509.666
-194.057 174.651 509.279
-191.441 174.098 502.412
-191.441 174.999 502.412
-191.441 175.9 502.412
-191.441 176.801 502.412
-191.441 177.702 502.412
-191.441 178.603 502.412
-190.726 178.834 500.538
-188.476 177.611 494.632
-188.06 178.104 493.54
-187.783 178.726 492.814
-187.646 179.477 492.453
-187.508 180.228 492.091
-187.37 180.978 491.731
-186.142 180.667 488.507
-185.198 180.623 486.029
-184.796 181.1 484.975
-184.396 181.576 483.925
-184.263 182.312 483.576
-184.131 183.047 483.228
-183.998 183.782 482.88
-183.601 184.249 481.839
-183.075 184.583 480.459
-182.944 185.312 480.115
-182.552 185.774 479.086
-182.032 186.101 477.721
-181.903 186.825 477.381
-181.644 187.414 476.703
-180.362 187.789 473.338
-344.209 16.6815 907.605
-344.209 18.309 907.605
-343.28 19.8827 905.156
-341.896 21.419 901.506
-340.979 22.9738 899.089
-339.614 24.4875 895.488
-338.259 25.9891 891.915
-335.581 27.3701 884.855
-333.82 28.8048 880.211
-333.382 30.3433 879.057
-332.076 31.7946 875.614
-329.923 33.1483 869.936
-329.069 34.6184 867.685
-326.954 35.9418 862.109
-325.699 37.3437 858.797
-325.282 38.8339 857.699
-323.627 40.1664 853.334
-323.215 41.6436 852.25
-322.805 43.117 851.168
-320.366 44.3059 844.736
-321.175 45.9364 846.869
-322.805 47.6958 851.168
-312.879 49.1878 824.994
-312.495 50.6049 823.981
-310.208 51.7013 817.952
-310.208 53.168 817.952
-308.702 54.3695 813.981
-307.582 55.6266 811.028
-307.211 57.0119 810.049
-305.734 58.1834 806.154
-304.271 59.3436 802.297
-304.271 60.7823 802.297
-304.271 62.2209 802.297
-302.822 63.3564 798.477
-301.03 64.4048 793.752
-299.259 65.4409 789.083
-297.858 66.5427 785.387
-295.78 67.4769 779.907
-295.093 68.7156 778.098
-293.392 69.7065 773.611
-292.716 70.9301 771.83
-292.716 72.3141 771.83
-292.716 73.6981 771.83
-290.709 74.5673 766.538
-290.709 75.9418 766.538
-285.81 76.0132 753.618
-284.849 77.1046 751.087
-284.849 78.4514 751.087
-283.263 79.3539 746.905
-282.948 80.6035 746.074
-282.32 81.7594 744.418
-276.49 82.6855 729.044
-274.995 87.4394 725.103
-274.698 88.6437 724.32
-274.698 89.9426 724.32
-273.811 90.9467 721.981
-274.402 92.4404 723.539
-273.517 93.4354 721.205
-272.93 94.5253 719.657
-267.758 96.5323 706.021
-267.196 97.5928 704.538
-266.357 98.5456 702.325
-266.357 99.805 702.325
-265.8 100.853 700.857
-264.694 101.685 697.94
-263.87 102.616 695.768
-262.238 103.221 691.464
-261.698 104.246 690.042
-261.429 105.375 689.332
-260.893 106.392 687.918
-260.093 107.296 685.808
-259.827 108.415 685.108
-259.297 109.42 683.711
-255.392 111.394 673.414
-253.863 111.928 669.382
-253.61 113.015 668.714
-253.357 114.101 668.048
-252.853 115.069 666.72
-251.603 115.69 663.423
-251.354 116.764 662.767
-250.859 117.72 661.46
-250.611 118.789 660.808
-250.365 119.855 660.158
-249.873 120.801 658.861
-246.244 120.212 649.294
-245.531 121.024 647.414
-245.058 121.95 646.166
-244.118 122.636 643.686
-243.65 123.553 642.452
-240.199 124.074 633.353
-239.746 124.974 632.159
-239.52 125.989 631.564
-238.622 126.644 629.194
-237.952 127.414 627.428
-236.404 127.703 623.346
-236.184 128.701 622.767
-235.747 129.577 621.613
-236.184 130.934 622.767
-235.528 131.684 621.037
-235.093 132.552 619.889
-234.227 133.172 617.606
-234.227 134.279 617.606
-232.94 134.643 614.213
-229.369 135.832 604.797
-229.369 136.917 604.797
-228.956 137.753 603.709
-228.545 138.586 602.624
-228.135 139.416 601.543
-227.117 139.867 598.858
-221.964 141.941 585.271
-222.352 143.241 586.294
-222.158 144.166 585.782
-222.158 145.217 585.782
-221.77 146.012 584.761
-221.577 146.932 584.251
-220.425 147.211 581.214
-220.044 147.996 580.208
-219.664 148.779 579.206
-219.096 149.431 577.709
-218.719 150.208 576.716
-217.411 150.337 573.265
-215.568 150.082 568.407
-214.478 150.337 565.532
-214.297 151.224 565.055
-214.117 152.109 564.579
-213.937 152.992 564.105
-213.041 153.359 561.742
-212.862 154.237 561.272
-211.447 154.211 557.54
-211.096 154.953 556.615
-209.877 155.051 553.4
-209.877 156.043 553.4
-209.704 156.906 552.943
-209.704 157.897 552.943
-209.186 158.497 551.579
-207.649 158.314 547.527
-206.974 158.778 545.745
-206.302 159.238 543.974
-205.801 159.825 542.654
-205.635 160.668 542.215
-205.138 161.249 540.904
-204.642 161.827 539.598
-203.986 162.273 537.867
-203.496 162.845 536.576
-203.334 163.676 536.147
-203.171 164.506 535.719
-200.766 164.457 529.377
-200.45 165.146 528.542
-199.35 166.125 525.643
-199.038 166.806 524.82
-198.417 167.224 523.183
-198.108 167.9 522.368
-197.646 168.443 521.15
-196.881 168.722 519.133
-196.577 169.391 518.331
-196.425 170.189 517.931
-193.585 171.389 510.442
-193.585 172.304 510.442
-193.438 174.002 510.054
-193.144 174.651 509.279
-190.969 173.588 503.544
-190.255 173.838 501.661
-190.255 174.737 501.661
-190.113 175.506 501.286
-190.255 176.537 501.661
-189.971 177.171 500.911
-189.687 177.804 500.164
-185.943 180.449 490.293
-184.997 180.405 487.797
-184.193 180.492 485.677
-183.927 181.1 484.975
-183.529 181.576 483.925
-183.396 182.312 483.576
-183.264 183.047 483.228
-183.132 183.782 482.88
-182.475 183.985 481.148
-182.214 184.583 480.459
-182.083 185.312 480.115
-181.434 185.509 478.403
-181.047 185.969 477.381
-180.918 186.692 477.042
-180.533 187.148 476.026
-343.046 18.3338 908.835
-341.657 19.8827 905.156
-340.279 21.419 901.506
-338.913 22.943 897.885
-337.557 24.4549 894.294
-334.878 25.8516 887.196
-333.995 27.3701 884.855
-331.806 28.767 879.057
-331.372 30.3036 877.906
-331.372 31.8778 877.906
-328.789 33.1913 871.065
-327.938 34.6632 868.809
-326.247 36.0344 864.33
-324.574 37.3916 859.898
-323.744 38.8339 857.699
-323.744 40.3719 857.699
-322.918 41.8029 855.511
-321.279 43.117 851.168
-320.466 44.5303 849.013
-320.466 46.0527 849.013
-321.279 47.6958 851.168
-311.4 49.1878 824.994
-310.255 50.4809 821.961
-308.741 51.7013 817.952
-308.741 53.168 817.952
-307.243 54.3695 813.981
-306.128 55.6266 811.028
-305.389 56.9432 809.072
-303.195 57.9743 803.258
-302.832 59.3436 802.297
-302.471 60.7097 801.339
-302.471 62.1466 801.339
-300.674 63.2059 796.58
-299.253 64.3287 792.814
-297.495 65.364 788.156
-294.381 66.0784 779.907
-293.698 67.3204 778.098
-292.342 68.3982 774.504
-291.668 69.6262 772.719
-291.332 70.9301 771.83
-290.663 72.148 770.058
-290.33 73.4445 769.175
-284.458 74.6618 753.618
-284.139 75.9279 752.773
-283.82 77.1911 751.929
-283.186 78.3637 750.247
-281.611 79.2657 746.074
-280.985 80.4246 744.418
-279.435 81.3082 740.31
-276.989 81.9124 733.83
-276.384 83.0465 732.228
-273.695 87.4394 725.103
-273.399 88.6437 724.32
-273.399 89.9426 724.32
-272.81 91.0447 722.759
-273.104 92.4404 723.539
-271.931 93.335 720.43
-271.348 94.424 718.886
-267.337 96.8381 708.258
-266.773 97.9014 706.765
-266.492 99.0643 706.021
-265.933 100.12 704.538
-264.82 100.959 701.59
-264.267 102.003 700.126
-262.622 102.616 695.768
-260.729 103.115 690.752
-259.926 104.032 688.625
-259.926 105.267 688.625
-259.393 106.283 687.214
-258.863 107.296 685.808
-258.335 108.304 684.409
-257.808 109.308 683.015
-255.467 109.529 676.812
-254.185 110.187 673.414
-253.675 111.171 672.065
-252.159 111.705 668.048
-252.159 112.903 668.048
-251.908 113.987 667.384
-250.661 115.804 664.08
-250.413 116.879 663.423
