ply
format ascii 1.0
element vertex 1937
property float x
property float y
property float z
end_header
-166.288 153.979 560.335
-165.872 154.597 558.934
-166.01 155.729 559.4
-165.458 156.211 557.54
-165.184 156.95 556.615
-163.019 156.863 549.321
-162.753 157.59 548.422
-160.911 156.779 542.215
-160.392 157.242 540.468
-160.392 158.211 540.468
-160.134 158.924 539.598
-160.263 160.021 540.033
-160.134 160.86 539.598
-160.134 161.827 539.598
-159.62 162.273 537.867
-158.729 162.326 534.865
-158.225 162.766 533.164
-158.099 163.592 532.741
-157.848 164.286 531.896
-157.473 164.848 530.633
-157.473 165.799 530.633
-157.101 166.356 529.377
-156.606 166.779 527.711
-156.115 167.199 526.055
-155.021 166.963 522.368
-154.3 167.119 519.938
-154.061 167.791 519.133
-153.942 168.592 518.732
-153.823 169.391 518.331
-152.995 169.404 515.542
-152.176 169.417 512.783
-151.828 169.946 511.61
-151.366 170.344 510.054
-151.366 171.259 510.054
-151.251 172.042 509.666
-151.136 172.825 509.279
-150.679 173.212 507.737
-150.451 173.859 506.969
-150.224 174.505 506.204
-150.224 175.412 506.204
-149.772 175.789 504.681
-148.431 175.113 500.164
-148.321 175.879 499.792
-147.88 176.25 498.306
-146.789 175.837 494.632
-146.143 175.945 492.453
-145.928 176.569 491.731
-145.928 177.451 491.731
-145.928 178.333 491.731
-145.822 179.083 491.37
-145.289 179.307 489.577
-145.183 180.054 489.22
-144.972 180.667 488.507
-144.237 180.623 486.029
-144.132 181.363 485.677
-144.028 182.102 485.326
-144.028 182.972 485.326
-143.405 183.047 483.228
-142.993 183.385 481.839
-143.405 184.78 483.228
-142.278 184.187 479.428
-141.771 184.388 477.721
-141.168 184.456 475.688
-141.068 185.178 475.351
-140.768 186.486 474.343
-140.371 186.808 473.005
-265.206 21.3616 899.089
-263.09 22.7905 891.915
-261.008 24.1968 884.855
-261.008 25.7834 884.855
-260.321 27.2981 882.527
-259.297 28.767 879.057
-258.958 30.3036 877.906
-258.619 31.8361 876.759
-257.274 33.2345 872.198
-256.94 34.7533 871.065
-256.607 36.2681 869.936
-254.298 37.4877 862.109
-252.352 38.7348 855.511
-251.39 40.1154 852.25
-250.753 41.538 850.089
-249.488 42.8452 845.801
-249.174 44.3059 844.736
-248.236 45.6482 841.556
-248.236 47.1572 841.556
-247.305 48.4837 838.401
-246.074 49.7384 834.229
-244.553 50.9177 829.073
-243.35 52.1465 824.994
-242.753 53.4942 822.97
-242.159 54.8354 820.955
-241.567 56.1699 818.95
-240.102 57.2887 813.981
-238.366 58.3236 808.097
-236.372 59.2727 801.339
-235.528 60.4928 798.477
-234.412 61.6311 794.692
-232.757 62.611 789.083
-231.939 63.8008 786.308
-231.126 64.9822 783.552
-230.319 66.1554 780.815
-230.051 67.4769 779.907
-228.457 68.3982 774.504
-227.668 69.5461 771.83
-227.146 70.7672 770.058
-226.107 71.8182 766.538
-226.107 73.1927 766.538
-225.849 74.4821 765.663
-224.313 75.3391 760.454
-223.805 76.5291 758.734
-222.546 77.4516 754.466
-221.798 78.5394 751.929
-221.55 79.7983 751.087
-221.302 81.0543 750.247
-220.316 82.0326 746.905
-214.349 85.0228 726.674
-214.117 86.2324 725.888
-213.654 87.3449 724.32
-212.279 88.0731 719.657
-212.051 89.2677 718.886
-212.051 90.5568 718.886
-210.248 91.065 712.774
-209.358 91.9523 709.757
-208.916 93.0281 708.258
-208.696 94.1986 707.511
-208.476 95.3667 706.765
-208.476 96.634 706.765
-207.383 97.3883 703.061
-206.517 98.237 700.126
-206.517 99.4925 700.126
-205.659 100.329 697.215
-203.963 100.741 691.464
-203.753 101.876 690.752
-203.334 102.903 689.332
-202.709 103.819 687.214
-202.088 104.729 685.108
-201.881 105.85 684.409
-201.676 106.968 683.711
-200.247 107.427 678.867
-200.044 108.535 678.18
-199.038 109.199 674.769
-198.838 110.298 674.091
-198.439 111.283 672.739
-197.449 111.928 669.382
-196.664 112.678 666.72
-193.207 113.047 655
-192.268 113.666 651.818
-192.081 114.723 651.185
-191.523 115.554 649.294
-191.338 116.606 648.666
-191.523 117.883 649.294
-191.338 118.932 648.666
-191.338 120.095 648.666
-191.709 121.493 649.923
-190.969 122.185 647.414
-189.869 122.636 643.686
-188.423 122.847 638.781
-187.352 123.288 635.152
-186.821 124.074 633.353
-185.074 124.039 627.428
-184.901 125.047 626.842
-184.212 125.701 624.507
-183.87 126.585 623.346
-183.529 127.466 622.19
-183.529 128.582 622.19
-183.699 129.818 622.767
-182.344 129.969 618.175
-181.176 130.237 614.213
-180.844 131.098 613.09
-180.022 131.596 610.301
-179.858 132.57 609.746
-179.695 133.542 609.192
-178.882 134.026 606.438
-178.721 134.991 605.89
-178.398 135.832 604.797
-177.757 136.425 602.624
-177.598 137.382 602.083
-177.438 138.337 601.543
-177.121 139.166 600.466
-176.174 139.494 597.258
-174.928 139.57 593.033
-174.619 140.385 591.986
-174.005 140.949 589.904
-173.395 141.509 587.836
-172.789 142.065 585.782
-171.145 143.835 580.208
-170.85 144.625 579.206
-170.115 145.037 576.716
-169.969 145.946 576.22
-169.823 146.853 575.726
-169.823 147.885 575.726
-169.823 148.918 575.726
-169.242 149.437 573.756
-168.809 150.081 572.287
-166.675 149.197 565.055
-166.395 149.958 564.105
-165.976 150.589 562.685
-165.698 151.344 561.742
-165.56 152.224 561.272
-165.56 153.231 561.272
-165.421 154.108 560.803
-165.007 154.726 559.4
-165.421 156.119 560.803
-164.322 156.081 557.077
-164.05 156.819 556.153
-161.637 157.461 547.974
-159.938 156.779 542.215
-159.294 157.116 540.033
-159.294 158.084 540.033
-159.166 158.924 539.598
-158.911 159.635 538.731
-158.783 160.472 538.299
-158.656 161.308 537.867
-158.148 161.754 536.147
-157.519 162.067 534.013
-157.519 163.025 534.013
-156.894 163.332 531.896
-156.646 164.026 531.053
-156.151 164.457 529.377
-156.028 165.276 528.959
-155.538 165.702 527.296
-155.05 166.125 525.643
-154.204 166.156 522.775
-153.964 166.833 521.961
-153.248 166.99 519.536
-153.13 167.791 519.133
-153.13 168.722 519.133
-152.893 169.391 518.331
-152.071 169.404 515.542
-151.257 169.417 512.783
-151.141 170.206 512.391
-150.796 170.734 511.22
-150.566 171.389 510.442
-150.452 172.173 510.054
-150.452 173.088 510.054
-150.337 173.87 509.666
-150.223 174.651 509.279
-150.109 175.431 508.893
-149.429 175.545 506.586
-149.429 176.453 506.586
-147.315 174.852 499.42
-146.986 175.356 498.306
-145.795 174.821 494.267
-145.473 175.32 493.177
-145.153 175.816 492.091
-144.623 176.053 490.293
-144.94 177.321 491.37
-144.94 178.202 491.37
-144.834 178.952 491.011
-144.412 179.307 489.577
-144.623 180.449 490.293
-144.096 180.667 488.507
-143.158 180.361 485.326
-143.054 181.1 484.975
-143.054 181.97 484.975
-143.158 182.972 485.326
-142.642 183.179 483.576
-142.129 183.385 481.839
-142.129 184.249 481.839
-141.418 184.187 479.428
-140.814 184.257 477.381
-140.215 184.326 475.351
-140.116 185.047 475.014
-139.523 185.96 473.005
-139.229 186.414 472.006
-139.033 186.997 471.343
-262.188 21.2477 894.294
-261.491 22.7905 891.915
-259.764 24.2287 886.024
-259.421 25.7834 884.855
-258.738 27.2981 882.527
-257.721 28.767 879.057
-257.384 30.3036 877.906
-257.047 31.8361 876.759
-255.378 33.1913 871.065
-255.047 34.7082 869.936
-254.387 36.1743 867.685
-251.781 37.3437 858.797
-250.498 38.6855 854.421
-249.544 40.0645 851.168
-249.228 41.538 850.089
-247.659 42.7912 844.736
-247.347 44.2502 843.673
-246.727 45.6482 841.556
-246.727 47.1572 841.556
-245.494 48.4232 837.354
-244.578 49.7384 834.229
-243.972 51.1072 832.159
-242.767 52.3396 828.05
-242.169 53.6919 826.01
-242.169 55.173 826.01
-241.277 56.4456 822.97
-239.223 57.4281 815.962
-236.347 58.1834 806.154
-234.936 59.2727 801.339
-233.54 60.3491 796.58
-232.711 61.5582 793.752
-231.071 62.5374 788.156
-230.799 63.8757 787.231
-230.529 65.2107 786.308
-229.453 66.3098 782.638
-228.919 67.5555 780.815
-227.594 68.5565 776.297
-226.284 69.5461 771.83
-225.248 70.6051 768.294
-224.733 71.8182 766.538
-224.476 73.1092 765.663
-224.22 74.3972 764.79
-223.202 75.4246 761.317
-222.445 76.5291 758.734
-220.203 77.1046 751.087
-213.046 85.0228 726.674
-212.815 86.2324 725.888
-212.355 87.3449 724.32
-211.215 88.1677 720.43
-210.762 89.2677 718.886
-207.646 90.4881 708.258
-207.427 91.6613 707.511
-207.427 92.93 707.511
-207.209 94.0994 706.765
-207.209 95.3667 706.765
-207.209 96.634 706.765
-206.339 97.4904 703.799
-205.691 98.4426 701.59
-205.262 99.4925 700.126
-203.562 99.9136 694.328
-201.89 100.328 688.625
-201.89 101.562 688.625
-201.683 102.692 687.918
-201.064 103.607 685.808
-200.859 104.729 685.108
-200.654 105.85 684.409
-199.838 106.642 681.626
-199.029 107.427 678.867
-198.427 108.316 676.812
-197.629 109.089 674.091
-197.233 110.076 672.739
-196.838 111.06 671.392
-195.858 111.705 668.048
-194.694 112.232 664.08
-193.544 112.753 660.158
-191.285 112.607 652.452
-190.728 113.446 650.553
-189.808 114.059 647.414
-189.808 115.22 647.414
-189.625 116.269 646.789
-189.808 117.542 647.414
-189.808 118.703 647.414
-189.991 119.979 648.039
-190.544 121.493 649.923
-189.625 122.067 646.789
-188.896 122.754 644.304
-186.566 122.381 636.357
-185.686 122.939 633.353
-185.51 123.957 632.755
-184.121 125.281 628.015
-183.605 126.053 626.256
-182.922 126.703 623.926
-182.752 127.703 623.346
-182.582 128.701 622.767
-182.075 129.457 621.037
-181.236 129.969 618.175
-180.239 130.357 614.776
-180.074 131.339 614.213
-179.417 131.957 611.971
-178.927 132.691 610.301
-178.765 133.663 609.746
-178.117 134.269 607.537
-177.634 134.991 605.89
-177.474 135.955 605.343
-177.314 136.917 604.797
-176.995 137.753 603.709
-176.36 138.337 601.543
-175.729 138.917 599.393
-175.103 139.494 597.258
-173.865 139.57 593.033
-173.711 140.51 592.509
-173.252 141.198 590.943
-172.341 141.509 587.836
-171.739 142.065 585.782
-171.29 142.742 584.251
-170.992 143.539 583.235
-170.252 143.959 580.71
-170.105 144.875 580.208
-169.811 145.664 579.206
-169.518 146.449 578.207
-168.936 146.979 576.22
-168.791 147.885 575.726
-168.791 148.918 575.726
-167.926 149.182 572.776
-167.354 149.697 570.826
-165.523 149.072 564.579
-165.245 149.832 563.631
-165.106 150.716 563.157
-164.829 151.471 562.213
-164.829 152.479 562.213
-164.829 153.488 562.213
-164.416 154.108 560.803
-163.731 154.468 558.468
-164.278 155.989 560.335
-163.459 156.211 557.54
-163.323 157.08 557.077
-160.392 157.204 547.08
-158.199 156.989 539.598
-157.818 158.542 538.299
-157.062 158.743 535.719
-157.313 159.959 536.576
-157.313 160.921 536.576
-157.187 161.754 536.147
-156.936 162.455 535.292
-156.811 163.285 534.865
-156.686 164.113 534.439
-155.941 164.286 531.896
-155.202 164.457 529.377
-154.471 164.627 526.882
-154.228 165.312 526.055
-154.107 166.125 525.643
-153.506 166.415 523.591
-153.028 166.833 521.961
-152.435 167.119 519.938
-152.317 167.921 519.536
-152.199 168.722 519.133
-152.081 169.522 518.732
-151.495 169.795 516.734
-151.146 170.328 515.542
-151.262 171.384 515.939
-150.222 171.125 512.391
-149.765 171.52 510.831
-149.651 172.304 510.442
-149.651 173.22 510.442
-149.537 174.002 510.054
-149.537 174.917 510.054
-149.31 175.565 509.279
-148.408 175.412 506.204
-146.747 174.346 500.538
-146.528 174.983 499.792
-146.202 175.487 498.677
-145.984 176.119 497.936
-144.165 174.806 491.731
-144.165 175.687 491.731
-143.849 176.182 490.651
-143.954 177.191 491.011
-143.954 178.071 491.011
-143.954 178.952 491.011
-143.743 179.569 490.293
-143.638 180.317 489.935
-143.324 180.799 488.863
-142.494 180.623 486.029
-142.287 181.231 485.326
-142.184 181.97 484.975
-142.39 183.104 485.677
-141.774 183.179 483.576
-141.468 183.649 482.533
-140.058 183.531 477.721
-139.958 184.257 477.381
-139.462 184.456 475.688
-139.264 185.047 475.014
-139.067 185.636 474.343
-138.577 185.829 472.671
-138.285 186.283 471.674
-137.994 186.735 470.681
-264.822 19.9635 908.835
-260.932 21.276 895.488
-259.891 22.7905 891.915
-258.859 24.2929 888.371
-258.516 25.8516 887.196
-258.175 27.4063 886.024
-256.481 28.8048 880.211
-255.809 30.3036 877.906
-255.475 31.8361 876.759
-253.487 33.1483 869.936
-253.159 34.6632 868.809
-252.504 36.1275 866.564
-250.241 37.3437 858.797
-249.921 38.8339 857.699
-248.333 40.1154 852.25
-248.018 41.5907 851.168
-246.766 42.8993 846.869
-246.144 44.3059 844.736
-245.526 45.7055 842.614
-245.526 47.2165 842.614
-245.218 48.6662 841.556
-244.91 50.1124 840.502
-243.385 51.2981 835.268
-242.781 52.6647 833.193
-240.688 53.6919 826.01
-240.392 55.1051 824.994
-238.922 56.2386 819.952
-234.339 58.0439 804.221
-232.665 59.061 798.477
-231.837 60.2776 795.635
-231.288 61.5582 793.752
-230.198 62.6848 790.012
-229.927 64.026 789.083
-228.851 65.1344 785.387
-227.518 66.1554 780.815
-226.99 67.3986 779.002
-225.679 68.3982 774.504
-224.9 69.5461 771.83
-224.384 70.7672 770.058
-223.358 71.8182 766.538
-223.358 73.1927 766.538
-223.103 74.4821 765.663
-222.849 75.7686 764.79
-221.084 76.5291 758.734
-212.202 85.2074 728.252
-211.972 86.4194 727.462
-211.285 87.4394 725.103
-209.698 88.0731 719.657
-207.032 89.5016 710.509
-206.159 90.3926 707.511
-205.941 91.5647 706.765
-206.159 92.93 707.511
-206.159 94.1986 707.511
-205.941 95.3667 706.765
-205.941 96.634 706.765
-204.648 97.2863 702.325
-204.007 98.237 700.126
-203.582 99.2852 698.667
-201.275 99.3991 690.752
-200.862 100.431 689.332
-200.45 101.458 687.918
-200.45 102.692 687.918
-200.039 103.713 686.51
-199.835 104.836 685.808
-199.631 105.958 685.108
-199.021 106.859 683.015
-198.013 107.536 679.555
-196.816 108.097 675.449
-196.223 108.979 673.414
-195.634 109.856 671.392
-194.854 110.617 668.714
-194.466 111.594 667.384
-193.312 112.121 663.423
-192.93 113.087 662.113
-191.794 113.601 658.214
-190.115 113.777 652.452
-189.012 114.28 648.666
-188.829 115.331 648.039
-188.647 116.381 647.414
-188.647 117.542 647.414
-188.647 118.703 647.414
-188.647 119.863 647.414
-188.647 121.024 647.414
-187.381 121.365 643.068
-186.487 121.934 640
-184.899 122.033 634.551
-184.55 122.939 633.353
-182.995 124.155 628.015
-182.995 125.281 628.015
-182.824 126.289 627.428
-181.803 126.703 623.926
-181.634 127.703 623.346
-181.634 128.821 623.346
-181.634 129.938 623.346
-180.294 130.089 618.746
-178.973 130.237 614.213
-178.809 131.218 613.651
-178.32 131.957 611.971
-177.671 132.57 609.746
-177.51 133.542 609.192
-176.707 134.026 606.438
-176.388 134.869 605.343
-176.229 135.832 604.797
-175.754 136.547 603.166
-175.438 137.382 602.083
-174.967 138.089 600.466
-174.188 138.546 597.79
-173.878 139.37 596.726
-172.649 139.447 592.509
-172.496 140.385 591.986
-172.192 141.198 590.943
-171.437 141.633 588.351
-170.54 141.941 585.271
-170.094 142.618 583.743
-170.094 143.664 583.743
-169.211 143.959 580.71
-167.902 144.913 576.22
-167.902 145.946 576.22
-167.758 146.853 575.726
-167.184 147.379 573.756
-166.756 148.028 572.287
-166.614 148.927 571.799
-166.048 149.443 569.856
-164.51 149.072 564.579
-164.096 149.706 563.157
-163.958 150.589 562.685
-163.821 151.471 562.213
-163.547 152.224 561.272
-163.547 153.231 561.272
-163.137 153.851 559.867
-162.459 154.211 557.54
-162.73 155.469 558.468
-162.19 155.951 556.615
-161.787 156.56 555.232
-161.386 157.165 553.857
-160.855 157.638 552.033
-160.722 158.497 551.579
-160.195 158.963 549.771
-157.105 156.863 539.164
-156.727 158.415 537.867
-156.351 158.997 536.576
-156.476 160.087 537.006
-156.476 161.05 537.006
-156.476 162.013 537.006
-155.604 162.067 534.013
-155.233 162.636 532.741
-155.11 163.462 532.318
-154.619 163.896 530.633
-153.647 163.811 527.296
-153.285 164.369 526.055
-153.285 165.312 526.055
-153.165 166.125 525.643
-153.045 166.937 525.231
-152.092 166.833 521.961
-151.503 167.119 519.938
-151.268 167.791 519.133
-151.151 168.592 518.732
-151.151 169.522 518.732
-150.337 169.534 515.939
-150.106 170.197 515.146
-150.106 171.121 515.146
-149.647 171.518 513.568
-148.962 171.65 511.22
-148.622 172.173 510.054
-148.622 173.088 510.054
-148.509 173.87 509.666
-148.509 174.784 509.666
-148.397 175.565 509.279
-147.724 175.677 506.969
-147.612 176.453 506.586
-145.85 175.244 500.538
-145.632 175.879 499.792
-144.769 175.727 496.83
-144.555 176.357 496.095
-143.916 176.464 493.903
-143.388 176.699 492.091
-143.283 177.451 491.731
-143.283 178.333 491.731
-143.283 179.214 491.731
-142.864 179.569 490.293
-143.073 180.713 491.011
-142.552 180.931 489.22
-141.519 180.492 485.677
-141.417 181.231 485.326
-141.315 181.97 484.975
-141.111 182.576 484.275
-140.704 182.916 482.88
-140.099 182.991 480.803
-139.899 183.59 480.115
-139.4 183.793 478.403
-138.511 184.326 475.351
-138.217 184.785 474.343
-137.827 185.112 473.005
-137.633 185.698 472.338
-137.633 186.545 472.338
-137.536 187.26 472.006
-263.907 20.0177 911.305
-259.327 21.276 895.488
-258.292 22.7905 891.915
-256.925 24.2608 887.196
-256.586 25.8175 886.024
-256.248 27.3701 884.855
-254.568 28.767 879.057
-254.235 30.3036 877.906
-253.571 31.7946 875.614
-251.927 33.1483 869.936
-251.927 34.7082 869.936
-250.95 36.1275 866.564
-248.701 37.3437 858.797
-247.75 38.7348 855.511
-246.805 40.1154 852.25
-246.18 41.538 850.089
-245.247 42.8993 846.869
-244.629 44.3059 844.736
-244.015 45.7055 842.614
-244.322 47.2758 843.673
-243.708 48.6662 841.556
-242.795 49.9871 838.401
-241.287 51.1707 833.193
-239.797 52.3396 828.05
-239.206 53.6919 826.01
-238.912 55.1051 824.994
-237.743 56.3074 820.955
-232.618 57.9743 803.258
-231.785 59.202 800.382
-230.684 60.3491 796.58
-230.41 61.7042 795.635
-230.137 63.0561 794.692
-230.137 64.4811 794.692
-229.051 65.5952 790.944
-223.774 69.6262 772.719
-222.747 70.6861 769.175
-221.73 71.7362 765.663
-221.73 73.1092 765.663
-221.73 74.4821 765.663
-219.972 75.2537 759.593
-219.228 76.3564 757.021
-210.896 85.2074 728.252
-210.668 86.4194 727.462
-209.984 87.4394 725.103
-207.517 87.6967 716.582
-205.758 88.2276 710.509
-205.758 89.5016 710.509
-204.674 90.2974 706.765
-204.674 91.5647 706.765
-204.89 92.93 707.511
-204.674 94.0994 706.765
-203.815 94.9664 703.799
-204.029 96.3295 704.538
-203.388 97.2863 702.325
-202.329 98.0324 698.667
-201.489 98.8732 695.768
-200.657 99.7071 692.893
-199.421 100.328 688.625
-199.216 101.458 687.918
-199.012 102.587 687.214
-198.808 103.713 686.51
-198.402 104.729 685.108
-198.402 105.958 685.108
-197.796 106.859 683.015
-196.794 107.536 679.555
-195.802 108.206 676.129
-194.82 108.87 672.739
-193.848 109.527 669.382
-193.848 110.727 669.382
-193.462 111.705 668.048
-192.313 112.232 664.08
-191.743 113.087 662.113
-190.614 113.601 658.214
-189.129 113.887 653.087
-188.578 114.723 651.185
-187.849 115.443 648.666
-187.486 116.381 647.414
-187.486 117.542 647.414
-187.486 118.703 647.414
-187.667 119.979 648.039
-187.305 120.908 646.789
-186.049 121.249 642.452
-185.871 122.284 641.838
-184.635 122.613 637.567
-184.284 123.522 636.357
-181.869 124.155 628.015
-182.039 125.398 628.604
-181.869 126.407 628.015
-181.021 126.939 625.089
-180.853 127.941 624.507
-180.684 128.94 623.926
-180.684 130.059 623.926
-178.525 129.611 616.471
-177.709 130.118 613.651
-177.871 131.339 614.213
-176.9 131.716 610.857
-176.578 132.57 609.746
-176.417 133.542 609.192
-176.098 134.39 608.087
-175.779 135.235 606.987
-175.303 135.955 605.343
-175.145 136.917 604.797
-174.359 137.382 602.083
-173.89 138.089 600.466
-173.116 138.546 597.79
-172.961 139.494 597.258
-172.042 139.818 594.084
-171.586 140.51 592.509
-170.682 140.826 589.385
-170.233 141.509 587.836
-169.342 141.818 584.761
-169.195 142.742 584.251
-169.048 143.664 583.743
-168.024 143.835 580.208
-167.156 144.127 577.212
-167.013 145.037 576.716
-166.869 145.946 576.22
-166.726 146.853 575.726
-166.44 147.632 574.739
-166.013 148.281 573.265
-165.73 149.054 572.287
-165.448 149.825 571.312
-163.498 149.072 564.579
-163.086 149.706 563.157
-162.813 150.463 562.213
-162.676 151.344 561.742
-162.676 152.352 561.742
-162.676 153.359 561.742
-162.404 154.108 560.803
-162.133 154.855 559.867
-162.269 155.989 560.335
-161.459 156.211 557.54
-161.325 157.08 557.077
-161.191 157.948 556.615
-161.058 158.814 556.153
-160.26 159.02 553.4
-156.138 156.863 539.164
-156.264 158.924 539.598
-156.013 159.635 538.731
-155.762 160.344 537.867
-155.389 160.921 536.576
-155.264 161.754 536.147
-154.769 162.196 534.439
-154.523 162.895 533.588
-154.278 163.592 532.741
-153.911 164.156 531.474
-152.461 163.554 526.468
-152.222 164.24 525.643
-152.222 165.182 525.643
-152.222 166.125 525.643
-151.747 166.545 524
-151.156 166.833 521.961
-150.687 167.249 520.342
-150.454 167.921 519.536
-150.337 168.722 519.133
-150.221 169.522 518.732
-149.527 169.665 516.336
-149.297 170.328 515.542
-148.954 170.859 514.356
-148.498 171.256 512.783
-147.933 171.52 510.831
-147.708 172.173 510.054
-147.708 173.088 510.054
-147.708 174.002 510.054
-147.595 174.784 509.666
-147.595 175.698 509.666
-146.704 175.545 506.586
-144.844 176.01 500.164
-144.199 176.119 497.936
-144.092 176.88 497.567
-143.347 176.854 494.997
-142.611 176.828 492.453
-142.506 177.581 492.091
-142.402 178.333 491.731
-142.297 179.083 491.37
-141.881 179.438 489.935
-141.881 180.317 489.935
-141.571 180.799 488.863
-140.649 180.492 485.677
-140.649 181.363 485.677
-140.649 182.234 485.677
-140.547 182.972 485.326
-140.04 183.179 483.576
-139.337 183.122 481.148
-138.938 183.459 479.771
-138.344 183.531 477.721
-137.561 183.343 475.014
-137.269 183.805 474.007
-136.979 184.264 473.005
-136.786 184.851 472.338
-136.786 185.698 472.338
-136.786 186.545 472.338
-136.689 187.26 472.006
-260.855 19.9095 906.379
-258.757 21.3616 899.089
-258.065 22.9124 896.685
-256.693 24.3898 891.915
-255.673 25.8859 888.371
-254.997 27.4063 886.024
-252.992 28.767 879.057
-252.661 30.3036 877.906
-252.001 31.7946 875.614
-250.367 33.1483 869.936
-250.043 34.6632 868.809
-247.796 35.8957 861.002
-246.845 37.2959 857.699
-246.216 38.7348 855.511
-245.277 40.1154 852.25
-244.966 41.5907 851.168
-244.037 42.9535 847.94
-243.728 44.4178 846.869
-242.504 45.7055 842.614
-242.809 47.2758 843.673
-242.199 48.6662 841.556
-241.291 49.9871 838.401
-239.793 51.1707 833.193
-238.312 52.3396 828.05
-237.725 53.6919 826.01
-237.433 55.1051 824.994
-235.693 56.1699 818.95
-230.901 57.905 802.297
-230.35 59.202 800.382
-229.528 60.4209 797.527
-228.983 61.7042 795.635
-228.441 62.9815 793.752
-228.712 64.4811 794.692
-229.255 66.0627 796.58
-229.255 67.4911 796.58
-229.255 68.9194 796.58
-222.132 69.5461 771.83
-220.609 70.4437 766.538
-220.357 71.7362 765.663
-220.106 73.0258 764.79
-219.855 74.3125 763.918
-218.61 75.2537 759.593
-218.116 76.4427 757.876
-209.363 85.115 727.462
-209.136 86.3258 726.674
-206.232 87.6967 716.582
-204.484 88.2276 710.509
-203.836 89.2181 708.258
-203.407 90.2974 706.765
-203.193 91.4683 706.021
-203.407 92.832 706.765
-202.553 93.7044 703.799
-201.917 94.6684 701.59
-201.917 95.9265 701.59
-201.917 97.1845 701.59
-201.496 98.237 700.126
-201.076 99.2852 698.667
-199.414 99.7071 692.893
-198.389 100.431 689.332
-198.186 101.562 688.625
-197.78 102.587 687.214
-197.577 103.713 686.51
-197.375 104.836 685.808
-196.972 105.85 684.409
-196.371 106.75 682.32
-195.774 107.645 680.244
-194.198 107.989 674.769
-192.456 108.219 668.714
-192.073 109.2 667.384
-192.073 110.397 667.384
-191.122 111.041 664.08
-190.556 111.9 662.113
-189.434 112.421 658.214
-189.063 113.379 656.925
-187.958 113.887 653.087
-187.775 114.947 652.452
-187.047 115.666 649.923
-186.325 116.381 647.414
-186.146 117.428 646.789
-186.146 118.588 646.789
-185.966 119.633 646.166
-185.075 120.212 643.068
-184.897 121.249 642.452
-184.897 122.401 642.452
-183.666 122.73 638.174
-183.317 123.639 636.961
-180.742 124.155 628.015
-180.742 125.281 628.015
-180.068 125.935 625.672
-179.733 126.821 624.507
-179.399 127.703 623.346
-179.399 128.821 623.346
-178.569 129.337 620.463
-177.747 129.849 617.606
-176.77 130.237 614.213
-176.77 131.339 614.213
-176.286 132.077 612.53
-175.644 132.691 610.301
-175.644 133.785 610.301
-175.485 134.757 609.746
-175.485 135.85 609.746
-174.533 136.201 606.438
-174.375 137.164 605.89
-174.217 138.126 605.343
-173.279 138.461 602.083
-172.969 139.291 601.004
-172.814 140.243 600.466
-170.826 139.694 593.558
-170.373 140.385 591.986
-169.774 140.949 589.904
-168.735 141.138 586.294
-168.294 141.818 584.761
-168.001 142.618 583.743
-167.855 143.539 583.235
-166.984 143.835 580.208
-166.121 144.127 577.212
-165.836 144.913 576.22
-165.836 145.946 576.22
-165.41 146.601 574.739
-164.985 147.253 573.265
-164.704 148.028 572.287
-164.564 148.927 571.799
-163.865 149.316 569.372
-162.486 149.072 564.579
-162.213 149.832 563.631
-162.076 150.716 563.157
-161.805 151.471 562.213
-161.94 152.607 562.685
-161.805 153.488 562.213
-161.94 154.625 562.685
-160.593 154.34 558.004
-161.264 155.989 560.335
-160.326 156.081 557.077
-160.193 156.95 556.615
-159.928 157.686 555.692
-159.531 158.289 554.314
-159.137 158.889 552.943
-156.302 158.006 543.093
-156.176 158.851 542.654
-155.672 159.309 540.904
-155.171 159.763 539.164
-155.047 160.601 538.731
-154.798 161.308 537.867
-154.55 162.013 537.006
-154.057 162.455 535.292
-153.201 162.507 532.318
-153.079 163.332 531.896
-152.475 163.637 529.795
-151.398 163.425 526.055
-151.28 164.24 525.643
-151.28 165.182 525.643
-151.28 166.125 525.643
-150.689 166.415 523.591
-150.337 166.963 522.368
-149.987 167.509 521.15
-149.522 167.921 519.536
-149.291 168.592 518.732
-149.175 169.391 518.331
-148.601 169.665 516.336
-148.487 170.459 515.939
-148.259 171.121 515.146
-147.805 171.518 513.568
-147.353 171.912 512
-146.905 172.304 510.442
-147.017 173.352 510.831
-147.017 174.268 510.831
-146.793 174.917 510.054
-146.793 175.832 510.054
-146.237 176.077 508.122
-145.906 176.587 506.969
-144.054 175.244 500.538
-144.054 176.141 500.538
-143.84 176.775 499.792
-143.306 177.012 497.936
-142.355 176.724 494.632
-141.936 177.088 493.177
-141.832 177.842 492.814
-141.728 178.594 492.453
-141.52 179.214 491.731
-141.416 179.964 491.37
-141.313 180.713 491.011
-140.695 180.799 488.863
-139.879 180.623 486.029
-139.879 181.494 486.029
-139.879 182.366 486.029
-139.778 183.104 485.677
-139.073 183.047 483.228
-138.276 182.86 480.459
-137.782 183.066 478.744
-137.488 183.531 477.721
-136.612 183.214 474.678
-136.323 183.675 473.673
-136.035 184.134 472.671
-135.939 184.851 472.338
-135.843 185.568 472.006
-135.843 186.414 472.006
-135.652 186.997 471.343
-259.581 19.9365 907.605
-258.531 21.4767 903.936
-257.145 22.9738 899.089
-255.093 24.3898 891.915
-253.744 25.8516 887.196
-253.744 27.4425 887.196
-252.408 28.8806 882.527
-251.416 30.3433 879.057
-250.431 31.7946 875.614
-248.807 33.1483 869.936
-248.163 34.6184 867.685
-246.886 35.9881 863.218
-245.621 37.3437 858.797
-244.994 38.7843 856.603
-243.749 40.1154 852.25
-243.131 41.538 850.089
-242.516 42.9535 847.94
-241.905 44.3618 845.801
-241.296 45.763 843.673
-240.993 47.2165 842.614
-240.088 48.5444 839.45
-238.892 49.8004 835.268
-238.595 51.2343 834.229
-236.828 52.3396 828.05
-236.244 53.6919 826.01
-235.954 55.1051 824.994
-234.511 56.2386 819.952
-229.737 57.9743 803.258
-229.188 59.2727 801.339
-227.557 60.2776 795.635
-227.287 61.6311 794.692
-226.482 62.8328 791.878
-226.75 64.3287 792.814
-226.75 65.7503 792.814
-227.287 67.3311 794.692
-227.287 68.7561 794.692
-224.626 69.3593 785.387
-222.026 69.9486 776.297
-219.235 70.4437 766.538
-218.486 71.5728 763.918
-218.237 72.8597 763.049
-217.989 74.1436 762.182
-217.248 75.2537 759.593
-216.025 76.1844 755.316
-207.833 85.0228 726.674
-207.384 86.1392 725.103
-204.947 87.6967 716.582
-203.21 88.2276 710.509
-202.353 89.124 707.511
-201.291 89.9184 703.799
-200.869 90.9894 702.325
-201.08 92.3455 703.061
-200.659 93.4104 701.59
-200.45 94.5695 700.857
-200.24 95.7262 700.126
-200.45 97.083 700.857
-199.823 98.0324 698.667
-199.201 98.9759 696.491
-199.201 100.225 696.491
-197.56 100.638 690.752
-196.951 101.562 688.625
-196.547 102.587 687.214
-196.346 103.713 686.51
-195.945 104.729 685.108
-195.745 105.85 684.409
-194.357 106.318 679.555
-193.768 107.21 677.495
-192.022 107.448 671.392
-191.257 108.219 668.714
-191.257 109.418 668.714
-191.066 110.507 668.048
-190.876 111.594 667.384
-189.556 112.01 662.767
-188.438 112.531 658.861
-188.069 113.49 657.569
-187.517 114.333 655.641
-186.787 115.058 653.087
-185.702 115.554 649.294
-185.164 116.381 647.414
-184.986 117.428 646.789
-184.986 118.588 646.789
-184.63 119.517 645.544
-184.098 120.327 643.686
-183.745 121.249 642.452
-183.922 122.518 643.068
-182.348 122.613 637.567
-181.83 123.405 635.754
-179.785 124.271 628.604
-179.785 125.398 628.604
-179.448 126.289 627.428
-178.613 126.821 624.507
-178.281 127.703 623.346
-178.281 128.821 623.346
-178.115 129.818 622.767
-176.965 130.089 618.746
-175.991 130.476 615.34
-175.83 131.459 614.776
-175.348 132.198 613.09
-174.55 132.691 610.301
-174.391 133.663 609.746
-174.233 134.634 609.192
-173.917 135.481 608.087
-173.132 135.955 605.343
-172.976 136.917 604.797
-172.82 137.877 604.253
-172.045 138.337 601.543
-171.583 139.042 599.929
-171.277 139.867 598.858
-170.062 139.942 594.61
-169.761 140.758 593.558
-169.312 141.447 591.986
-168.125 141.509 587.836
-166.954 143.664 583.743
-165.943 143.835 580.208
-165.371 144.376 578.207
-165.086 145.162 577.212
-164.803 145.946 576.22
-164.52 146.727 575.232
-163.958 147.253 573.265
-163.678 148.028 572.287
-163.538 148.927 571.799
-162.706 149.19 568.889
-161.473 149.072 564.579
-161.202 149.832 563.631
-160.931 150.589 562.685
-160.662 151.344 561.742
-160.527 152.224 561.272
-160.393 153.103 560.803
-159.195 152.957 556.615
-159.195 153.955 556.615
-159.195 154.953 556.615
-159.063 155.822 556.153
-159.063 156.819 556.153
-158.931 157.686 555.692
-158.276 158.028 553.4
-158.145 158.889 552.943
-156.086 158.778 545.745
-155.96 159.626 545.301
-155.077 159.695 542.215
-154.204 159.763 539.164
-153.957 160.472 538.299
-153.587 161.05 537.006
-153.464 161.883 536.576
-153.097 162.455 535.292
-152.367 162.636 532.741
-152.246 163.462 532.318
-151.405 163.508 529.377
-150.455 163.425 526.055
-150.455 164.369 526.055
-150.337 165.182 525.643
-150.337 166.125 525.643
-149.75 166.415 523.591
-149.401 166.963 522.368
-149.168 167.639 521.556
-148.821 168.182 520.342
-148.475 168.722 519.133
-148.475 169.653 519.133
-148.131 170.189 517.931
-147.675 170.59 516.336
-147.562 171.384 515.939
-147.448 172.177 515.542
-146.659 172.175 512.783
-146.101 172.436 510.831
-146.101 173.352 510.831
-146.101 174.268 510.831
-145.879 174.917 510.054
-145.879 175.832 510.054
-145.768 176.612 509.666
-143.801 175.13 502.789
-143.264 175.375 500.911
-143.157 176.141 500.538
-143.05 176.907 500.164
-142.519 177.143 498.306
-141.677 176.985 495.362
-141.468 177.611 494.632
-141.364 178.366 494.267
-141.155 178.989 493.54
-140.741 179.346 492.091
-140.638 180.096 491.731
-140.638 180.978 491.731
-139.818 180.799 488.863
-138.907 180.492 485.677
-138.306 180.578 483.576
-138.107 181.184 482.88
-138.007 181.919 482.533
-137.611 182.26 481.148
-137.414 182.86 480.459
-136.729 182.805 478.062
-136.534 183.401 477.381
-135.953 183.473 475.351
-135.665 183.934 474.343
-135.378 184.394 473.338
-135.187 184.982 472.671
-135.092 185.698 472.338
-135.092 186.545 472.338
-134.997 187.26 472.006
-258.303 18.3338 908.835
-257.605 19.9095 906.379
-254.85 21.3045 896.685
-254.509 22.8818 895.488
-252.822 24.3251 889.55
-251.82 25.8175 886.024
-251.82 27.4063 886.024
-250.167 28.8048 880.211
-249.513 30.3036 877.906
-248.537 31.7531 874.472
-247.247 33.1483 869.936
-246.607 34.6184 867.685
-246.289 36.1275 866.564
-244.394 37.3916 859.898
-243.147 38.7348 855.511
-241.913 40.0645 851.168
-241.301 41.4855 849.013
-240.691 42.8993 846.869
-240.388 44.3618 845.801
-239.783 45.763 843.673
-239.482 47.2165 842.614
-237.69 48.3628 836.31
-235.343 49.37 828.05
-234.474 50.6671 824.994
-234.763 52.2107 826.01
-234.186 53.5599 823.981
-233.612 54.9026 821.961
-232.757 56.1699 818.95
-231.344 57.2887 813.981
-228.57 58.0439 804.221
-228.023 59.3436 802.297
-226.399 60.3491 796.58
-225.862 61.6311 794.692
-225.595 62.9815 793.752
-225.862 64.4811 794.692
-225.862 65.9061 794.692
-226.13 67.411 795.635
-226.399 68.9194 796.58
-222.696 69.1973 783.552
-220.634 69.9486 776.297
-217.611 70.3633 765.663
-216.131 71.2482 760.454
-215.886 72.5296 759.593
-215.886 73.8917 759.593
-215.398 75.0837 757.876
-206.754 85.115 727.462
-206.307 86.2324 725.888
-203.662 87.6967 716.582
-201.084 89.124 707.511
-199.61 89.7301 702.325
-199.61 90.9894 702.325
-199.61 92.2488 702.325
-199.401 93.4104 701.59
-199.193 94.5695 700.857
-199.193 95.8262 700.857
-199.401 97.1845 701.59
-198.985 98.237 700.126
-198.158 99.0788 697.215
-197.746 100.121 695.768
-196.119 100.534 690.042
-194.916 101.147 685.808
-194.717 102.272 685.108
-194.717 103.501 685.108
-194.518 104.622 684.409
-194.32 105.742 683.711
-193.138 106.318 679.555
-192.553 107.21 677.495
-191.01 107.556 672.065
-190.247 108.327 669.382
-190.057 109.418 668.714
-190.057 110.617 668.714
-189.491 111.483 666.72
-188.367 112.01 662.767
-187.441 112.642 659.509
-187.073 113.601 658.214
-186.707 114.557 656.925
-185.616 115.058 653.087
-184.359 115.443 648.666
-183.826 116.269 646.789
-183.826 117.428 646.789
-183.826 118.588 646.789
-183.826 119.748 646.789
-182.593 120.097 642.452
-182.419 121.133 641.838
-182.419 122.284 641.838
-181.033 122.497 636.961
-180.519 123.288 635.152
-179.837 123.957 632.755
-178.658 124.271 628.604
-178.49 125.281 628.015
-178.323 126.289 627.428
-177.99 127.176 626.256
-177.328 127.822 623.926
-177.163 128.821 623.346
-176.834 129.697 622.19
-176.018 130.209 619.317
-175.532 130.957 617.606
-174.727 131.459 614.776
-174.089 132.077 612.53
-173.455 132.691 610.301
-173.455 133.785 610.301
-173.14 134.634 609.192
-172.514 135.235 606.987
-172.047 135.955 605.343
-171.582 136.67 603.709
-170.966 137.259 601.543
-170.813 138.213 601.004
-170.66 139.166 600.466
-170.355 139.992 599.393
-169.749 140.565 597.258
-169.749 141.636 597.258
-169.447 142.453 596.196
-165.907 143.664 583.743
-165.189 144.084 581.214
-164.76 144.75 579.706
-164.193 145.287 577.709
-163.769 145.946 576.22
-163.348 146.601 574.739
-162.93 147.253 573.265
-162.652 148.028 572.287
-162.513 148.927 571.799
-161.686 149.19 568.889
-160.867 149.449 566.009
-160.326 149.958 564.105
-160.191 150.843 563.631
-159.922 151.598 562.685
-159.655 152.352 561.742
-159.388 153.103 560.803
-157.543 152.325 554.314
-157.283 153.066 553.4
-157.283 154.058 553.4
-157.283 155.051 553.4
-157.543 156.301 554.314
-158.329 158.079 557.077
-157.283 158.028 553.4
-155.741 157.461 547.974
-155.741 158.444 547.974
-155.234 158.907 546.189
-155.108 159.756 545.745
-153.98 159.566 541.777
-153.238 159.763 539.164
-152.869 160.344 537.867
-152.502 160.921 536.576
-152.38 161.754 536.147
-152.137 162.455 535.292
-151.292 162.507 532.318
-151.292 163.462 532.318
-150.694 163.767 530.214
-149.278 163.169 525.231
-149.278 164.111 525.231
-149.161 164.924 524.82
-149.161 165.865 524.82
-148.58 166.156 522.775
-148.348 166.833 521.961
-148.233 167.639 521.556
-147.773 168.051 519.938
-147.43 168.592 518.732
-147.089 169.129 517.531
-146.749 169.665 516.336
-146.637 170.459 515.939
-146.411 171.121 515.146
-146.299 171.913 514.751
-145.628 172.044 512.391
-144.964 172.173 510.054
-144.964 173.088 510.054
-145.074 174.135 510.442
-144.964 174.917 510.054
-144.744 175.565 509.279
-143.006 175.262 503.166
-142.366 175.375 500.911
-142.153 176.01 500.164
-141.52 176.119 497.936
-141.31 176.749 497.198
-140.893 177.116 495.728
-140.581 177.611 494.632
-140.477 178.366 494.267
-140.27 178.989 493.54
-139.859 179.346 492.091
-139.45 179.701 490.651
-138.236 179.881 486.382
-137.637 179.97 484.275
-137.34 180.448 483.228
-137.241 181.184 482.88
-136.945 181.657 481.839
-136.847 182.39 481.493
-136.651 182.991 480.803
-136.065 183.066 478.744
-135.775 183.531 477.721
-135.389 183.864 476.364
-135.005 184.195 475.014
-134.814 184.785 474.343
-134.529 185.243 473.338
-134.339 185.829 472.671
-134.245 186.545 472.338
-134.15 187.26 472.006
-255.98 18.2843 906.379
-254.603 19.8025 901.506
-253.242 21.3045 896.685
-253.242 22.9124 896.685
-250.562 24.2608 887.196
-249.243 25.7156 882.527
-249.243 27.2981 882.527
-248.263 28.767 879.057
-247.938 30.3036 877.906
-246.647 31.7118 873.334
-246.006 33.1913 871.065
-245.687 34.7082 869.936
-245.052 36.1743 867.685
-242.541 37.3437 858.797
-241.306 38.6855 854.421
-240.387 40.0645 851.168
-239.173 41.3807 846.869
-238.871 42.8452 845.801
-238.27 44.2502 843.673
-237.672 45.6482 841.556
-236.781 46.9804 838.401
-235.018 48.1228 832.159
-232.995 49.1878 824.994
-232.138 50.4809 821.961
-232.423 52.0185 822.97
-231.288 53.233 818.95
-231.006 54.6347 817.952
-231.006 56.1014 817.952
-231.006 57.5681 817.952
-229.051 58.5352 811.028
-226.585 59.3436 802.297
-224.97 60.3491 796.58
-224.437 61.6311 794.692
-224.171 62.9815 793.752
-223.906 64.3287 792.814
-222.853 65.4409 789.083
-222.33 66.6989 787.231
-221.55 67.8715 784.468
-220.261 68.8754 779.907
-219.75 70.1109 778.098
-215.746 70.203 763.918
-214.524 71.1676 759.593
-214.524 72.5296 759.593
-214.524 73.8917 759.593
-214.282 75.1686 758.734
-213.316 76.1844 755.316
-198.143 92.1523 701.59
-198.143 93.4104 701.59
-198.143 94.6684 701.59
-197.936 95.8262 700.857
-198.143 97.1845 701.59
-194.083 98.8898 687.214
-194.083 100.122 687.214
-193.291 100.941 684.409
-193.094 102.064 683.711
-193.291 103.395 684.409
-193.291 104.622 684.409
-193.094 105.742 683.711
-191.92 106.318 679.555
-190.952 106.994 676.129
-188.858 107.02 668.714
-188.67 108.111 668.048
-188.67 109.309 668.048
-188.858 110.617 668.714
-188.295 111.483 666.72
-186.994 111.9 662.113
-186.258 112.642 659.509
-185.711 113.49 657.569
-185.166 114.333 655.641
-184.265 114.947 652.452
-183.551 115.666 649.923
-183.019 116.493 648.039
-183.019 117.655 648.039
-183.196 118.932 648.666
-182.843 119.863 647.414
-181.615 120.212 643.068
-181.095 121.017 641.224
-180.749 121.934 640
-179.891 122.497 636.961
-179.38 123.288 635.152
-178.703 123.957 632.755
-178.198 124.739 630.969
-177.864 125.634 629.784
-177.364 126.407 628.015
-176.209 126.703 623.926
-176.045 127.703 623.346
-175.882 128.701 622.767
-175.719 129.697 622.19
-175.231 130.45 620.463
-174.585 131.077 618.175
-173.784 131.58 615.34
-173.307 132.319 613.651
-172.675 132.933 611.413
-172.518 133.907 610.857
-172.048 134.634 609.192
-171.116 134.991 605.89
-170.961 135.955 605.343
-170.961 137.04 605.343
-170.653 137.877 604.253
-169.888 138.337 601.543
-169.584 139.166 600.466
-169.129 139.867 598.858
-168.678 140.565 597.258
-168.678 141.636 597.258
-168.527 142.58 596.726
-165.437 144.166 585.782
-165.148 144.963 584.761
-163.438 144.5 578.706
-163.016 145.162 577.212
-162.596 145.821 575.726
-162.179 146.476 574.247
-162.179 147.506 574.247
-161.625 148.028 572.287
-161.35 148.801 571.312
-160.666 149.19 568.889
-159.987 149.575 566.487
-159.449 150.084 564.579
-159.314 150.969 564.105
-158.647 151.344 561.742
-158.515 152.224 561.272
-157.854 152.592 558.934
-156.939 152.704 555.692
-156.549 153.319 554.314
-156.42 155.179 553.857
-156.42 156.172 553.857
-156.291 157.035 553.4
-155.266 156.991 549.771
-154.759 157.461 547.974
-154.759 158.444 547.974
-154.255 158.907 546.189
-154.129 159.756 545.745
-153.505 160.084 543.534
-152.393 159.892 539.598
-152.148 160.601 538.731
-151.904 161.308 537.867
-151.661 162.013 537.006
-151.298 162.585 535.719
-149.861 161.993 530.633
-149.743 162.816 530.214
-149.389 163.379 528.959
-148.452 163.297 525.643
-148.452 164.24 525.643
-148.22 164.924 524.82
-148.22 165.865 524.82
-147.527 166.027 522.368
-147.412 166.833 521.961
-147.412 167.769 521.961
-146.955 168.182 520.342
-146.5 168.592 518.732
-145.936 168.869 516.734
-145.711 169.534 515.939
-145.488 170.197 515.146
-145.264 170.859 514.356
-145.153 171.649 513.962
-144.71 172.044 512.391
-143.94 172.042 509.666
-143.94 172.956 509.666
-144.049 174.002 510.054
-143.94 174.784 509.666
-143.831 175.565 509.279
-141.785 174.868 502.036
-141.256 175.113 500.164
-141.151 175.879 499.792
-140.732 176.25 498.306
-140.523 176.88 497.567
-140.004 177.116 495.728
-139.694 177.611 494.632
-139.488 178.235 493.903
-139.488 179.12 493.903
-138.976 179.346 492.091
-138.57 179.701 490.651
-137.464 180.012 486.735
-136.67 179.841 483.925
-136.375 180.318 482.88
-136.277 181.054 482.533
-135.886 181.397 481.148
-135.788 182.129 480.803
-135.691 182.86 480.459
-135.497 183.459 479.771
-134.918 183.531 477.721
-134.535 183.864 476.364
-134.154 184.195 475.014
-134.059 184.916 474.678
-133.869 185.504 474.007
-133.492 185.829 472.671
-133.398 186.545 472.338
-133.304 187.26 472.006
-254.698 18.309 907.605
-253.669 19.8559 903.936
-251.971 21.333 897.885
-251.971 22.943 897.885
-250.963 24.4549 894.294
-248.971 25.8516 887.196
-248.314 27.3701 884.855
-246.042 28.6918 876.759
-246.364 30.3036 877.906
-245.081 31.7118 873.334
-244.127 33.1483 869.936
-243.496 34.6184 867.685
-242.867 36.0809 865.446
-241.31 37.3916 859.898
-241.002 38.8836 858.797
-239.468 40.1664 853.334
-238.558 41.538 850.089
-237.654 42.8993 846.869
-236.757 44.2502 843.673
-236.163 45.6482 841.556
-234.399 46.8049 835.268
-232.373 47.8852 828.05
-231.231 49.1274 823.981
-230.664 50.4809 821.961
-230.1 51.8277 819.952
-229.539 53.168 817.952
-229.539 54.6347 817.952
-229.26 56.0331 816.955
-228.425 57.2887 813.981
-227.047 58.3939 809.072
-225.416 59.4147 803.258
-223.542 60.3491 796.58
-223.012 61.6311 794.692
-222.748 62.9815 793.752
-221.96 64.177 790.944
-221.178 65.364 788.156
-220.401 66.5427 785.387
-219.886 67.7923 783.552
-219.118 68.9556 780.815
-218.863 70.2739 779.907
-213.889 70.0435 762.182
-213.162 71.1676 759.593
-213.162 72.5296 759.593
-212.921 73.8081 758.734
-211.962 74.83 755.316
-192.851 98.8898 687.214
-192.063 99.7135 684.409
-192.063 100.941 684.409
-191.283 101.753 681.626
-192.063 103.395 684.409
-192.063 104.622 684.409
-191.672 105.634 683.015
-190.508 106.21 678.867
-189.74 106.994 676.129
-187.846 107.127 669.382
-187.659 108.219 668.714
-187.659 109.418 668.714
-187.286 110.397 667.384
-186.174 110.931 663.423
-185.076 111.459 659.509
-184.713 112.421 658.214
-184.532 113.49 657.569
-183.99 114.333 655.641
-183.274 115.058 653.087
-183.095 116.116 652.452
-182.918 117.172 651.818
-182.918 118.341 651.818
-182.563 119.278 650.553
-181.682 119.863 647.414
-180.289 120.097 642.452
-179.945 121.017 641.224
-179.259 121.702 638.781
-178.749 122.497 636.961
-178.579 123.522 636.357
-177.736 124.074 633.353
-176.734 124.505 629.784
-176.569 125.516 629.194
-175.909 126.171 626.842
-175.09 126.703 623.926
-174.928 127.703 623.346
-174.928 128.821 623.346
-174.765 129.818 622.767
-174.441 130.692 621.613
-173.477 131.077 618.175
-172.523 131.459 614.776
-172.207 132.319 613.651
-171.267 132.691 610.301
-171.267 133.785 610.301
-170.801 134.512 608.639
-170.029 134.991 605.89
-170.029 136.078 605.89
-169.876 137.04 605.343
-168.658 137.136 601.004
-168.658 138.213 601.004
-168.507 139.166 600.466
-168.056 139.867 598.858
-167.607 140.565 597.258
-167.756 141.762 597.79
-167.457 142.58 596.726
-166.864 143.14 594.61
-164.53 143.241 586.294
-164.818 144.545 587.321
-164.386 145.217 585.782
-162.541 144.625 579.206
-161.981 145.162 577.212
-161.564 145.821 575.726
-161.426 146.727 575.232
-161.426 147.759 575.232
-160.736 148.155 572.776
-160.462 148.927 571.799
-159.646 149.19 568.889
-158.703 149.323 565.532
-158.436 150.084 564.579
-158.17 150.843 563.631
-157.508 151.218 561.272
-157.376 152.097 560.803
-156.591 152.338 558.004
-156.331 153.084 557.077
-156.201 153.955 556.615
-155.684 154.441 554.773
-155.427 155.179 553.857
-155.299 156.043 553.4
-154.28 156.006 549.771
-154.28 156.991 549.771
-153.902 157.59 548.422
-153.776 158.444 547.974
-153.4 159.036 546.634
-153.275 159.886 546.189
-152.778 160.343 544.416
-152.283 160.798 542.654
-151.426 160.86 539.598
-150.698 161.05 537.006
-150.457 161.754 536.147
-150.217 162.455 535.292
-149.383 162.507 532.318
-149.264 163.332 531.896
-148.792 163.767 530.214
-147.625 163.425 526.055
-147.625 164.369 526.055
-147.394 165.053 525.231
-147.394 165.995 525.231
-146.705 166.156 522.775
-146.59 166.963 522.368
-146.59 167.9 522.368
-146.476 168.705 521.961
-144.675 167.555 515.542
-144.675 168.479 515.542
-144.675 169.404 515.542
-144.453 170.067 514.751
-144.121 170.597 513.568
-144.121 171.518 513.568
-143.791 172.044 512.391
-143.026 172.042 509.666
-143.026 172.956 509.666
-143.026 173.87 509.666
-143.026 174.784 509.666
-141.308 174.49 503.544
-140.569 174.476 500.911
-140.255 174.983 499.792
-140.046 175.617 499.048
-139.631 175.988 497.567
-139.424 176.618 496.83
-139.012 176.985 495.362
-138.705 177.48 494.267
-138.501 178.104 493.54
-138.297 178.726 492.814
-137.993 179.214 491.731
-137.288 179.177 489.22
-136.789 179.399 487.442
-136.492 179.881 486.382
-136.294 180.492 485.677
-135.802 180.708 483.925
-135.607 181.314 483.228
-135.314 181.788 482.186
-134.926 182.129 480.803
-134.83 182.86 480.459
-134.733 183.59 480.115
-134.061 183.531 477.721
-133.586 183.734 476.026
-133.302 184.195 475.014
-133.208 184.916 474.678
-132.831 185.243 473.338
-132.551 185.698 472.338
-132.458 186.414 472.006
-132.458 187.26 472.006
-253.414 18.3338 908.835
-252.729 19.9095 906.379
-251.709 21.4478 902.719
-252.048 23.0976 903.936
-250.696 24.586 899.089
-247.053 25.8175 886.024
-247.053 27.4063 886.024
-245.432 28.8048 880.211
-244.79 30.3036 877.906
-242.882 31.6294 871.065
-242.253 33.1053 868.809
-241.315 34.5291 865.446
-241.315 36.0809 865.446
-240.076 37.4396 861.002
-239.462 38.8836 858.797
-237.938 40.1664 853.334
-236.136 41.3807 846.869
-235.245 42.7374 843.673
-234.949 44.1946 842.614
-234.36 45.591 840.502
-232.901 46.8049 835.268
-230.604 47.8261 827.029
-230.036 49.1878 824.994
-229.191 50.4809 821.961
-228.63 51.8277 819.952
-228.351 53.233 818.95
-227.795 54.5682 816.955
-227.795 56.0331 816.955
-227.795 57.498 816.955
-226.416 58.606 812.01
-224.783 59.6289 806.154
-222.642 60.4928 798.477
-221.85 61.7042 795.635
-221.325 62.9815 793.752
-220.282 64.1014 790.012
-219.506 65.2873 787.231
-218.736 66.4649 784.468
-217.718 67.5555 780.815
-217.465 68.8754 779.907
-217.465 70.2739 779.907
-212.522 70.0435 762.182
-211.561 71.0871 758.734
-211.8 72.5296 759.593
-211.561 73.8081 758.734
-210.608 74.83 755.316
-210.608 76.1844 755.316
-189.675 101.546 680.244
-190.06 102.975 681.626
-190.06 104.197 681.626
-190.06 105.419 681.626
-189.483 106.318 679.555
-187.019 107.341 670.72
-186.46 108.219 668.714
-186.46 109.418 668.714
-185.168 109.85 664.08
-184.802 110.822 662.767
-183.532 111.241 658.214
-183.352 112.311 657.569
-183.352 113.49 657.569
-183.173 114.557 656.925
-182.994 115.621 656.282
-182.103 116.23 653.087
-181.926 117.286 652.452
-181.926 118.456 652.452
-181.572 119.394 651.185
-180.695 119.979 648.039
-179.309 120.212 643.068
-178.966 121.133 641.838
-178.795 122.167 641.224
-177.944 122.73 638.174
-177.775 123.757 637.567
-176.433 123.957 632.755
-175.605 124.505 629.784
-175.605 125.634 629.784
-175.112 126.407 628.015
-174.296 126.939 625.089
-173.81 127.703 623.346
-173.487 128.582 622.19
-173.487 129.697 622.19
-173.166 130.571 621.037
-172.368 131.077 618.175
-171.735 131.7 615.905
-171.42 132.561 614.776
-170.638 133.054 611.971
-170.018 133.663 609.746
-169.863 134.634 609.192
-168.79 134.869 605.343
-168.79 135.955 605.343
-168.638 136.917 604.797
-167.881 137.382 602.083
-167.73 138.337 601.543
-167.58 139.291 601.004
-167.28 140.118 599.929
-166.387 140.44 596.726
-166.387 141.51 596.726
-166.24 142.453 596.196
-165.212 142.634 592.509
-163.908 142.563 587.836
-163.765 143.492 587.321
-163.765 144.545 587.321
-163.479 145.343 586.294
-161.782 144.875 580.208
-161.363 145.538 578.706
-160.67 145.946 576.22
-160.532 146.853 575.726
-160.532 147.885 575.726
-159.846 148.281 573.265
-159.437 148.927 571.799
-158.626 149.19 568.889
-157.956 149.575 566.487
-157.424 150.084 564.579
-157.291 150.969 564.105
-156.633 151.344 561.742
-156.371 152.097 560.803
-155.85 152.592 558.934
-155.59 153.339 558.004
-155.461 154.211 557.54
-155.074 154.825 556.153
-154.434 155.179 553.857
-154.307 156.043 553.4
-153.295 156.006 549.771
-153.42 157.12 550.222
-153.169 157.848 549.321
-153.169 158.833 549.321
-152.669 159.296 547.527
-152.42 160.017 546.634
-151.433 159.954 543.093
