ply
format ascii 1.0
element vertex 1915
property float x
property float y
property float z
end_header
-67.7358 142.969 576.716
-67.6776 143.879 576.22
-67.5036 144.54 574.739
-67.3305 145.197 573.265
-67.2156 145.976 572.287
-66.4782 145.389 566.009
-66.3662 146.158 565.055
-66.3104 147.047 564.579
-66.3104 148.059 564.579
-65.9771 148.323 561.742
-65.8118 148.956 560.335
-65.702 149.71 559.4
-65.5926 150.462 558.468
-65.4835 151.212 557.54
-65.4835 152.212 557.54
-65.1047 152.325 554.314
-64.9437 152.94 552.943
-64.8368 153.678 552.033
-64.8368 154.668 552.033
-64.624 155.147 550.222
-64.5182 155.878 549.321
-64.2027 156.096 546.634
-64.1504 156.948 546.189
-64.0461 157.671 545.301
-63.6837 157.751 542.215
-63.2745 157.703 538.731
-62.9207 157.782 535.719
-62.8705 158.616 535.292
-62.9207 159.703 535.719
-62.8203 160.408 534.865
-62.6704 160.982 533.588
-62.6206 161.81 533.164
-61.7856 161.539 526.055
-61.3048 162.154 521.961
-61.2571 162.963 521.556
-61.2571 163.898 521.556
-61.162 164.577 520.746
-61.0672 165.254 519.938
-61.0199 166.058 519.536
-61.0199 166.99 519.536
-60.6441 167.813 516.336
-59.9518 167.728 510.442
-59.9975 168.772 510.831
-59.9062 169.429 510.054
-59.9062 170.344 510.054
-59.9518 171.389 510.442
-59.8607 172.042 509.666
-59.544 172.041 506.969
-59.2306 172.04 504.301
-59.053 172.426 502.789
-58.8325 172.68 500.911
-58.7447 173.319 500.164
-58.7447 174.216 500.164
-58.7447 175.113 500.164
-58.57 175.487 498.677
-58.701 176.775 499.792
-58.7886 177.936 500.538
-58.7886 178.834 500.538
-58.8765 180 501.286
-58.8765 180.899 501.286
-58.9646 182.07 502.036
-57.0846 177.136 486.029
-57.0432 177.879 485.677
-57.0432 178.75 485.677
-56.9196 179.231 484.625
-56.7965 179.711 483.576
-56.3899 179.285 480.115
-56.3093 179.889 479.428
-56.2289 180.49 478.744
-56.1888 181.22 478.403
-56.1488 181.948 478.062
-56.1088 182.675 477.721
-55.9096 182.88 476.026
-55.8304 183.473 475.351
-55.7909 184.195 475.014
-55.5156 184.134 472.671
-55.3985 184.591 471.674
-55.2819 185.047 470.681
-55.1658 185.5 469.692
-55.1272 186.212 469.363
-81.9155 -115.253 708.258
-82.0021 -114.104 709.007
-82.0021 -112.832 709.007
-81.9155 -111.443 708.258
-81.9155 -110.173 708.258
-82.0021 -109.018 709.007
-81.8291 -107.52 707.511
-81.4853 -105.805 704.538
-77.7295 -90.0818 672.065
-77.8074 -88.9659 672.739
-77.8074 -87.7595 672.739
-77.8074 -86.5532 672.739
-77.7295 -85.2614 672.065
-77.6516 -83.9721 671.392
-77.6516 -82.7682 671.392
-77.342 -81.239 668.714
-77.8074 -80.5216 672.739
-77.9638 -79.4748 674.091
-78.1996 -78.5027 676.129
-78.3576 -77.4464 677.495
-78.5162 -76.3859 678.867
-78.4368 -75.0926 678.18
-78.5162 -73.9513 678.867
-78.5957 -72.8077 679.555
-78.7553 -71.7345 680.934
-79.0765 -70.801 683.711
-81.9155 -68.2629 708.258
-82.0889 -67.1347 709.757
-82.1758 -65.9318 710.509
-82.0889 -64.5893 709.757
-82.0021 -63.2497 709.007
-82.0021 -61.9783 709.007
-81.9155 -60.6429 708.258
-81.8291 -59.3102 707.511
-82.0021 -58.1643 709.007
-82.263 -57.0739 711.262
-82.5255 -55.9766 713.532
-82.5255 -54.6972 713.532
-82.6134 -53.4746 714.292
-82.6134 -52.1937 714.292
-82.6134 -50.9129 714.292
-82.6134 -49.6321 714.292
-73.4602 -25.9104 635.152
-73.2521 -24.7013 633.353
-73.183 -23.5434 632.755
-73.114 -22.3876 632.159
-79.8086 -10.8268 690.042
-79.8086 -9.58941 690.042
-79.8908 -8.36067 690.752
-79.8086 -7.11472 690.042
-79.8908 -5.88343 690.752
-79.8908 -4.64482 690.752
-80.0557 -3.41323 692.178
-80.1384 -2.1743 692.893
-79.8908 -0.928963 690.752
-79.8086 0.309336 690.042
-79.6448 1.5435 688.625
-78.5162 3.95624 678.867
-78.5162 5.17355 678.867
-78.8354 6.41683 681.626
-78.8354 7.63909 681.626
-78.6754 8.84336 680.244
-78.9959 10.1041 683.015
-79.1571 11.352 684.409
-79.0765 12.5664 683.711
-78.8354 13.7504 681.626
-79.1571 15.0337 684.409
-79.8086 16.3948 690.042
-79.4816 17.5599 687.214
-79.319 18.7537 685.808
-79.238 23.6486 685.108
-79.319 24.9025 685.808
-79.6448 26.2396 688.625
-79.8086 27.5309 690.042
-79.8086 28.7682 690.042
-79.8086 30.0056 690.042
-79.4816 31.1149 687.214
-79.4816 32.3471 687.214
-79.7266 33.683 689.332
-79.7266 34.919 689.332
-79.5631 36.0809 687.918
-79.8908 37.4682 690.752
-79.9732 38.7467 691.464
-79.9732 39.9866 691.464
-79.9732 41.2265 691.464
-79.8908 42.4227 690.752
-79.9732 43.7063 691.464
-79.8908 44.8999 690.752
-79.7266 46.0437 689.332
-79.8086 47.3284 690.042
-79.8908 48.6157 690.752
-79.9732 49.9058 691.464
-79.9732 51.1457 691.464
-80.1384 52.4938 692.893
-80.3044 53.8475 694.328
-80.3044 55.0925 694.328
-80.3044 56.3375 694.328
-80.0557 57.4043 692.178
-80.1384 58.7061 692.893
-80.4709 60.1973 695.768
-80.4709 61.4449 695.768
-80.7222 62.8882 697.94
-80.9749 64.3406 700.126
-80.9749 65.596 700.126
-80.9749 66.8514 700.126
-81.0596 68.178 700.857
-80.9749 69.3623 700.126
-81.0596 70.6915 700.857
-81.0596 71.9482 700.857
-80.9749 73.1285 700.126
-80.8062 74.229 698.667
-80.8062 75.4818 698.667
-80.4709 76.4162 695.768
-68.0474 137.413 588.351
-68.0474 138.468 588.351
-67.8688 139.157 586.807
-67.6321 139.721 584.761
-67.5732 140.646 584.251
-67.1636 140.835 580.71
-67.1055 141.754 580.208
-66.9896 142.548 579.206
-66.759 143.092 577.212
-66.6443 143.879 576.22
-66.53 144.664 575.232
-66.1894 144.95 572.287
-65.9643 145.479 570.34
-65.6294 145.758 567.445
-65.574 146.652 566.966
-65.353 147.171 565.055
-65.298 148.059 564.579
-64.9155 148.199 561.272
-64.807 148.956 560.335
-64.645 149.586 558.934
-64.5374 150.337 558.004
-64.4838 151.212 557.54
-64.4302 152.085 557.077
-64.4302 153.084 557.077
-64.1107 153.319 554.314
-63.8469 153.678 552.033
-63.742 154.414 551.126
-63.6374 155.147 550.222
-63.5332 155.878 549.321
-63.2741 156.223 547.08
-63.171 156.948 546.189
-63.0683 157.671 545.301
-62.7114 157.751 542.215
-62.3585 157.83 539.164
-62.2085 158.415 537.867
-61.9601 158.743 535.719
-61.9601 159.703 535.719
-61.9106 160.536 535.292
-61.7136 160.982 533.588
-61.5667 161.553 532.318
-60.4159 162.28 522.368
-60.3689 163.09 521.961
-60.3689 164.025 521.961
-60.2751 164.705 521.15
-60.1349 165.254 519.938
-60.1349 166.187 519.938
-60.0883 166.99 519.536
-59.6264 167.555 515.542
-59.3073 167.578 512.783
-59.0365 167.728 510.442
-59.1265 168.9 511.22
-59.0365 169.558 510.442
-58.9916 170.344 510.054
-59.0365 171.389 510.442
-58.902 171.912 509.279
-58.6349 172.041 506.969
-58.5906 172.82 506.586
-58.3263 172.944 504.301
-58.0209 172.938 501.661
-57.8479 173.319 500.164
-57.891 174.346 500.538
-57.8479 175.113 500.164
-57.6758 175.487 498.677
-57.891 177.039 500.538
-57.891 177.936 500.538
-57.891 178.834 500.538
-57.9343 179.866 500.911
-57.891 180.629 500.538
-56.2946 177.394 486.735
-56.1723 177.879 485.677
-56.1317 178.621 485.326
-56.0506 179.231 484.625
-55.9293 179.711 483.576
-55.529 179.285 480.115
-55.3704 179.632 478.744
-55.331 180.362 478.403
-55.2915 181.09 478.062
-55.2521 181.818 477.721
-55.2128 182.545 477.381
-55.0561 182.88 476.026
-54.978 183.473 475.351
-54.978 184.326 475.351
-54.7452 184.394 473.338
-54.5911 184.721 472.006
-54.3616 184.787 470.021
-54.3235 185.5 469.692
-54.2096 185.952 468.707
-80.6455 -116.523 708.258
-80.6455 -115.253 708.258
-80.7308 -114.104 709.007
-80.7308 -112.832 709.007
-80.6455 -111.443 708.258
-80.5604 -110.057 707.511
-80.8162 -109.134 709.757
-75.7652 -91.5744 665.397
-75.7652 -90.3813 665.397
-76.1429 -89.6328 668.714
-76.295 -88.6103 670.05
-76.295 -87.4088 670.05
-76.3713 -86.2935 670.72
-76.295 -85.0059 670.05
-76.295 -83.8044 670.05
-76.295 -82.6029 670.05
-76.1429 -81.239 668.714
-76.5244 -80.4409 672.065
-76.7551 -79.4748 674.091
-76.8323 -78.3447 674.769
-77.0649 -77.3683 676.812
-77.2207 -76.3087 678.18
-77.2989 -75.1686 678.867
-77.3772 -74.0262 679.555
-77.4557 -72.8815 680.244
-77.3772 -71.5891 679.555
-77.6131 -70.5852 681.626
-77.5343 -69.2925 680.934
-80.6455 -68.2629 708.258
-80.8162 -67.1347 709.757
-80.7308 -65.7924 709.007
-80.7308 -64.521 709.007
-80.6455 -63.1829 708.258
-80.6455 -61.9129 708.258
-80.5604 -60.5789 707.511
-80.6455 -59.3729 708.258
-80.9018 -58.2875 710.509
-81.1597 -57.1952 712.774
-81.2461 -55.9766 713.532
-81.3326 -54.7554 714.292
-81.3326 -53.4746 714.292
-81.2461 -52.1382 713.532
-81.1597 -50.8047 712.774
-81.2461 -49.5793 713.532
-78.41 -10.8045 688.625
-78.4905 -9.57955 689.332
-78.5713 -8.35207 690.042
-78.6522 -7.12205 690.752
-78.7333 -5.8895 691.464
-78.6522 -4.64482 690.752
-79.0593 -3.42383 694.328
-79.1412 -2.18106 695.047
-78.7333 -0.929921 691.464
-78.4905 0.309018 689.332
-78.2493 1.54034 687.214
-77.4557 3.96427 680.244
-77.3772 5.17879 679.555
-77.4557 6.40382 680.244
-77.4557 7.62359 680.244
-77.3772 8.83441 679.555
-77.4557 10.0631 680.244
-77.7712 11.3289 683.015
-77.8505 12.5664 683.711
-77.8505 13.7924 683.711
-77.9299 15.0337 684.409
-78.0095 16.2776 685.108
-78.0893 17.524 685.808
-78.0095 18.7346 685.108
-78.1692 22.4659 686.51
-78.1692 23.697 686.51
-78.2493 24.9535 687.214
-78.4905 26.2665 689.332
-78.5713 27.5309 690.042
-78.5713 28.7682 690.042
-78.5713 30.0056 690.042
-78.2493 31.1149 687.214
-78.2493 32.3471 687.214
-78.41 33.6484 688.625
-78.2493 34.8117 687.214
-78.41 36.118 688.625
-78.6522 37.4682 690.752
-78.6522 38.7068 690.752
-78.6522 39.9454 690.752
-78.7333 41.2265 691.464
-78.6522 42.4227 690.752
-78.6522 43.6613 690.752
-78.6522 44.8999 690.752
-78.4905 46.0437 689.332
-78.4905 47.2797 689.332
-78.5713 48.5657 690.042
-78.7333 49.9058 691.464
-78.7333 51.1457 691.464
-78.8146 52.4396 692.178
-78.9776 53.7918 693.609
-79.0593 55.0925 694.328
-79.1412 56.3959 695.047
-78.9776 57.523 693.609
-79.0593 58.8276 694.328
-79.5534 60.4481 698.667
-79.5534 61.7009 698.667
-79.5534 62.9537 698.667
-79.8863 64.4752 701.59
-79.9699 65.802 702.325
-79.9699 67.0614 702.325
-79.9699 68.3208 702.325
-79.9699 69.5802 702.325
-79.9699 70.8395 702.325
-79.8863 72.0235 701.59
-79.8863 73.2815 701.59
-79.5534 74.229 698.667
-79.5534 75.4818 698.667
-79.8863 77.0557 701.59
-79.5534 79.2402 698.667
-67.0512 136.478 588.868
-67.0512 137.534 588.868
-66.9924 138.468 588.351
-66.9337 139.401 587.836
-66.6416 139.842 585.271
-66.5255 140.646 584.251
-66.1223 140.835 580.71
-66.0651 141.754 580.208
-66.008 142.671 579.706
-65.8941 143.462 578.706
-65.724 144.127 577.212
-65.6111 144.913 576.22
-65.2746 145.197 573.265
-65.1077 145.851 571.799
-64.6666 145.882 567.926
-64.6119 146.776 567.445
-64.4484 147.419 566.009
-64.394 148.309 565.532
-64.2315 148.946 564.105
-63.8023 148.956 560.335
-63.6427 149.586 558.934
-63.484 150.212 557.54
-63.484 151.212 557.54
-63.4313 152.085 557.077
-63.4313 153.084 557.077
-63.0126 153.066 553.4
-62.7537 153.425 551.126
-62.7022 154.287 550.674
-62.5994 155.02 549.771
-62.5482 155.878 549.321
-62.3949 156.478 547.974
-62.2931 157.204 547.08
-62.1916 157.928 546.189
-61.7391 157.751 542.215
-61.4411 157.957 539.598
-61.3424 158.669 538.731
-61.097 158.997 536.576
-61.146 160.087 537.006
-60.9994 160.664 535.719
-60.9508 161.496 535.292
-60.8536 162.196 534.439
-60.6121 162.507 532.318
-59.572 162.533 523.183
-59.4792 163.217 522.368
-59.4329 164.025 521.961
-59.3406 164.705 521.15
-59.2485 165.383 520.342
-59.2026 166.187 519.938
-59.1567 166.99 519.536
-59.1109 167.791 519.133
-58.702 167.555 515.542
-58.4325 167.706 513.176
-58.3432 168.368 512.391
-58.3878 169.417 512.783
-58.2987 170.076 512
-58.077 170.344 510.054
-58.1655 171.52 510.831
-57.9888 171.912 509.279
-57.7259 172.041 506.969
-57.6823 172.82 506.586
-57.3358 172.685 503.544
-57.1214 172.938 501.661
-56.9935 173.449 500.538
-57.0361 174.476 500.911
-56.8662 174.852 499.42
-56.6973 175.226 497.936
-56.7395 176.25 498.306
-56.6553 176.88 497.567
-56.6553 177.773 497.567
-56.321 177.611 494.632
-55.7048 178.299 489.22
-55.3415 178.008 486.029
-55.3015 178.75 485.677
-55.1417 179.102 484.275
-55.0226 179.581 483.228
-54.6681 179.285 480.115
-54.4731 179.504 478.403
-54.4343 180.233 478.062
-54.4343 181.09 478.062
-54.3955 181.818 477.721
-54.3568 182.545 477.381
-54.3181 183.27 477.042
-54.164 183.603 475.688
-54.1257 184.326 475.351
-53.8965 184.394 473.338
-53.8205 184.982 472.671
-53.7826 185.698 472.338
-53.4439 185.37 469.363
-53.2575 185.563 467.727
-79.2918 -115.132 707.511
-79.2918 -113.863 707.511
-79.2918 -112.594 707.511
-79.2918 -111.326 707.511
-79.1248 -109.825 706.021
-79.0416 -108.445 705.279
-74.572 -92.7676 665.397
-74.572 -91.5744 665.397
-74.7203 -90.561 666.72
-75.0186 -88.5219 669.382
-75.3192 -87.6716 672.065
-75.3192 -86.4665 672.065
-75.3192 -85.2614 672.065
-75.2439 -83.9721 671.392
-75.3948 -82.9343 672.739
-75.3192 -81.6461 672.065
-75.4705 -80.6025 673.414
-75.5463 -79.4748 674.091
-75.6985 -78.4236 675.449
-75.9279 -77.4464 677.495
-76.0816 -76.3859 678.867
-76.0816 -75.1686 678.867
-76.0816 -73.9513 678.867
-76.1587 -72.8077 679.555
-76.1587 -71.5891 679.555
-76.2359 -70.442 680.244
-76.1587 -69.1521 679.555
-76.1587 -67.9335 679.555
-76.3908 -66.9184 681.626
-79.5435 -68.4074 709.757
-79.5435 -67.1347 709.757
-79.5435 -65.862 709.757
-79.4594 -64.521 709.007
-79.3755 -63.1829 708.258
-79.3755 -61.9129 708.258
-79.2918 -60.5789 707.511
-79.3755 -59.3729 708.258
-79.7122 -58.3493 711.262
-79.8816 -57.1952 712.774
-79.9666 -55.9766 713.532
-80.0518 -54.7554 714.292
-80.0518 -53.4746 714.292
-79.9666 -52.1382 713.532
-79.8816 -50.8047 712.774
-77.017 -10.7824 687.214
-77.2545 -9.57955 689.332
-77.334 -8.35207 690.042
-77.4136 -7.12205 690.752
-77.4136 -5.88343 690.752
-77.334 -4.64004 690.042
-77.6535 -3.41675 692.893
-77.5734 -2.17205 692.178
-77.334 -0.928008 690.042
-77.1752 0.308701 688.625
-76.8595 1.53719 685.808
-76.3908 3.97232 681.626
-76.2359 5.18404 680.244
-76.2359 6.40382 680.244
-76.2359 7.62359 680.244
-76.0816 8.82546 678.867
-76.0816 10.0428 678.867
-76.0816 11.2601 678.867
-76.1587 12.49 679.555
-76.1587 13.7086 679.555
-76.2359 14.9422 680.244
-76.7027 16.261 684.409
-76.8595 17.524 685.808
-76.7027 18.7154 684.409
-77.2545 22.5583 689.332
-77.1752 23.7699 688.625
-77.2545 25.0305 689.332
-77.2545 26.2665 689.332
-77.334 27.5309 690.042
-77.334 28.7682 690.042
-77.1752 29.944 688.625
-77.017 31.1149 687.214
-77.017 32.3471 687.214
-77.2545 33.683 689.332
-77.1752 34.8832 688.625
-77.2545 36.1551 689.332
-77.4136 37.4682 690.752
-77.4934 38.7467 691.464
-77.4934 39.9866 691.464
-77.4934 41.2265 691.464
-77.4136 42.4227 690.752
-77.4934 43.7063 691.464
-77.4136 44.8999 690.752
-77.334 46.091 690.042
-77.334 47.3284 690.042
-77.4136 48.6157 690.752
-77.5734 49.9573 692.178
-77.5734 51.1984 692.178
-77.5734 52.4396 692.178
-77.8143 53.8475 694.328
-77.8143 55.0925 694.328
-77.8949 56.3959 695.047
-77.8949 57.6422 695.047
-77.9757 58.9497 695.768
-78.5461 60.6376 700.857
-78.6282 61.9591 701.59
-78.5461 63.1511 700.857
-78.7106 64.5427 702.325
-78.7106 65.802 702.325
-79.1248 67.4144 706.021
-78.9586 68.5361 704.538
-78.9586 69.7994 704.538
-78.9586 71.0628 704.538
-78.9586 72.3261 704.538
-78.9586 73.5894 704.538
-78.6282 74.5396 701.59
-78.6282 75.7976 701.59
-78.3006 76.7346 698.667
-78.6282 78.3137 701.59
-78.6282 79.5718 701.59
-66.0533 137.655 589.385
-65.9374 138.468 588.351
-65.8219 139.279 587.321
-65.535 139.721 584.761
-65.4209 140.524 583.743
-65.1374 140.957 581.214
-65.081 141.877 580.71
-65.0247 142.794 580.208
-64.9685 143.71 579.706
-64.7447 144.251 577.709
-64.5778 144.913 576.22
-64.4671 145.696 575.232
-64.3567 146.476 574.247
-63.9189 146.502 570.34
-63.7022 147.025 568.407
-63.6483 147.919 567.926
-63.5944 148.811 567.445
-63.2732 149.072 564.579
-62.7451 148.831 559.867
-62.5883 149.461 558.468
-62.4843 150.212 557.54
-62.4324 151.086 557.077
-62.4324 152.085 557.077
-62.3806 152.957 556.615
-61.9181 152.814 552.488
-61.6642 153.174 550.222
-61.6642 154.16 550.222
-61.6642 155.147 550.222
-61.5632 155.878 549.321
-61.4123 156.478 547.974
-61.2621 157.076 546.634
-61.1127 157.671 545.301
-60.7669 157.751 542.215
-60.5222 158.084 540.033
-60.4735 158.924 539.598
-60.2312 159.251 537.436
-60.2312 160.215 537.436
-60.0388 160.664 535.719
-59.9909 161.496 535.292
-59.8953 162.196 534.439
-59.705 162.636 532.741
-59.6576 163.462 532.318
-59.1879 163.122 528.126
-58.6796 162.66 523.591
-58.5425 163.217 522.368
-58.4515 163.898 521.556
-58.2702 164.322 519.938
-58.2251 165.126 519.536
-58.2251 166.058 519.536
-58.0901 166.602 518.331
-57.822 166.759 515.939
-57.822 167.684 515.939
-57.5123 167.706 513.176
-57.4683 168.497 512.783
-57.5123 169.546 513.176
-57.4683 170.336 512.783
-57.3806 170.994 512
-57.4244 172.044 512.391
-57.0756 171.912 509.279
-56.7739 171.911 506.586
-56.7739 172.82 506.586
-56.3905 172.555 503.166
-56.1798 172.809 501.286
-56.096 173.449 500.538
-56.096 174.346 500.538
-55.8459 174.463 498.306
-55.8045 175.226 497.936
-55.7631 175.988 497.567
-55.929 177.407 499.048
-55.7631 177.773 497.567
-55.5981 178.136 496.095
-55.475 178.629 494.997
-54.7079 177.91 488.152
-54.47 178.008 486.029
-54.4306 178.75 485.677
-54.3126 179.231 484.625
-53.7687 178.297 479.771
-53.7687 179.157 479.771
-53.5771 179.376 478.062
-53.6153 180.362 478.403
-53.5771 181.09 478.062
-53.5771 181.948 478.062
-53.5389 182.675 477.721
-53.5008 183.401 477.381
-53.3489 183.734 476.026
-53.2733 184.326 475.351
-53.0852 184.524 473.673
-52.7869 184.332 471.012
-52.6022 184.529 469.363
-52.5287 185.111 468.707
-52.5287 185.952 468.707
-78.0231 -115.132 707.511
-78.1055 -113.983 708.258
-78.0231 -112.594 707.511
-78.0231 -111.326 707.511
-77.9409 -109.941 706.765
-77.9409 -108.674 706.765
-73.3789 -93.9608 665.397
-73.4518 -92.8597 666.058
-73.5979 -91.8478 667.384
-73.5979 -90.6511 667.384
-73.6712 -89.5435 668.048
-73.8183 -88.5219 669.382
-73.9659 -87.4963 670.72
-74.1141 -86.4665 672.065
-74.0399 -85.176 671.392
-73.892 -83.8044 670.05
-73.6712 -82.356 668.048
-74.263 -80.6025 673.414
-74.3376 -79.4748 674.091
-74.4873 -78.4236 675.449
-74.713 -77.4464 677.495
-74.8643 -76.3859 678.867
-74.7886 -75.0926 678.18
-74.8643 -73.9513 678.867
-74.8643 -72.734 678.867
-74.8643 -71.5167 678.867
-74.9401 -70.3706 679.555
-74.8643 -69.0821 678.867
-74.9401 -67.9335 679.555
-78.1055 -68.2629 708.258
-78.1881 -67.0637 709.007
-78.2708 -65.862 709.757
-78.1881 -64.521 709.007
-78.1881 -63.2497 709.007
-78.3537 -62.1096 710.509
-78.1881 -60.707 709.007
-78.4368 -59.6247 711.262
-78.6035 -58.4733 712.774
-78.6871 -57.2561 713.532
-78.6035 -55.9171 712.774
-78.6871 -54.6972 713.532
-78.7709 -53.4746 714.292
-78.3537 -51.9173 710.509
-78.0231 -50.4296 707.511
-75.4754 -10.7384 684.409
-75.7072 -9.54033 686.51
-76.0184 -8.34348 689.332
-76.0966 -7.11472 690.042
-76.0966 -5.87738 690.042
-76.0966 -4.64004 690.042
-76.2535 -3.40971 691.464
-76.175 -2.16758 690.752
-76.0184 -0.927054 689.332
-75.7847 0.308068 687.214
-75.7847 1.54034 687.214
-75.4754 2.7613 684.409
-74.9401 3.96025 679.555
-74.8643 5.17355 678.867
-74.8643 6.39085 678.867
-74.9401 7.61587 679.555
-74.8643 8.82546 678.867
-74.713 10.0225 677.495
-74.9401 11.2715 679.555
-74.8643 12.4774 678.867
-74.9401 13.7086 679.555
-75.1686 14.9726 681.626
-75.4754 16.261 684.409
-75.6298 17.524 685.808
-75.4754 18.7154 684.409
-75.4754 19.9427 684.409
-76.0184 22.5583 689.332
-75.9404 23.7699 688.625
-76.0184 25.0305 689.332
-76.0184 26.2665 689.332
-76.0184 27.5026 689.332
-76.0184 28.7387 689.332
-75.8625 29.9132 687.918
-75.7847 31.1149 687.214
-75.7847 32.3471 687.214
-76.0966 33.7176 690.042
-76.0966 34.9549 690.042
-76.0184 36.1551 689.332
-76.175 37.4682 690.752
-76.175 38.7068 690.752
-76.175 39.9454 690.752
-76.2535 41.2265 691.464
-76.175 42.4227 690.752
-76.175 43.6613 690.752
-76.175 44.8999 690.752
-76.0184 46.0437 689.332
-76.0184 47.2797 689.332
-76.0966 48.5657 690.042
-76.175 49.8544 690.752
-76.0966 51.0404 690.042
-76.0966 52.2778 690.042
-76.3322 53.6808 692.178
-76.4111 54.9787 692.893
-76.7281 56.4544 695.768
-77.0478 57.9425 698.667
-77.0478 59.1953 698.667
-77.4512 60.7646 702.325
-77.3702 61.9591 701.59
-77.4512 63.2833 702.325
-77.5324 64.6103 703.061
-77.6953 66.0094 704.538
-77.8588 67.4144 706.021
-77.8588 68.6804 706.021
-77.8588 69.9464 706.021
-77.6953 71.0628 704.538
-78.0231 72.6313 707.511
-78.0231 73.8999 707.511
-77.6953 74.8528 704.538
-64.8824 137.413 588.351
-64.8824 138.468 588.351
-64.7687 139.279 587.321
-64.599 139.965 585.782
-64.4864 140.769 584.761
-64.2065 141.202 582.223
-64.0397 141.877 580.71
-64.0397 142.918 580.71
-63.929 143.71 579.706
-63.654 144.127 577.212
-63.7088 145.287 577.709
-63.1647 145.073 572.776
-63.1108 145.976 572.287
-63.057 146.877 571.799
-62.7894 147.274 569.372
-62.683 148.044 568.407
-62.6299 148.937 567.926
-62.2609 149.072 564.579
-61.5869 148.46 558.468
-61.4335 149.089 557.077
-61.4335 150.087 557.077
-61.3825 150.961 556.615
-61.3825 151.959 556.615
-61.2808 152.704 555.692
-61.028 153.066 553.4
-60.6775 153.174 550.222
-60.6775 154.16 550.222
-60.5781 154.893 549.321
-60.3803 155.369 547.527
-60.2819 156.096 546.634
-60.2328 156.948 546.189
-59.9886 157.287 543.974
-59.843 157.878 542.654
-59.506 157.957 539.598
-59.3627 158.542 538.299
-59.0311 158.616 535.292
-59.0311 159.576 535.292
-59.0311 160.536 535.292
-58.984 161.367 534.865
-58.8432 161.938 533.588
-58.7964 162.766 533.164
-58.6101 163.203 531.474
-58.1036 162.737 526.882
-57.831 162.914 524.41
-57.6507 163.344 522.775
-57.561 164.025 521.961
-57.3379 164.322 519.938
-57.2935 165.126 519.536
-57.2491 165.929 519.133
-56.9406 165.961 516.336
-56.8969 166.759 515.939
-56.8531 167.555 515.542
-56.6355 167.834 513.568
-56.5489 168.497 512.783
-56.5921 169.546 513.176
-56.5057 170.206 512.391
-56.4625 170.994 512
-56.4625 171.912 512
-56.1624 171.912 509.279
-55.9077 172.041 506.969
-55.8655 172.82 506.586
-55.53 172.685 503.544
-55.4052 173.197 502.412
-55.2397 173.578 500.911
-55.2397 174.476 500.911
-54.9932 174.592 498.677
-54.9524 175.356 498.306
-55.1573 176.907 500.164
-55.1984 177.936 500.538
-54.9932 178.169 498.677
-54.8302 178.532 497.198
-53.7543 177.651 487.442
-53.5985 178.008 486.029
-53.5597 178.75 485.677
-53.3665 178.973 483.925
-52.9084 178.297 479.771
-52.7574 178.646 478.403
-52.7198 179.376 478.062
-52.7198 180.233 478.062
-52.6823 180.961 477.721
-52.6823 181.818 477.721
-52.6448 182.545 477.381
-52.5699 183.14 476.703
-52.4209 183.473 475.351
-52.3838 184.195 475.014
-51.8331 183.944 470.021
-51.7606 184.529 469.363
-51.7244 185.241 469.035
-76.5928 -116.155 706.021
-76.6736 -115.01 706.765
-76.6736 -113.743 706.765
-76.7544 -112.594 707.511
-76.7544 -111.326 707.511
-76.7544 -110.057 707.511
-76.7544 -108.788 707.511
-72.5456 -93.23 668.714
-72.618 -92.1228 669.382
-72.5456 -90.8318 668.714
-72.5456 -89.6328 668.714
-72.618 -88.5219 669.382
-72.618 -87.3216 669.382
-72.618 -86.1213 669.382
-72.618 -84.921 669.382
-72.5456 -83.6372 668.714
-71.7586 -81.5439 661.46
-71.4065 -79.9635 658.214
-71.3365 -78.706 657.569
-73.2024 -79.5547 674.769
-73.4982 -78.6613 677.495
-73.5725 -77.5247 678.18
-73.647 -76.3859 678.867
-73.647 -75.1686 678.867
-73.7216 -74.0262 679.555
-73.7216 -72.8077 679.555
-73.7964 -71.6617 680.244
-73.8713 -70.5135 680.934
-73.7964 -69.2222 680.244
-73.7216 -67.9335 679.555
-73.7216 -66.715 679.555
-76.7544 -68.1909 707.511
-76.8355 -66.9929 708.258
-76.9167 -65.7924 709.007
-76.9167 -64.521 709.007
-77.1614 -63.4509 711.262
-77.2433 -62.2415 712.017
-77.2433 -60.9648 712.017
-77.3254 -59.7515 712.774
-77.4077 -58.5355 713.532
-77.4077 -57.2561 713.532
-77.3254 -55.9171 712.774
-77.4901 -54.7554 714.292
-77.7385 -53.646 716.582
-77.0797 -51.9173 710.509
-76.7544 -50.4296 707.511
-74.1725 -16.8574 683.711
-74.1725 -15.6314 683.711
-74.0216 -14.3761 682.32
-73.8713 -13.1259 680.934
-74.097 -11.9412 683.015
-74.1725 -10.7274 683.711
-74.324 -9.52085 685.108
-74.6289 -8.32637 687.918
-74.7823 -7.10741 689.332
-74.8593 -5.87738 690.042
-74.9364 -4.64482 690.752
-75.2463 -3.42029 693.609
-75.091 -2.17205 692.178
-74.8593 -0.928008 690.042
-74.7823 0.309018 689.332
-74.7055 1.5435 688.625
-74.2482 2.7613 684.409
-73.7216 3.96025 679.555
-73.7216 5.17879 679.555
-73.7216 6.39733 679.555
-73.647 7.60816 678.867
-73.647 8.82546 678.867
-73.5725 10.0326 678.18
-73.647 11.2601 678.867
-73.647 12.4774 678.867
-73.4982 13.667 677.495
-74.2482 15.0337 684.409
-74.324 16.2776 685.108
-74.5525 17.5599 687.214
-74.4762 18.7729 686.51
-74.5525 20.0244 687.214
-74.5525 21.2567 687.214
-74.6289 23.7456 687.918
-74.6289 24.9791 687.918
-74.7055 26.2396 688.625
-74.7823 27.5026 689.332
-74.7823 28.7387 689.332
-74.4762 29.852 686.51
-74.4 31.0512 685.808
-74.8593 32.4803 690.042
-74.9364 33.7523 690.752
-74.8593 34.9549 690.042
-74.8593 36.1923 690.042
-74.9364 37.4682 690.752
-74.9364 38.7068 690.752
-74.9364 39.9454 690.752
-74.9364 41.184 690.752
-74.9364 42.4227 690.752
-74.9364 43.6613 690.752
-74.9364 44.8999 690.752
-75.1686 46.2815 692.893
-74.8593 47.3284 690.042
-75.1686 48.7664 692.893
-74.8593 49.8031 690.042
-74.8593 51.0404 690.042
-74.8593 52.2778 690.042
-75.1686 53.7362 692.893
-76.1121 59.443 701.59
-76.4319 60.956 704.538
-76.2717 62.089 703.061
-76.2717 63.3496 703.061
-76.4319 64.7461 704.538
-76.7544 66.2879 707.511
-76.6736 67.4854 706.765
-76.7544 68.8253 707.511
-76.7544 70.0939 707.511
-76.7544 71.3626 707.511
-76.7544 72.6313 707.511
-76.9167 74.0562 709.007
-77.0797 75.4871 710.509
-63.9396 137.655 589.385
-63.7714 138.347 587.836
-63.4932 138.793 585.271
-63.3826 139.599 584.251
-63.3826 140.646 584.251
-63.1625 141.202 582.223
-62.9985 141.877 580.71
-62.9985 142.918 580.71
-62.944 143.835 580.208
-62.5113 143.879 576.22
-62.4577 144.788 575.726
-62.1377 145.073 572.776
-62.0847 145.976 572.287
-61.8209 146.378 569.856
-61.716 147.149 568.889
-61.5594 147.793 567.445
-61.4035 148.434 566.009
-61.043 148.572 562.685
-60.6866 148.707 559.4
-60.5351 149.337 558.004
-60.4848 150.212 557.54
-60.4346 151.086 557.077
-60.4848 152.212 557.54
-60.4346 153.084 557.077
-60.1349 153.319 554.314
-59.642 153.048 549.771
-59.642 154.034 549.771
-59.4957 154.64 548.422
-59.3017 155.116 546.634
-59.3017 156.096 546.634
-59.2052 156.82 545.745
-58.9176 157.032 543.093
-58.5855 157.116 540.033
-58.4913 157.83 539.164
-58.2106 158.034 536.576
-57.9325 158.237 534.013
-58.0712 159.576 535.292
-57.9787 160.28 534.439
-58.0249 161.367 534.865
-57.9325 162.067 534.013
-57.8404 162.766 533.164
-57.7486 163.462 532.318
-57.114 162.61 526.468
-56.8907 162.914 524.41
-56.7133 163.344 522.775
-56.6692 164.153 522.368
-56.3619 164.195 519.536
-56.3183 164.999 519.133
-56.2747 165.801 518.732
-56.0148 165.961 516.336
-55.9717 166.759 515.939
-55.9717 167.684 515.939
-55.8428 168.221 514.751
-55.7146 168.755 513.568
-55.7146 169.676 513.568
-55.6719 170.467 513.176
-55.6719 171.387 513.176
-55.6294 172.175 512.783
-55.5444 172.83 512
-55.3332 173.088 510.054
-55.2912 173.87 509.666
-54.9156 173.597 506.204
-54.627 173.588 503.544
-54.5861 174.36 503.166
-54.3821 174.607 501.286
-53.9786 174.204 497.567
-53.9786 175.096 497.567
-53.9786 175.988 497.567
-53.8588 176.488 496.462
-53.6998 176.854 494.997
-53.5812 177.349 493.903
-52.8418 177.522 487.088
-52.7652 178.137 486.382
-52.727 178.88 486.029
-52.5366 179.102 484.275
-52.0109 178.169 479.428
-51.9737 178.901 479.086
-51.8626 179.376 478.062
-51.8996 180.362 478.403
-51.8626 181.09 478.062
-51.8256 181.818 477.721
-51.7888 182.545 477.381
-51.7151 183.14 476.703
-51.6051 183.603 475.688
-51.532 184.195 475.014
-75.1686 -115.911 704.538
-75.3269 -114.889 706.021
-75.4062 -113.743 706.765
-70.6422 -94.6842 662.113
-70.6422 -93.497 662.113
-70.852 -92.5839 664.08
-70.9926 -91.5744 665.397
-71.1337 -90.561 666.72
-71.1337 -89.3655 666.72
-71.2754 -88.3456 668.048
-70.852 -86.63 664.08
-70.712 -85.2703 662.767
-70.6422 -83.9989 662.113
-70.5725 -82.7299 661.46
-70.3643 -81.3033 659.509
-70.2262 -79.9635 658.214
-70.0887 -78.6289 656.925
-72.3564 -78.7408 678.18
-72.4297 -77.6032 678.867
-72.4297 -76.3859 678.867
-72.5031 -75.2448 679.555
-72.6503 -74.1765 680.934
-72.9465 -73.253 683.711
-73.0955 -72.1741 685.108
-73.0955 -70.9457 685.108
-73.0209 -69.646 684.409
-72.9465 -68.349 683.711
-75.4858 -69.4596 707.511
-75.4858 -68.1909 707.511
-75.5655 -66.9929 708.258
-75.5655 -65.7229 708.258
-75.5655 -64.4529 708.258
-75.6454 -63.2497 709.007
-75.9666 -62.2415 712.017
-75.9666 -60.9648 712.017
-76.0473 -59.7515 712.774
-76.0473 -58.4733 712.774
-76.1282 -57.2561 713.532
-76.1282 -55.9766 713.532
-76.2093 -54.7554 714.292
-76.4535 -53.646 716.582
-76.2093 -52.1937 714.292
-76.2093 -50.9129 714.292
-71.7039 -46.6979 672.065
-71.8479 -45.5842 673.414
-71.2754 -44.023 668.048
-73.0209 -34.056 684.409
-72.8722 -32.7619 683.015
-72.5031 -31.3774 679.555
-72.2104 -30.0371 676.812
-72.7981 -18.0466 682.32
-73.0209 -16.8746 684.409
-73.0209 -15.6473 684.409
-72.9465 -14.4054 683.711
-72.9465 -13.1794 683.711
-73.0209 -11.9656 684.409
-73.0955 -10.7493 685.108
-73.1702 -9.53058 685.808
-73.3954 -8.32637 687.918
-73.5463 -7.10741 689.332
-73.5463 -5.87134 689.332
-73.5463 -4.63527 689.332
-73.6219 -3.40269 690.042
-73.6219 -2.16535 690.042
-73.3202 -0.924204 687.214
-73.1702 0.307438 685.808
-73.2451 1.53876 686.51
-73.0955 2.76412 685.108
-72.5766 3.96427 680.244
-72.5031 5.17879 679.555
-72.5031 6.39733 679.555
-72.5766 7.62359 680.244
-72.5031 8.83441 679.555
-72.4297 10.0428 678.867
-72.5031 11.2715 679.555
-72.5031 12.49 679.555
-72.5766 13.7225 680.244
-73.0209 15.0337 684.409
-73.1702 16.2942 685.808
-73.4707 17.5959 688.625
-73.5463 18.8501 689.332
-73.3202 20.0244 687.214
-73.3202 21.2567 687.214
-73.0955 22.4201 685.108
-73.1702 23.6727 685.808
-73.1702 24.9025 685.808
-73.1702 26.1322 685.808
-73.2451 27.39 686.51
-73.3954 28.6797 687.918
-73.0955 29.791 685.108
-73.0209 30.9879 684.409
-73.3202 32.3471 687.214
-73.6219 33.7176 690.042
-73.6219 34.9549 690.042
-73.6977 36.2296 690.752
-73.8499 37.5455 692.178
-73.7737 38.7467 691.464
-73.8499 40.0279 692.178
-73.8499 41.269 692.178
-73.8499 42.5102 692.178
-74.0792 43.8873 694.328
-74.156 45.1791 695.047
-74.31 46.5218 696.491
-74.156 47.6717 695.047
-74.156 48.918 695.047
-74.0792 50.1124 694.328
-73.9261 51.2513 692.893
-73.7737 52.3855 691.464
-73.7737 53.6254 691.464
-75.1686 59.6927 704.538
-75.1686 60.956 704.538
-75.1686 62.2194 704.538
-75.011 63.3496 703.061
-75.1686 64.7461 704.538
-75.3269 66.1484 706.021
-75.4858 67.5566 707.511
-75.4858 68.8253 707.511
-75.4858 70.0939 707.511
-75.4858 71.3626 707.511
-75.8056 72.939 710.509
-76.1282 74.5289 713.532
-76.1282 75.8083 713.532
-62.3893 137.623 584.761
-62.3349 138.551 584.251
-62.3349 139.599 584.251
-62.3893 140.769 584.761
-62.2807 141.571 583.743
-62.0646 142.123 581.718
-61.9572 142.918 580.71
-61.9036 143.835 580.208
-61.5839 144.127 577.212
-61.4781 144.913 576.22
-61.0064 144.826 571.799
-61.0064 145.851 571.799
-60.7991 146.378 569.856
-60.6959 147.149 568.889
-60.5931 147.919 567.926
-60.3886 148.434 566.009
-60.1349 148.821 563.631
-59.8332 149.08 560.803
-59.7832 149.96 560.335
-59.5841 150.462 558.468
-59.485 151.212 557.54
-59.4356 152.085 557.077
-59.2388 152.577 555.232
-58.8491 152.563 551.579
-58.6081 152.923 549.321
-58.6081 153.908 549.321
-58.3691 154.261 547.08
-58.3215 155.116 546.634
-58.274 155.969 546.189
-57.8969 155.932 542.654
-57.7567 156.525 541.34
-57.5708 156.989 539.598
-57.4783 157.703 538.731
-57.4322 158.542 538.299
-57.1113 158.616 535.292
-57.1113 159.576 535.292
-57.0658 160.408 534.865
-57.0203 161.238 534.439
-56.8392 161.681 532.741
-56.4803 161.61 529.377
-56.3913 162.303 528.542
-56.1259 162.482 526.055
-55.9941 163.042 524.82
-55.7759 163.344 522.775
-55.7325 164.153 522.368
-55.4733 164.322 519.938
-55.4303 165.126 519.536
-55.3446 165.801 518.732
-55.1739 166.217 517.132
-55.1314 167.016 516.734
-55.1739 168.072 517.132
-55.0042 168.479 515.542
-54.9198 169.144 514.751
-54.962 170.197 515.146
-54.8356 170.728 513.962
-54.8356 171.649 513.962
-54.9198 172.836 514.751
-54.8777 173.626 514.356
-54.5015 173.352 510.831
-54.4186 174.002 510.054
-54.1715 174.123 507.737
-54.0487 174.636 506.586
-53.7645 174.622 503.922
-53.4432 174.476 500.911
-53.0864 174.204 497.567
-53.0078 174.837 496.83
-52.8512 175.208 495.362
-52.7732 175.837 494.632
-52.7344 176.594 494.267
-52.5408 176.828 492.453
-52.5022 177.581 492.091
-52.234 177.552 489.577
-52.0819 177.91 488.152
-51.9684 178.396 487.088
-51.893 179.009 486.382
-51.8179 179.621 485.677
-51.2979 178.68 480.803
-51.2244 179.285 480.115
-51.0782 179.632 478.744
-51.1512 180.749 479.428
-51.0417 181.22 478.403
-50.969 181.818 477.721
-50.969 182.675 477.721
-50.9328 183.401 477.381
-50.7882 183.734 476.026
-50.7162 184.326 475.351
-69.4549 -94.6842 662.113
-69.4549 -93.497 662.113
-69.5235 -92.4009 662.767
-69.5923 -91.3027 663.423
-69.6612 -90.2023 664.08
-69.6612 -89.0115 664.08
-69.7302 -87.9078 664.738
-69.6612 -86.63 664.08
-69.5235 -85.2703 662.767
-69.5235 -84.0819 662.767
-69.5235 -82.8934 662.767
-69.0459 -79.9635 658.214
-68.9783 -78.706 657.569
-68.9783 -77.5268 657.569
-70.7114 -78.266 674.091
-70.9968 -77.3683 676.812
-71.1404 -76.3087 678.18
-71.2124 -75.1686 678.867
-71.2845 -74.0262 679.555
-71.5018 -73.0297 681.626
-71.2845 -71.5891 679.555
-71.2845 -70.3706 679.555
-71.2845 -69.1521 679.555
-71.2124 -67.8648 678.867
-74.2171 -68.1909 707.511
-74.2955 -66.9929 708.258
-74.2955 -65.7229 708.258
-74.374 -64.521 709.007
-74.5316 -63.3837 710.509
-74.7692 -62.3077 712.774
-74.7692 -61.0296 712.774
-74.7692 -59.7515 712.774
-74.7692 -58.4733 712.774
-74.8487 -57.2561 713.532
-74.8487 -55.9766 713.532
-74.9285 -54.7554 714.292
-74.9285 -53.4746 714.292
-74.9285 -52.1937 714.292
-70.5695 -46.7448 672.739
-70.5695 -45.5385 672.739
-70.2174 -44.1109 669.382
-70.0775 -42.8251 668.048
-70.0775 -41.6272 668.048
-70.0775 -40.4293 668.048
-71.7937 -32.8287 684.409
-71.4292 -31.4411 680.934
-71.3568 -30.1894 680.244
-71.2845 -28.9403 679.555
-71.2124 -27.6937 678.867
-71.2845 -26.5032 679.555
-71.2124 -25.2591 678.867
-71.5018 -24.1395 681.626
-71.5018 -22.9173 681.626
-71.5018 -21.695 681.626
-71.5018 -20.4727 681.626
-71.5018 -19.2505 681.626
-71.6475 -18.065 683.015
-71.7205 -16.8574 683.711
-71.7205 -15.6314 683.711
-71.6475 -14.3907 683.015
-71.5746 -13.1526 682.32
-71.7205 -11.9534 683.711
-72.0879 -10.7824 687.214
-71.9405 -9.53058 685.808
-72.2359 -8.33492 688.625
-72.3102 -7.10741 689.332
-72.3102 -5.87134 689.332
-72.2359 -4.63051 688.625
-72.3846 -3.40269 690.042
-72.3102 -2.16313 689.332
-72.0141 -0.923258 686.51
-71.867 0.307124 685.108
-71.867 1.53562 685.108
-71.867 2.76412 685.108
-71.5746 3.97637 682.32
-71.2845 5.17879 679.555
-71.3568 6.40382 680.244
-71.4292 7.63133 680.934
-71.4292 8.85234 680.934
-71.3568 10.0631 680.244
-71.4292 11.2944 680.934
-71.6475 12.5536 683.015
-71.867 13.8206 685.108
-71.9405 15.0645 685.808
-72.2359 16.3611 688.625
-72.3102 17.614 689.332
-72.3102 18.8501 689.332
-72.3846 20.1068 690.042
-72.3846 21.3442 690.042
-72.3846 22.5815 690.042
-72.3846 23.8189 690.042
-72.3102 25.0305 689.332
-72.1619 26.2126 687.918
-72.0879 27.4181 687.214
-72.1619 28.6797 687.918
-71.9405 29.8215 685.808
-72.0879 31.1149 687.214
-72.2359 32.4136 688.625
-72.3846 33.7176 690.042
-72.3846 34.9549 690.042
-72.3846 36.1923 690.042
-72.5338 37.5068 691.464
-72.5338 38.7467 691.464
-72.6087 40.0279 692.178
-72.6837 41.3117 692.893
-72.6087 42.5102 692.178
-72.7589 43.8419 693.609
-72.9097 45.1791 695.047
-73.0611 46.5218 696.491
-72.9097 47.6717 695.047
-72.8342 48.8674 694.328
-72.6837 50.0089 692.893
-72.5338 51.1457 691.464
-73.9053 58.4294 704.538
-74.0609 59.8184 706.021
-74.2171 61.2133 707.511
-73.9053 62.2194 704.538
-74.2171 63.7506 707.511
-74.2171 65.0193 707.511
-74.5316 66.5688 710.509
-74.5316 67.8428 710.509
-74.8487 69.411 713.532
-74.5316 70.3909 710.509
-74.374 71.5135 709.007
-61.4479 137.864 585.782
-61.3407 138.672 584.761
-61.3407 139.721 584.761
-61.3407 140.769 584.761
-61.2873 141.694 584.251
-61.1807 142.494 583.235
-61.1807 143.539 583.235
-60.393 142.724 575.726
-60.1863 143.264 573.756
-60.0835 144.046 572.776
-59.9811 144.826 571.799
-59.93 145.727 571.312
-59.7772 146.378 569.856
-59.6758 147.149 568.889
-59.5244 147.793 567.445
-59.3737 148.434 566.009
-59.2237 149.072 564.579
-59.0746 149.706 563.157
-58.8276 150.086 560.803
-58.4853 150.212 557.54
-58.3882 150.961 556.615
-58.0989 151.206 553.857
-58.0031 151.948 552.943
-57.6703 152.062 549.771
-57.3413 152.175 546.634
-57.3413 153.155 546.634
-57.248 153.885 545.745
-57.2015 154.737 545.301
-57.0623 155.336 543.974
-56.8778 155.806 542.215
-56.786 156.525 541.34
-56.6488 157.116 540.033
-56.5123 157.703 538.731
-56.5577 158.797 539.164
-56.1067 158.489 534.865
-55.9283 158.942 533.164
-55.8839 159.771 532.741
-55.8839 160.726 532.741
-55.751 161.297 531.474
-55.4872 161.482 528.959
-55.2693 161.793 526.882
-55.1393 162.355 525.643
-55.0962 163.169 525.231
-54.967 163.727 524
-54.7958 164.153 522.368
-54.5409 164.322 519.938
-54.4987 165.126 519.536
-54.4565 165.929 519.133
-54.2884 166.345 517.531
-54.2048 167.016 516.734
-54.2884 168.201 517.531
-54.1214 168.609 515.939
-54.0798 169.404 515.542
-54.0798 170.328 515.542
-53.9968 170.99 514.751
-54.0383 172.045 515.146
-54.0798 173.102 515.542
-54.0798 174.026 515.542
-53.7083 173.748 512
-53.504 174.002 510.054
-53.3418 174.387 508.507
-53.3823 175.431 508.893
-53.3014 176.077 508.122
-52.5058 174.346 500.538
-52.1555 174.075 497.198
-52.1169 174.837 496.83
-51.9246 175.079 494.997
-51.8863 175.837 494.632
-51.8481 176.594 494.267
-51.6577 176.828 492.453
-51.582 177.451 491.731
-51.4311 177.811 490.293
-51.2812 178.169 488.863
-51.0579 178.266 486.735
-51.0209 179.009 486.382
-50.947 179.621 485.677
-50.5807 179.194 482.186
-50.3996 179.414 480.459
-50.2556 179.76 479.086
-50.2915 180.749 479.428
-50.2197 181.349 478.744
-50.1481 181.948 478.062
-50.1124 182.675 477.721
-50.0767 183.401 477.381
-49.9346 183.734 476.026
-49.8638 184.326 475.351
-68.2676 -92.3097 662.113
-68.2676 -91.1225 662.113
-68.3351 -90.0241 662.767
-68.3351 -88.8356 662.767
-68.2676 -87.5607 662.113
-68.2003 -86.2882 661.46
-68.0661 -84.9346 660.158
-67.9991 -83.6685 659.509
-67.9991 -82.4859 659.509
-67.8657 -81.1437 658.214
-67.8657 -79.9635 658.214
-67.7991 -78.706 657.569
-67.7991 -77.5268 657.569
-67.7991 -76.3477 657.569
-67.7991 -75.1686 657.569
-69.7128 -76.0779 676.129
-69.9243 -75.0926 678.18
-69.9951 -73.9513 678.867
-69.9951 -69.0821 678.867
-70.066 -67.9335 679.555
-70.066 -66.715 679.555
-73.0255 -65.7229 708.258
-73.18 -64.5893 709.757
-73.4911 -63.5858 712.774
-73.5693 -62.3739 713.532
-73.5693 -61.0945 713.532
-73.5693 -59.815 713.532
-73.5693 -58.5355 713.532
-73.5693 -57.2561 713.532
-73.6476 -56.0362 714.292
-73.7261 -54.8138 715.054
-73.7261 -53.5316 715.054
-73.6476 -52.1937 714.292
-69.2937 -47.903 672.065
-69.2937 -46.6979 672.065
-69.3632 -45.5385 672.739
-68.9483 -44.0669 668.714
-68.8796 -42.8251 668.048
-68.8796 -41.6272 668.048
-68.8111 -40.3891 667.384
-68.8796 -39.2314 668.048
-70.4945 -34.0213 683.711
-70.4227 -32.7619 683.015
-70.2796 -31.473 681.626
-70.066 -30.1588 679.555
-70.066 -28.9403 679.555
-69.9243 -27.6657 678.18
-70.2796 -26.584 681.626
-70.6385 -25.4913 685.108
-70.6385 -24.2628 685.108
-70.6385 -23.0343 685.108
-70.7107 -21.8281 685.808
-70.5664 -20.5563 684.409
-70.4945 -19.3094 683.711
-70.4227 -18.065 683.015
-70.137 -16.7719 680.244
-70.137 -15.5521 680.244
-70.066 -14.3178 679.555
-70.066 -13.0993 679.555
-70.4227 -11.9412 683.015
-70.4945 -10.7274 683.711
-70.4945 -9.50143 683.711
-70.6385 -8.29235 685.108
-71.0011 -7.10011 688.625
-71.0741 -5.87134 689.332
-70.9283 -4.62576 687.918
-71.0741 -3.3992 689.332
-71.0741 -2.16313 689.332
-70.9283 -0.925152 687.918
-70.7831 0.307753 686.51
-70.7831 1.53876 686.51
-70.7107 2.76694 685.808
-70.4945 3.98447 683.711
-70.137 5.18404 680.244
-70.137 6.40382 680.244
-70.137 7.62359 680.244
-70.2082 8.85234 680.934
-70.066 10.0529 679.555
-70.137 11.2829 680.244
-70.2796 12.5281 681.626
-70.5664 13.8065 684.409
-70.7107 15.0645 685.808
-71.0011 16.3611 688.625
-71.0741 17.614 689.332
-71.0741 18.8501 689.332
-71.0741 20.0862 689.332
-71.0741 21.3222 689.332
-71.0741 22.5583 689.332
-71.1472 23.8189 690.042
-71.4412 25.1597 692.893
-71.2939 26.3478 691.464
-71.4412 27.6447 692.893
-71.3675 28.8573 692.178
-71.2205 30.0365 690.752
-71.2205 31.2751 690.752
-71.2205 32.5137 690.752
-71.2205 33.7523 690.752
-71.2205 34.9909 690.752
-71.3675 36.3043 692.178
-71.2939 37.5068 691.464
-71.1472 38.667 690.042
-71.1472 39.9043 690.042
-71.4412 41.3117 692.893
-71.1472 42.379 690.042
-71.1472 43.6164 690.042
-71.2939 44.9462 691.464
-71.7377 46.4735 695.768
-71.7377 47.7211 695.768
-71.7377 48.9688 695.768
-71.7377 50.2164 695.768
-72.9484 59.9446 707.511
-73.1027 61.3427 709.007
-73.1027 62.614 709.007
-73.1027 63.8854 709.007
-73.2575 65.2948 710.509
-73.2575 66.5688 710.509
-73.2575 67.8428 710.509
-60.6092 137.293 587.836
-60.5561 138.226 587.321
-60.5032 139.157 586.807
-60.3448 139.842 585.271
-60.4503 141.138 586.294
-60.2396 141.694 584.251
-59.9264 142 581.214
-59.8228 142.794 580.208
-59.4116 142.846 576.22
-59.3097 143.633 575.232
-59.2081 144.416 574.247
-59.0061 144.95 572.287
-59.0061 145.976 572.287
-58.8554 146.627 570.826
-58.606 147.025 568.407
-58.2604 147.171 565.055
-58.2114 148.059 564.579
-58.1624 148.946 564.105
-57.4855 149.212 557.54
-57.4378 150.087 557.077
-57.3901 150.961 556.615
-57.153 151.331 554.314
-56.9647 151.823 552.488
-56.731 152.187 550.222
-56.4532 152.424 547.527
-56.3611 153.155 546.634
-56.2237 153.76 545.301
-56.0414 154.236 543.534
-55.9507 154.959 542.654
-55.6804 155.179 540.033
-55.7703 156.399 540.904
-55.5909 156.863 539.164
-55.4572 157.45 537.867
-55.4128 158.288 537.436
-55.0598 158.237 534.013
-54.9723 158.942 533.164
-54.9723 159.898 533.164
-54.9286 160.726 532.741
-54.8415 161.425 531.896
-54.5818 161.61 529.377
-54.4958 162.303 528.542
-54.2393 162.482 526.055
-54.1544 163.169 525.231
-54.112 163.983 524.82
-53.9011 164.281 522.775
-53.7336 164.705 521.15
-53.5671 165.126 519.536
-53.4429 165.673 518.331
-53.3604 166.345 517.531
-53.3193 167.144 517.132
-53.3604 168.201 517.531
-53.1962 168.609 515.939
-53.1553 169.404 515.542
-53.1553 170.328 515.542
-52.9924 170.728 513.962
-52.9113 171.387 513.176
-52.5495 171.129 509.666
-52.5894 172.173 510.054
-52.5894 173.088 510.054
-52.5894 174.002 510.054
-52.5495 174.784 509.666
-52.5894 175.832 510.054
-51.5698 173.319 500.164
-51.4164 173.698 498.677
-51.264 174.075 497.198
-51.226 174.837 496.83
-51.037 175.079 494.997
-50.9993 175.837 494.632
-50.9242 176.464 493.903
-50.7374 176.699 492.091
-50.6631 177.321 491.37
-50.589 177.941 490.651
-50.3679 178.04 488.507
-50.1851 178.266 486.735
-50.1124 178.88 486.029
-50.0399 179.491 485.326
-49.7877 179.452 482.88
-49.5736 179.543 480.803
-49.4672 180.018 479.771
-49.4672 180.878 479.771
-49.3965 181.478 479.086
-49.2909 181.948 478.062
-49.2558 182.675 477.721
-49.2207 183.401 477.381
-49.1158 183.864 476.364
-67.0804 -94.6842 662.113
-66.9482 -93.3127 660.808
-67.0804 -92.3097 662.113
-66.9482 -90.9429 660.808
-66.9482 -89.758 660.808
-66.9482 -88.5731 660.808
-66.9482 -87.3881 660.808
-66.9482 -86.2032 660.808
-66.8165 -84.8511 659.509
-66.8165 -83.6685 659.509
-66.8165 -82.4859 659.509
-66.6854 -81.1437 658.214
-66.6854 -79.9635 658.214
-66.5548 -78.6289 656.925
-66.62 -77.5268 657.569
-66.5548 -76.2729 656.925
-66.62 -75.1686 657.569
-66.8823 -74.2808 660.158
-68.8474 -74.0262 679.555
-68.7778 -69.0821 678.867
-68.7778 -67.8648 678.867
-68.8474 -65.4965 679.555
-71.7555 -65.7229 708.258
-71.8313 -64.521 709.007
-72.2898 -63.6534 713.532
-72.2898 -62.3739 713.532
-72.2898 -61.0945 713.532
-72.2898 -59.815 713.532
-72.3668 -58.5979 714.292
-72.3668 -57.3171 714.292
-72.3668 -56.0362 714.292
-72.3668 -54.7554 714.292
-72.2898 -53.4177 713.532
-72.2898 -52.1382 713.532
-68.2253 -47.9992 673.414
-68.2253 -46.7917 673.414
-68.2253 -45.5842 673.414
-67.7492 -44.0669 668.714
-67.7492 -42.8678 668.714
-67.6817 -41.6272 668.048
-67.6817 -40.4293 668.048
-67.6817 -39.2314 668.048
-69.198 -33.9866 683.015
-68.9173 -32.629 680.244
-68.8474 -31.3774 679.555
-68.7778 -30.1283 678.867
-68.7778 -28.911 678.867
-68.6388 -27.6377 677.495
-68.7778 -26.4764 678.867
-68.7778 -25.2591 678.867
-69.3392 -24.238 684.409
-69.3392 -23.0108 684.409
-69.3392 -21.7836 684.409
-69.0573 -20.4727 681.626
-68.8474 -19.192 679.555
-68.9173 -17.9917 680.244
-68.9173 -16.7719 680.244
-68.9872 -15.5679 680.934
-68.9173 -14.3323 680.244
-68.9173 -13.1126 680.244
-69.2685 -11.9534 683.711
-69.198 -10.7165 683.015
-69.198 -9.49176 683.015
-69.2685 -8.27544 683.711
-69.3392 -7.05664 684.409
-69.198 -5.81753 683.015
-69.41 -4.60686 685.108
-69.7663 -3.39571 688.625
-69.7663 -2.1609 688.625
-69.481 -0.922314 685.808
-69.481 0.307438 685.808
-69.481 1.53719 685.808
-69.481 2.76694 685.808
-69.2685 3.98447 683.711
-69.0573 5.19458 681.626
-68.9872 6.41032 680.934
-68.9173 7.62359 680.244
-68.9872 8.85234 680.934
-68.9173 10.0631 680.244
-69.0573 11.3058 681.626
-69.0573 12.5281 681.626
-69.198 13.7784 683.015
-69.481 15.0645 685.808
-69.9099 16.3948 690.042
-69.9819 17.6503 690.752
-69.9819 18.8889 690.752
-69.9819 20.1275 690.752
-70.1263 21.4103 692.178
-70.054 22.6281 691.464
-70.1988 23.9173 692.893
-70.417 25.238 695.047
-70.417 26.4843 695.047
-70.417 27.7306 695.047
-70.417 28.9769 695.047
-70.3441 30.1919 694.328
-70.1988 31.372 692.893
-69.9819 32.5137 690.752
-69.9099 33.7176 690.042
-70.1988 35.0994 692.893
-70.4901 36.4926 695.768
-70.417 37.7011 695.047
-70.1988 38.8268 692.893
-70.2714 40.1106 693.609
-70.2714 41.3544 693.609
-70.054 42.4664 691.464
-70.054 43.7063 691.464
-70.1988 45.039 692.893
-70.4901 46.4735 695.768
-70.4901 47.7211 695.768
-70.4901 48.9688 695.768
-71.9835 61.4726 710.509
-71.9835 62.7467 710.509
-71.9835 64.0207 710.509
-72.2898 65.5726 713.532
-71.9835 66.5688 710.509
-72.2898 68.1315 713.532
-72.2898 69.411 713.532
-59.6074 136.358 588.351
-59.5551 137.293 587.836
-59.503 138.226 587.321
-59.2436 138.672 584.761
-59.192 139.599 584.251
-59.192 140.646 584.251
-59.192 141.694 584.251
-58.9865 142.246 582.223
-58.7824 142.794 580.208
-58.4789 143.092 577.212
-58.3784 143.879 576.22
-58.2782 144.664 575.232
-58.0294 145.073 572.776
-58.0294 146.101 572.776
-57.538 145.882 567.926
-57.2955 146.281 565.532
-57.2472 147.171 565.055
-57.2472 148.184 565.055
-57.199 149.072 564.579
-57.1509 149.958 564.105
-56.8639 150.211 561.272
-56.7689 150.965 560.335
-56.3921 150.961 556.615
-56.252 151.582 555.232
-56.0664 152.074 553.4
-55.7902 152.312 550.674
-55.6987 153.048 549.771
-55.5167 153.531 547.974
-55.2459 153.76 545.301
-55.0222 154.111 543.093
-54.7562 154.335 540.468
-54.6241 154.929 539.164
-54.6241 155.896 539.164
-54.5803 156.737 538.731
-54.4055 157.198 537.006
-54.3619 158.034 536.576
-54.1885 158.489 534.865
-54.0162 158.942 533.164
-54.0162 159.898 533.164
-53.9733 160.726 532.741
-53.548 160.407 528.542
-53.548 161.355 528.542
-53.3378 161.666 526.468
-53.2542 162.355 525.643
-53.2125 163.169 525.231
-53.1709 163.983 524.82
-53.005 164.409 523.183
-52.8813 164.961 521.961
-52.6355 165.126 519.536
-52.5135 165.673 518.331
-52.392 166.217 517.132
-52.3516 167.016 516.734
-52.3516 167.942 516.734
-52.1908 168.35 515.146
-52.0708 168.885 513.962
-52.0309 169.676 513.568
-51.8721 170.076 512
-51.7536 170.604 510.831
-51.5964 170.999 509.279
-51.6356 172.042 509.666
-51.6748 173.088 510.054
-51.6748 174.002 510.054
-51.3236 173.728 506.586
-51.6748 175.832 510.054
-50.6729 173.319 500.164
-50.4847 173.569 498.306
-50.3351 173.946 496.83
-50.3724 174.966 497.198
-50.2235 175.338 495.728
-50.1494 175.967 494.997
-50.0755 176.594 494.267
-49.8916 176.828 492.453
-49.782 177.321 491.37
-49.6728 177.811 490.293
-49.4199 177.781 487.797
-49.2766 178.137 486.382
-49.2409 178.88 486.029
-49.1341 179.361 484.975
-48.9924 179.711 483.576
-48.9218 180.318 482.88
-48.6765 180.275 480.459
-48.6417 181.007 480.115
-48.5721 181.608 479.428
-48.4682 182.077 478.403
-48.4337 182.805 478.062
-48.3992 183.531 477.721
-48.159 183.473 475.351
-47.8201 183.028 472.006
-47.7529 183.616 471.343
-47.6525 184.073 470.351
