ply
format ascii 1.0
element vertex 1998
property float x
property float y
property float z
end_header
175.796 40.1089 634.551
175.464 41.1688 633.353
175.464 42.3045 633.353
175.299 43.3992 632.755
173.337 44.0353 625.672
172.532 44.9476 622.767
172.212 45.9789 621.613
172.053 47.05 621.037
171.735 49.1861 619.889
171.576 50.2512 619.317
171.102 51.2199 617.606
169.078 52.8027 610.301
168.16 53.6044 606.987
167.705 54.5447 605.343
167.553 55.58 604.797
167.403 56.6135 604.253
167.403 57.697 604.253
166.801 58.5694 602.083
164.44 61.9975 593.558
164.294 63.006 593.033
164.149 64.0128 592.509
164.004 65.0179 591.986
162.997 65.6736 588.351
162.569 66.5535 586.807
161.861 67.3113 584.251
160.741 67.8858 580.208
160.464 68.8072 579.206
160.187 69.7253 578.207
160.187 70.7622 578.207
160.602 71.9851 579.706
160.187 72.8358 578.207
158.547 73.1162 572.287
158.412 74.0792 571.799
157.472 74.659 568.407
157.205 75.5502 567.445
156.543 76.2452 565.055
156.543 77.2584 565.055
156.28 78.1399 564.105
155.625 78.82 561.742
155.495 79.7605 561.272
155.365 80.6994 560.803
154.847 81.4326 558.934
154.333 82.161 557.077
154.461 83.2291 557.54
154.59 84.2989 558.004
155.365 85.7274 560.803
152.309 86.9984 549.771
152.309 87.9842 549.771
151.071 89.2245 545.301
151.317 90.3492 546.189
151.44 91.4031 546.634
151.317 92.308 546.189
150.825 92.9845 544.416
150.581 93.8085 543.534
148.416 94.381 535.719
145.169 103.592 524
144.717 104.206 522.368
144.717 105.142 522.368
144.717 106.079 522.368
144.717 107.016 522.368
144.156 107.534 520.342
143.932 108.299 519.536
143.267 108.725 517.132
142.936 109.399 515.939
142.498 109.986 514.356
142.17 110.654 513.176
141.953 111.403 512.391
141.737 112.151 511.61
141.521 112.896 510.831
141.091 113.466 509.279
140.239 113.689 506.204
138.877 116.18 501.286
138.773 116.991 500.911
138.773 117.89 500.911
138.669 118.699 500.538
138.669 119.597 500.538
138.566 120.404 500.164
138.051 120.851 498.306
137.744 121.473 497.198
133.202 125.227 480.803
133.107 125.999 480.459
131.505 130.441 474.678
131.227 131.014 473.673
131.785 132.425 475.688
132.16 133.657 477.042
131.785 134.131 475.688
129.399 134.215 467.075
129.129 134.771 466.102
128.95 135.418 465.455
128.682 135.97 464.488
128.593 136.708 464.166
127.621 138.153 460.66
127.973 139.362 461.929
127.621 139.805 460.66
126.492 139.387 456.583
126.578 140.301 456.894
126.578 141.12 456.894
126.492 141.843 456.583
126.492 142.662 456.583
236.136 -78.5854 846.869
234.654 -76.5833 841.556
233.774 -74.7928 838.401
232.611 -72.9248 834.229
232.322 -71.3401 833.193
232.034 -69.7595 832.159
231.747 -68.1827 831.128
231.46 -66.6098 830.1
230.888 -64.9605 828.05
228.073 -62.7016 817.952
227.795 -61.1603 816.955
226.69 -59.406 812.994
226.142 -57.808 811.028
225.869 -56.2857 810.049
224.244 -54.4387 804.221
224.244 -52.9966 804.221
223.975 -51.4927 803.258
221.587 -49.5187 794.692
221.063 -47.98 792.814
219.249 -46.1763 786.308
218.992 -44.7139 785.387
218.481 -43.2044 783.552
217.718 -41.6534 780.815
217.718 -40.2533 780.815
217.718 -38.8532 780.815
217.465 -37.4095 779.907
216.458 -35.8443 776.297
214.472 -34.1362 769.175
213.006 -32.5331 763.918
212.522 -31.0925 762.182
212.04 -29.6584 760.454
211.561 -28.2307 758.734
211.561 -26.8702 758.734
211.321 -25.4809 757.876
207.569 -22.3587 744.418
207.339 -21.0005 743.593
206.88 -19.6237 741.947
206.651 -18.273 741.128
206.651 -16.9441 741.128
206.423 -15.5979 740.31
205.516 -14.2077 737.055
203.725 -12.7737 730.632
202.402 -11.3892 725.888
202.183 -10.0767 725.103
201.747 -8.75751 723.539
200.88 -7.42805 720.43
200.235 -6.1165 718.116
199.381 -4.80823 715.054
198.957 -3.51853 713.532
198.114 -2.22958 710.509
197.486 -0.952506 708.258
197.07 0.316833 706.765
195.627 1.57256 701.59
194.407 2.81296 697.215
194.205 4.05895 696.491
194.004 5.30235 695.768
193.602 6.5364 694.328
192.605 7.74136 690.752
192.407 8.97074 690.042
190.836 10.1248 684.409
189.291 11.2601 678.867
188.528 12.4271 676.129
187.959 13.5983 674.091
187.959 14.8071 674.091
187.959 16.0158 674.091
187.771 17.2073 673.414
187.959 18.4333 674.091
186.46 19.4854 668.714
186.089 20.6433 667.384
185.168 21.7319 664.08
185.535 22.9682 665.397
185.535 24.1613 665.397
184.619 25.2293 662.113
181.749 28.3435 651.818
181.572 29.4836 651.185
181.045 30.5623 649.294
180.695 31.6652 648.039
180.521 32.7956 647.414
180.173 33.891 646.166
180 35.016 645.544
179.309 36.0348 643.068
179.137 37.1523 642.452
179.137 38.3043 642.452
177.944 39.1935 638.174
177.606 40.2612 636.961
177.27 41.3249 635.754
176.934 42.3846 634.551
176.6 43.4402 633.353
173.327 44.8643 621.613
172.846 45.8515 619.889
172.527 46.8764 618.746
172.527 47.9859 618.746
172.686 49.1407 619.317
172.527 50.2049 618.746
172.368 51.2671 618.175
169.863 51.6144 609.192
169.863 52.7068 609.192
168.943 53.5076 605.89
168.79 54.5447 605.343
168.79 55.6302 605.343
168.79 56.7157 605.343
168.79 57.8011 605.343
168.79 58.8866 605.343
165.358 61.9426 593.033
165.358 63.006 593.033
165.358 64.0694 593.033
165.212 65.0753 592.509
164.485 65.8469 589.904
163.765 66.6118 587.321
160.946 66.5003 577.212
160.808 67.4772 576.716
161.085 68.6294 577.709
161.085 69.6653 577.709
161.363 70.8232 578.706
161.782 72.0474 580.208
161.782 73.0878 580.208
159.573 74.1424 572.287
159.03 74.9129 570.34
158.357 75.6141 567.926
157.689 76.3094 565.532
157.424 77.1933 564.579
157.291 78.1399 564.105
156.502 78.7541 561.272
156.11 79.5608 559.867
155.85 80.4304 558.934
155.72 81.3648 558.468
155.461 82.2293 557.54
155.461 83.2291 557.54
155.59 84.2989 558.004
156.502 85.7991 561.272
156.502 86.8056 561.272
154.179 86.509 552.943
153.42 87.0698 550.222
153.295 87.9842 549.771
151.678 89.0074 543.974
152.172 90.2757 545.745
152.42 91.4031 546.634
152.296 92.308 546.189
152.172 93.2115 545.745
152.296 94.2668 546.189
149.377 94.381 535.719
145.767 102.412 522.775
145.767 103.35 522.775
145.654 104.206 522.368
145.767 105.224 522.775
145.654 106.079 522.368
145.654 107.016 522.368
144.752 107.284 519.133
144.528 108.048 518.331
143.861 108.474 515.939
143.972 109.483 516.336
143.751 110.24 515.542
143.2 110.738 513.568
142.981 111.489 512.783
142.872 112.322 512.391
142.763 113.155 512
142.112 113.553 509.666
137.92 114.638 494.632
138.022 115.61 494.997
139.567 117.802 500.538
138.945 118.17 498.306
139.151 119.241 499.048
138.945 119.957 498.306
138.841 120.761 497.936
138.738 121.563 497.567
132.45 129.682 475.014
132.356 130.441 474.678
132.169 131.107 474.007
132.544 132.331 475.351
132.544 133.183 475.351
132.45 133.941 475.014
129.605 133.564 464.81
129.425 134.211 464.166
129.515 135.137 464.488
129.336 135.782 463.845
129.246 136.519 463.525
128.801 136.877 461.929
128.447 137.327 460.66
128.183 137.869 459.712
128.183 138.694 459.712
128.096 139.422 459.398
127.224 139.292 456.272
127.311 140.206 456.583
127.311 141.024 456.583
127.311 141.843 456.583
127.311 142.662 456.583
127.397 143.578 456.894
237.654 -78.5854 846.869
235.867 -76.4874 840.502
234.691 -74.6062 836.31
234.399 -73.0156 835.268
233.816 -71.3401 833.193
233.526 -69.7595 832.159
233.237 -68.1827 831.128
233.237 -66.6923 831.128
232.66 -65.0408 829.073
229.539 -62.7016 817.952
229.26 -61.1603 816.955
227.872 -59.3341 812.01
227.596 -57.808 811.028
227.596 -56.3537 811.028
226.774 -54.701 808.097
225.416 -52.9331 803.258
225.146 -51.4312 802.297
222.485 -49.4016 792.814
221.178 -47.6981 788.156
220.401 -46.1222 785.387
220.143 -44.6616 784.468
219.886 -43.2044 783.552
219.629 -41.7506 782.638
219.373 -40.3002 781.725
219.373 -38.8984 781.725
218.609 -37.366 779.002
218.609 -35.9692 779.002
216.347 -34.2147 770.943
213.889 -32.4592 762.182
213.404 -31.022 760.454
213.162 -29.6248 759.593
212.68 -28.1988 757.876
212.44 -26.8096 757.021
212.44 -25.4521 757.021
209.368 -22.4084 746.074
208.904 -21.0238 744.418
208.904 -19.689 744.418
208.672 -18.3338 743.593
208.904 -17.0193 744.418
208.672 -15.6671 743.593
206.384 -14.1765 735.439
205.035 -12.7737 730.632
203.924 -11.4015 726.674
203.483 -10.0767 725.103
203.264 -8.76696 724.32
202.172 -7.42805 720.43
201.523 -6.1165 718.116
200.45 -4.80311 714.292
199.811 -3.51106 712.017
199.388 -2.22958 710.509
198.547 -0.951501 707.511
198.129 0.316499 706.021
196.885 1.57256 701.59
196.269 2.82176 699.396
195.454 4.05895 696.491
195.454 5.30786 696.491
195.049 6.54317 695.047
194.444 7.76535 692.893
193.445 8.96152 689.332
192.456 10.1455 685.808
191.283 11.3058 681.626
190.316 12.4648 678.18
189.549 13.6257 675.449
189.168 14.8071 674.091
189.168 16.0158 674.091
189.168 17.2246 674.091
189.168 18.4333 674.091
188.599 19.583 672.065
187.472 20.6639 668.048
186.728 21.775 665.397
186.728 22.9682 665.397
185.99 24.0658 662.767
184.894 25.1054 658.861
185.258 26.3386 660.158
185.258 27.5224 660.158
182.918 28.3435 651.818
182.563 29.455 650.553
182.033 30.5327 648.666
181.857 31.6652 648.039
181.682 32.7956 647.414
181.506 33.9237 646.789
181.506 35.0835 646.789
180.809 36.104 644.304
180.289 37.1523 642.452
180.289 38.3043 642.452
179.089 39.1935 638.174
178.749 40.2612 636.961
178.579 41.3641 636.357
178.41 42.4649 635.754
177.736 43.4402 633.353
174.765 44.9476 622.767
174.441 45.9789 621.613
174.28 47.05 621.037
174.28 48.1636 621.037
174.119 49.2316 620.463
173.797 50.2512 619.317
170.956 51.6144 609.192
170.956 52.7068 609.192
170.337 53.6044 606.987
170.183 54.6434 606.438
170.183 55.7308 606.438
170.183 56.8182 606.438
170.029 57.8533 605.89
166.274 61.8879 592.509
166.421 63.006 593.033
166.274 64.0128 592.509
166.127 65.0179 591.986
165.107 65.6736 588.351
164.818 66.6118 587.321
162.541 67.7686 579.206
162.822 68.9262 580.208
162.541 69.8458 579.206
162.541 70.8844 579.206
162.822 72.0474 580.208
162.681 73.0246 579.706
162.26 73.8726 578.207
160.736 74.2057 572.776
160.462 75.1045 571.799
159.51 75.6782 568.407
159.24 76.5677 567.445
159.106 77.5196 566.966
158.436 78.2057 564.579
157.508 78.7541 561.272
156.331 79.1643 557.077
156.461 80.2298 557.54
156.331 81.1621 557.077
156.331 82.161 557.077
156.331 83.16 557.077
156.461 84.2288 557.54
156.331 85.1578 557.077
155.299 85.588 553.4
155.171 86.509 552.943
154.407 87.0698 550.222
154.154 87.9122 549.321
152.778 88.1035 544.416
152.53 88.9353 543.534
153.151 90.2757 545.745
153.275 91.3286 546.189
153.151 92.2329 545.745
153.275 93.2874 546.189
153.275 94.2668 546.189
150.578 94.532 536.576
150.097 95.1896 534.865
150.217 96.2254 535.292
150.097 97.1078 534.865
149.858 97.9107 534.013
146.819 102.492 523.183
146.705 104.287 522.775
146.705 105.224 522.775
146.705 106.162 522.775
146.705 107.099 522.775
146.59 107.952 522.368
144.011 109.734 513.176
143.901 110.569 512.783
143.791 111.403 512.391
143.462 112.065 511.22
143.135 112.724 510.054
139.012 115.695 495.362
139.631 117.102 497.567
139.734 118.082 497.936
139.734 118.975 497.936
139.734 119.868 497.936
140.046 121.03 499.048
139.527 121.473 497.198
133.396 129.774 475.351
133.208 130.441 474.678
133.208 131.292 474.678
133.396 132.331 475.351
133.396 133.183 475.351
133.302 133.941 475.014
130.348 133.471 464.488
130.348 134.304 464.488
130.348 135.137 464.488
130.348 135.97 464.488
130.258 136.708 464.166
129.988 137.255 463.205
128.919 136.951 459.398
128.919 137.775 459.398
128.743 138.409 458.769
128.392 138.852 457.517
128.042 139.292 456.272
128.042 140.11 456.272
127.955 140.833 455.962
127.782 141.458 455.343
128.042 142.565 456.272
128.217 143.578 456.894
236.781 -76.2961 838.401
235.896 -74.5133 835.268
235.603 -72.9248 834.229
235.31 -71.3401 833.193
235.018 -69.7595 832.159
235.018 -68.2673 832.159
234.727 -66.6923 831.128
234.437 -65.1213 830.1
231.571 -62.8549 819.952
230.725 -61.1603 816.955
229.885 -59.4781 813.981
229.328 -57.878 812.01
229.051 -56.3537 811.028
228.223 -54.701 808.097
227.128 -52.9966 804.221
226.856 -51.4927 803.258
223.906 -49.4016 792.814
222.33 -47.6421 787.231
221.809 -46.1222 785.387
221.809 -44.7139 785.387
220.775 -43.1037 781.725
220.261 -41.6049 779.907
220.261 -40.2065 779.907
220.261 -38.808 779.907
220.006 -37.366 779.002
219.242 -35.8443 776.297
217.23 -34.1362 769.175
216.238 -32.6074 765.663
214.767 -31.022 760.454
214.524 -29.6248 759.593
214.282 -28.2307 758.734
214.039 -26.8399 757.876
214.039 -25.4809 757.876
210.706 -22.4084 746.074
210.238 -21.0238 744.418
210.005 -19.6672 743.593
209.541 -18.2932 741.947
210.005 -17.0004 743.593
209.541 -15.6324 741.947
206.796 -14.1146 732.228
206.57 -12.7877 731.429
206.345 -11.4636 730.632
205.227 -10.0985 726.674
204.784 -8.77644 725.103
203.246 -7.42008 719.657
202.593 -6.10996 717.348
201.516 -4.798 713.532
201.088 -3.51106 712.017
200.238 -2.22486 709.007
199.815 -0.951501 707.511
198.767 0.315503 703.799
198.143 1.57256 701.59
197.936 2.82766 700.857
197.318 4.07163 698.667
196.703 5.30786 696.491
196.092 6.5364 694.328
195.082 7.74136 690.752
194.681 8.96152 689.332
193.686 10.1455 685.808
193.291 11.352 684.409
191.92 12.49 679.555
191.145 13.6532 676.812
190.568 14.822 674.769
190.568 16.0319 674.769
190.377 17.2246 674.091
190.377 18.4333 674.091
189.995 19.6026 672.739
190.186 20.8299 673.414
188.858 21.8836 668.714
188.67 23.0597 668.048
186.442 23.9711 660.158
185.711 25.0562 657.569
186.076 26.2869 658.861
185.347 27.3608 656.282
184.086 28.3435 651.818
183.551 29.4265 649.923
183.374 30.5623 649.294
183.019 31.6652 648.039
183.019 32.8273 648.039
182.666 33.9237 646.789
182.315 35.016 645.544
181.615 36.0348 643.068
181.441 37.1523 642.452
181.268 38.2677 641.838
180.233 39.1935 638.174
179.891 40.2612 636.961
179.891 41.4034 636.961
179.38 42.4247 635.152
178.703 43.3992 632.755
178.031 44.3664 630.376
176.045 44.9894 623.346
175.719 46.0216 622.19
175.882 47.181 622.767
175.882 48.2977 622.767
175.719 49.3686 622.19
174.104 50.0203 616.471
172.204 51.6613 609.746
172.204 52.7547 609.746
172.048 53.7991 609.192
171.736 54.792 608.087
171.425 55.7812 606.987
171.116 56.7669 605.89
170.961 57.8011 605.343
168.228 60.0815 595.666
168.228 61.1496 595.666
167.633 61.9975 593.558
167.633 63.0618 593.558
167.484 64.0694 593.033
167.336 65.0753 592.509
167.336 66.1377 592.509
166.747 66.9636 590.423
164.431 68.1215 582.223
164.004 68.9859 580.71
163.862 69.9666 580.208
163.862 71.007 580.208
164.004 72.1098 580.71
163.862 73.0878 580.208
163.016 73.7455 577.212
161.625 74.1424 572.287
161.213 74.9767 570.826
160.666 75.7424 568.889
160.394 76.6325 567.926
160.53 77.7167 568.407
159.314 78.1399 564.105
158.382 78.6882 560.803
157.723 79.362 558.468
157.723 80.3634 558.468
157.723 81.3648 558.468
157.591 82.2977 558.004
157.591 83.2983 558.004
157.723 84.3691 558.468
157.33 85.1578 557.077
156.162 85.5175 552.943
156.162 86.509 552.943
155.266 86.9984 549.771
155.266 87.9842 549.771
153.505 87.9607 543.534
153.505 88.9353 543.534
154.004 90.2023 545.301
154.255 91.3286 546.189
154.38 92.3833 546.634
151.298 95.3416 535.719
151.298 96.3023 535.719
151.177 97.1853 535.292
150.457 97.6774 532.741
148.336 102.893 525.231
148.104 103.673 524.41
147.873 104.45 523.591
147.873 105.389 523.591
147.642 106.162 522.775
147.642 107.099 522.775
147.988 108.29 524
145.042 109.818 513.568
144.931 110.654 513.176
144.82 111.489 512.783
144.71 112.322 512.391
144.379 112.982 511.22
140.004 115.781 495.728
140.315 116.929 496.83
140.315 117.82 496.83
140.315 118.711 496.83
140.315 119.602 496.83
140.419 120.582 497.198
140.419 121.473 497.198
134.249 130.626 475.351
134.249 131.478 475.351
134.344 132.425 475.688
134.059 132.995 474.678
133.492 133.28 472.671
132.003 133.47 467.401
131.82 134.121 466.75
131.545 134.677 465.778
131.545 135.512 465.778
129.654 137.68 459.083
129.566 138.409 458.769
129.212 138.852 457.517
128.948 139.387 456.583
128.948 140.206 456.583
128.773 140.833 455.962
128.424 141.266 454.726
128.424 142.081 454.726
237.69 -74.6062 836.31
236.804 -72.8342 833.193
237.099 -71.4289 834.229
236.804 -69.8461 833.193
236.804 -68.3521 833.193
236.511 -66.7751 832.159
236.511 -65.2829 832.159
233.041 -62.8549 819.952
232.189 -61.1603 816.955
231.625 -59.5503 814.97
230.784 -57.878 812.01
230.784 -56.422 812.01
230.227 -54.8331 810.049
228.023 -52.8698 802.297
225.595 -50.8834 793.752
224.797 -49.2851 790.944
224.797 -47.8668 790.944
223.479 -46.1763 786.308
223.217 -44.7139 785.387
222.436 -43.154 782.638
221.66 -41.6049 779.907
221.66 -40.2065 779.907
221.66 -38.808 779.907
221.146 -37.3227 778.098
220.124 -35.7615 774.504
219.112 -34.2147 770.943
217.611 -32.6074 765.663
216.869 -31.1278 763.049
215.886 -29.6248 759.593
215.642 -28.2307 758.734
215.398 -26.8399 757.876
215.155 -25.4521 757.021
211.808 -22.3835 745.245
211.339 -21.0005 743.593
210.638 -19.602 741.128
210.406 -18.2529 740.31
210.174 -16.9067 739.493
209.711 -15.5464 737.866
207.882 -14.0992 731.429
207.204 -12.746 729.044
207.204 -11.4387 729.044
206.53 -10.0985 726.674
205.861 -8.76696 724.32
204.976 -7.43603 721.205
204.098 -6.1165 718.116
203.011 -4.80311 714.292
202.365 -3.51106 712.017
201.296 -2.22251 708.258
201.084 -0.951501 707.511
200.029 0.315503 703.799
199.61 1.57421 702.325
199.401 2.83062 701.59
198.985 4.08013 700.126
198.158 5.31337 697.215
197.542 6.54317 695.047
196.321 7.74136 690.752
195.917 8.96152 689.332
195.115 10.1558 686.51
194.518 11.352 684.409
194.32 12.5664 683.711
192.943 13.6947 678.867
192.553 14.8819 677.495
192.359 16.0805 676.812
191.778 17.2419 674.769
191.586 18.4333 674.091
191.393 19.6223 673.414
191.01 20.7881 672.065
189.868 21.8618 668.048
188.181 22.8548 662.113
187.996 24.0184 661.46
187.073 25.0808 658.214
187.073 26.2611 658.214
186.524 27.3608 656.282
185.255 28.3435 651.818
184.896 29.455 650.553
184.717 30.5919 649.923
184.181 31.6652 648.039
184.181 32.8273 648.039
183.826 33.9237 646.789
183.12 34.9487 644.304
182.769 36.0348 643.068
182.593 37.1523 642.452
182.593 38.3043 642.452
181.205 39.1563 637.567
180.861 40.223 636.357
180.348 41.2467 634.551
180.348 42.3846 634.551
180.007 43.4402 633.353
178.323 44.1589 627.428
177.163 44.9894 623.346
176.999 46.0643 622.767
176.999 47.181 622.767
176.507 48.1636 621.037
176.344 49.2316 620.463
175.532 50.1124 617.606
174.727 50.9851 614.776
173.93 51.8499 611.971
173.455 52.8027 610.301
173.298 53.8481 609.746
173.298 54.9414 609.746
173.298 56.0348 609.746
172.67 56.9212 607.537
172.514 57.9581 606.987
171.891 58.8335 604.797
169.447 61.2039 596.196
168.697 61.9975 593.558
168.697 63.0618 593.558
168.548 64.0694 593.033
168.548 65.1328 593.033
168.399 66.1377 592.509
168.25 67.1409 591.986
165.046 68.9859 580.71
164.903 69.9666 580.208
164.903 71.007 580.208
164.903 72.0474 580.208
164.76 73.0246 579.706
163.209 73.3666 574.247
162.652 74.1424 572.287
162.236 74.9767 570.826
161.686 75.7424 568.889
161.686 76.7625 568.889
161.686 77.7826 568.889
161.003 78.4699 566.487
159.388 78.6882 560.803
159.122 79.5608 559.867
158.724 80.3634 558.468
158.856 81.4326 558.934
158.724 82.3663 558.468
158.592 83.2983 558.004
158.592 84.2989 558.004
158.592 85.2995 558.004
157.024 85.447 552.488
156.895 86.3666 552.033
156.124 86.9272 549.321
156.124 87.9122 549.321
154.479 88.9353 543.534
154.982 90.2023 545.301
155.234 91.3286 546.189
155.234 95.2462 546.189
151.774 95.038 534.013
151.774 95.9956 534.013
151.412 96.7221 532.741
151.172 97.5225 531.896
151.052 98.3982 531.474
150.694 99.1156 530.214
150.575 99.9873 529.795
150.813 101.097 530.633
151.052 102.21 531.474
151.412 103.409 532.741
149.044 102.732 524.41
148.928 103.592 524
148.812 104.45 523.591
148.812 105.389 523.591
148.58 106.162 522.775
148.695 107.183 523.183
146.411 110.155 515.146
145.851 110.654 513.176
145.517 111.318 512
145.295 112.065 511.22
144.854 112.639 509.666
140.685 116.497 494.997
140.788 117.472 495.362
140.685 118.273 494.997
140.685 119.16 494.997
141.31 120.582 497.198
135.005 130.534 475.014
134.91 131.292 474.678
134.529 132.619 473.338
133.12 133.75 468.38
132.842 134.308 467.401
132.38 134.677 465.778
132.38 135.512 465.778
130.567 137.775 459.398
130.567 138.599 459.398
130.21 139.041 458.142
129.767 139.387 456.583
129.767 140.206 456.583
129.59 140.833 455.962
129.239 141.266 454.726
129.239 142.081 454.726
129.679 143.383 456.272
238.892 -73.0156 835.268
238.595 -71.4289 834.229
238.298 -69.8461 833.193
238.003 -68.2673 832.159
236.535 -66.3634 827.029
236.244 -64.8005 826.01
233.654 -62.6252 816.955
233.37 -61.0859 815.962
232.522 -59.406 812.994
231.679 -57.7382 810.049
230.565 -56.0151 806.154
230.012 -54.4387 804.221
228.369 -52.618 798.477
227.287 -50.9436 794.692
227.287 -49.5187 794.692
227.018 -48.0367 793.752
224.889 -46.1763 786.308
224.889 -44.7663 786.308
224.101 -43.2044 783.552
223.318 -41.6534 780.815
223.058 -40.2065 779.907
222.799 -38.7629 779.002
222.541 -37.3227 778.098
221.513 -35.7615 774.504
220.495 -34.2147 770.943
219.235 -32.6446 766.538
218.486 -31.1633 763.918
217.248 -29.6248 759.593
217.003 -28.2307 758.734
216.025 -26.7492 755.316
215.298 -25.3093 752.773
213.619 -23.7727 746.905
213.145 -22.3835 745.245
212.672 -21.0005 743.593
211.5 -19.5588 739.493
211.267 -18.2127 738.679
211.267 -16.8881 738.679
211.034 -15.5464 737.866
209.651 -14.1301 733.028
209.422 -12.8016 732.228
209.422 -11.4887 732.228
208.285 -10.1204 728.252
207.833 -8.79546 726.674
206.714 -7.45206 722.759
205.386 -6.1165 718.116
204.51 -4.80823 715.054
204.075 -3.51853 713.532
202.566 -2.22251 708.258
202.139 -0.950499 706.765
201.714 0.316167 705.279
200.869 1.57421 702.325
200.659 2.83062 701.59
200.24 4.08013 700.126
199.615 5.3189 697.94
198.172 6.5229 692.893
197.356 7.7334 690.042
196.749 8.94314 687.918
196.145 10.1455 685.808
195.945 11.3636 685.108
195.745 12.5792 684.409
194.357 13.7086 679.555
193.964 14.8969 678.18
193.964 16.113 678.18
193.183 17.2593 675.449
192.794 18.4333 674.091
192.408 19.6026 672.739
192.408 20.809 672.739
191.257 21.8836 668.714
189.556 22.8774 662.767
188.809 23.9711 660.158
188.069 25.0562 657.569
188.069 26.2353 657.569
187.517 27.334 655.641
186.605 28.371 652.452
186.243 29.4836 651.185
185.882 30.5919 649.923
185.164 31.6347 647.414
185.343 32.8273 648.039
184.452 33.8259 644.923
183.745 34.8483 642.452
183.394 35.9315 641.224
182.695 36.94 638.781
182.348 38.013 637.567
182.002 39.082 636.357
181.486 40.1089 634.551
181.143 41.1688 633.353
180.801 42.2248 632.159
180.801 43.3583 632.159
179.953 44.2832 629.194
179.281 45.2417 626.842
178.447 46.15 623.926
178.281 47.2249 623.346
177.785 49.3229 621.613
176.965 50.2049 618.746
175.991 51.0319 615.34
174.709 51.7554 610.857
174.55 52.8027 610.301
174.391 53.8481 609.746
174.391 54.9414 609.746
174.391 56.0348 609.746
174.233 57.0763 609.192
174.233 58.1686 609.192
173.445 58.9931 606.438
169.611 61.9426 593.033
169.761 63.0618 593.558
169.912 64.1829 594.084
169.611 65.1328 593.033
169.611 66.1962 593.033
169.461 67.2002 592.509
169.312 68.2024 591.986
165.943 68.9262 580.208
166.087 71.0685 580.71
166.087 72.1098 580.71
165.943 73.0878 580.208
164.803 73.6187 576.22
163.817 74.2057 572.776
163.538 75.1045 571.799
163.26 76.0003 570.826
162.844 76.8277 569.372
162.706 77.7826 568.889
162.293 78.6027 567.445
161.473 79.2181 564.579
160.259 79.6272 560.335
159.992 80.4975 559.4
159.725 81.3648 558.468
159.593 82.2977 558.004
159.46 83.2291 557.54
159.593 84.2989 558.004
157.109 83.9721 549.321
157.238 85.0268 549.771
157.755 86.2955 551.579
157.238 86.9984 549.771
157.238 87.9842 549.771
156.981 88.8244 548.871
155.833 89.152 544.858
156.086 91.2543 545.745
156.214 95.2462 546.189
155.706 95.9132 544.416
152.975 95.1896 534.865
152.367 95.7668 532.741
152.246 96.6453 532.318
152.005 97.4452 531.474
152.126 98.4762 531.896
152.005 99.3512 531.474
151.764 100.146 530.633
149.634 105.306 523.183
149.517 106.162 522.775
147.562 110.324 515.939
146.659 110.569 512.783
146.435 111.318 512
145.879 111.81 510.054
141.572 114.722 494.997
141.468 115.525 494.632
141.572 116.497 494.997
141.572 117.385 494.997
141.468 118.185 494.632
141.364 118.985 494.267
135.857 130.534 475.014
135.857 131.385 475.014
135.569 132.807 474.007
131.301 137.68 459.083
131.481 138.694 459.712
131.032 139.041 458.142
130.586 139.387 456.583
130.586 140.206 456.583
130.231 140.641 455.343
130.054 141.266 454.726
130.143 142.178 455.034
130.586 143.48 456.583
130.586 144.299 456.583
130.497 145.019 456.272
241.291 -73.2894 838.401
241.291 -71.786 838.401
240.091 -69.933 834.229
239.495 -68.2673 832.159
238.018 -66.3634 827.029
237.725 -64.8005 826.01
234.833 -62.5491 815.962
234.548 -61.0117 814.97
233.979 -59.406 812.994
233.414 -57.808 811.028
233.132 -56.2857 810.049
232.011 -54.5695 806.154
230.901 -52.8698 802.297
229.801 -51.1862 798.477
228.712 -49.5187 794.692
228.712 -48.0937 794.692
226.299 -46.1763 786.308
226.034 -44.7139 785.387
224.98 -43.1037 781.725
224.457 -41.6049 779.907
224.457 -40.2065 779.907
224.457 -38.808 779.907
223.936 -37.3227 778.098
223.418 -35.8443 776.297
222.388 -34.2935 772.719
220.609 -32.6446 766.538
220.357 -31.2344 765.663
219.855 -29.7935 763.918
218.61 -28.2627 759.593
217.87 -26.8096 757.021
217.379 -25.3948 755.316
215.921 -23.8791 750.247
214.72 -22.4084 746.074
214.243 -21.0238 744.418
212.826 -19.5588 739.493
212.826 -18.2327 739.493
212.591 -16.8881 738.679
212.357 -15.5464 737.866
210.965 -14.1301 733.028
210.047 -12.7599 729.837
210.276 -11.4636 730.632
208.91 -10.0876 725.888
209.136 -8.79546 726.674
208.01 -7.45206 722.759
206.673 -6.1165 718.116
205.354 -4.798 713.532
204.918 -3.51106 712.017
203.621 -2.22017 707.511
203.407 -0.950499 706.765
202.979 0.316167 705.279
202.129 1.57421 702.325
201.917 2.83062 701.59
201.496 4.08013 700.126
200.867 5.3189 697.94
199.414 6.5229 692.893
198.594 7.7334 690.042
197.983 8.94314 687.918
197.174 10.1351 685.108
197.375 11.3752 685.808
196.972 12.5792 684.409
195.378 13.6947 678.867
195.18 14.8969 678.18
194.983 16.0967 677.495
194.394 17.2593 675.449
193.808 18.4148 673.414
193.614 19.6026 672.739
193.42 20.7881 672.065
192.648 21.9054 669.382
191.122 22.9227 664.08
190.744 24.0658 662.767
189.248 25.0562 657.569
189.248 26.2353 657.569
188.509 27.3073 655
187.775 28.371 652.452
187.411 29.4836 651.185
187.047 30.5919 649.923
186.325 31.6347 647.414
186.146 32.7639 646.789
185.252 33.7609 643.686
185.075 34.8817 643.068
183.491 35.7265 637.567
183.491 36.8698 637.567
183.491 38.013 637.567
183.317 39.1191 636.961
182.796 40.1469 635.152
183.143 41.3641 636.357
182.796 42.4247 635.152
182.623 43.5224 634.551
182.107 44.5338 632.755
180.405 45.2417 626.842
179.733 46.193 624.507
179.399 47.2249 623.346
178.734 49.2772 621.037
178.239 50.2512 619.317
176.447 50.8453 613.09
176.447 51.9447 613.09
176.125 52.9472 611.971
175.804 53.9461 610.857
175.804 55.0415 610.857
175.644 56.0858 610.301
175.485 57.1281 609.746
174.849 58.0106 607.537
170.977 62.0524 594.084
171.28 64.2968 595.138
170.675 66.1962 593.033
170.524 67.2002 592.509
170.373 68.2024 591.986
167.128 70.0272 580.71
167.128 71.0685 580.71
166.984 72.0474 580.208
166.984 73.0878 580.208
165.268 73.3666 574.247
164.985 74.2691 573.265
164.704 75.1686 572.287
164.564 76.1298 571.799
164.423 77.0894 571.312
164.423 78.1139 571.312
163.587 78.7359 568.407
161.94 78.9523 562.685
160.861 79.4282 558.934
160.861 80.4304 558.934
160.593 81.2972 558.004
160.46 82.2293 557.54
160.326 83.16 557.077
160.326 84.1589 557.077
158.484 84.179 550.674
158.354 85.0965 550.222
158.875 86.3666 552.033
158.484 87.1413 550.674
158.354 88.0564 550.222
158.224 88.9701 549.771
157.193 89.3698 546.189
157.321 91.4031 546.634
157.193 92.308 546.189
157.193 93.2874 546.189
157.578 95.4795 547.527
157.449 96.3826 547.08
154.18 96.3023 535.719
153.811 97.0304 534.439
153.201 97.5999 532.318
153.079 98.4762 531.896
153.079 99.43 531.896
152.475 99.9873 529.795
150.807 105.471 524
148.373 110.24 515.542
147.692 110.654 513.176
147.579 111.489 512.783
142.776 114.977 496.095
142.355 115.525 494.632
142.355 116.412 494.632
142.355 117.299 494.632
142.355 118.185 494.632
136.709 129.682 475.014
136.709 130.534 475.014
136.612 131.292 474.678
136.612 132.144 474.678
136.709 133.089 475.014
136.612 133.846 474.678
136.419 134.507 474.007
132.124 137.68 459.083
132.214 138.599 459.398
132.214 139.422 459.398
131.404 139.387 456.583
131.226 140.015 455.962
130.87 140.451 454.726
130.87 141.266 454.726
130.959 142.178 455.034
131.226 143.285 455.962
241.587 -71.4289 834.229
241.587 -69.933 834.229
240.987 -68.2673 832.159
239.206 -66.2817 826.01
239.206 -64.8005 826.01
236.873 -62.7016 817.952
236.584 -61.1603 816.955
235.152 -59.3341 812.01
234.301 -57.6686 809.072
233.456 -56.0151 806.154
234.019 -54.701 808.097
232.618 -52.9331 803.258
231.785 -51.3084 800.382
230.137 -49.5187 794.692
229.593 -47.98 792.814
227.709 -46.1763 786.308
227.442 -44.7139 785.387
226.382 -43.1037 781.725
225.855 -41.6049 779.907
226.118 -40.2533 780.815
225.855 -38.808 779.907
224.291 -37.1503 774.504
224.032 -35.7203 773.611
223.774 -34.2935 772.719
222.238 -32.682 767.415
221.984 -31.2701 766.538
221.73 -29.8615 765.663
221.225 -28.4237 763.918
218.734 -26.7492 755.316
217.753 -25.2809 751.929
216.057 -23.7463 746.074
215.817 -22.3835 745.245
215.578 -21.0238 744.418
214.388 -19.5803 740.31
213.916 -18.2127 738.679
213.916 -16.8881 738.679
213.681 -15.5464 737.866
212.279 -14.1301 733.028
211.355 -12.7599 729.837
211.586 -11.4636 730.632
210.212 -10.0876 725.888
210.44 -8.79546 726.674
208.407 -7.42008 719.657
207.739 -6.10996 717.348
206.854 -4.80311 714.292
206.414 -3.51479 712.774
205.106 -2.22251 708.258
204.459 -0.949498 706.021
203.815 0.315503 703.799
203.388 1.57421 702.325
203.388 2.83358 702.325
202.963 4.0844 700.857
202.329 5.32444 698.667
201.072 6.5364 694.328
199.831 7.7334 690.042
199.421 8.95232 688.625
198.605 10.1455 685.808
198.402 11.3636 685.108
197.998 12.5664 683.711
196.595 13.6947 678.867
196.396 14.8969 678.18
196 16.0805 676.812
195.605 17.2593 675.449
195.016 18.4148 673.414
194.625 19.583 672.065
194.625 20.7881 672.065
194.236 21.9492 670.72
192.694 22.9682 665.397
191.554 24.0184 661.46
190.801 25.1054 658.861
190.614 26.2611 658.214
190.054 27.3608 656.282
189.129 28.3987 653.087
188.945 29.541 652.452
188.762 30.6811 651.818
187.486 31.6347 647.414
187.125 32.7324 646.166
186.407 33.7609 643.686
186.049 34.8483 642.452
185.694 35.9315 641.224
185.339 37.0105 640
184.986 38.0854 638.781
184.459 39.1191 636.961
184.284 41.3641 636.357
183.241 42.2646 632.755
183.068 43.3583 632.159
182.21 44.2832 629.194
181.698 45.284 627.428
180.684 46.15 623.926
179.184 49.0954 618.746
177.709 49.7915 613.651
176.9 50.6601 610.857
177.061 51.8026 611.413
176.9 52.8508 610.857
176.9 53.9461 610.857
176.739 54.9914 610.301
176.739 56.0858 610.301
176.417 57.0763 609.192
175.461 57.8533 605.89
171.586 59.763 592.509
171.586 60.8255 592.509
172.042 62.0524 594.084
172.195 63.1736 594.61
172.195 64.2398 594.61
171.89 65.1905 593.558
171.738 67.2596 593.033
171.586 68.2627 592.509
171.284 69.2029 591.464
168.024 69.9666 580.208
168.024 72.0474 580.208
167.445 72.8358 578.207
166.726 73.5555 575.726
166.155 74.3327 573.756
165.589 75.1045 571.799
165.448 76.065 571.312
165.166 76.9583 570.34
164.886 77.8486 569.372
164.05 78.4699 566.487
162.676 78.82 561.742
162.269 79.6272 560.335
162.269 80.632 560.335
162.133 81.5686 559.867
161.863 82.4349 558.934
161.459 83.2291 557.54
161.459 84.2288 557.54
159.471 84.179 550.674
159.34 85.0965 550.222
159.733 86.2955 551.579
159.34 87.0698 550.222
159.471 88.1287 550.674
159.34 89.043 550.222
158.949 89.8086 548.871
158.172 90.3492 546.189
158.172 91.3286 546.189
158.172 92.308 546.189
158.172 93.2874 546.189
158.43 94.4206 547.08
158.301 95.3238 546.634
158.172 96.2256 546.189
155.638 96.6109 537.436
155.017 97.1853 535.292
154.278 97.6774 532.741
154.155 98.5544 532.318
154.155 99.5089 532.318
154.155 100.463 532.318
153.911 101.257 531.474
154.033 102.291 531.896
149.873 108.809 517.531
149.642 109.568 516.734
149.297 110.24 515.542
148.498 110.569 512.783
148.498 111.489 512.783
143.242 114.638 494.632
143.242 115.525 494.632
143.242 116.412 494.632
143.031 117.126 493.903
143.136 118.098 494.267
137.658 129.774 475.351
137.658 130.626 475.351
137.561 131.385 475.014
137.561 132.237 475.014
137.658 133.183 475.351
137.658 134.036 475.351
137.561 134.792 475.014
131.954 139.92 455.652
131.685 140.451 454.726
131.596 141.17 454.418
131.685 142.081 454.726
131.864 143.091 455.343
131.954 144.005 455.652
244.298 -71.786 838.401
244.298 -70.2826 838.401
243.385 -68.5223 835.268
240.096 -66.1188 823.981
240.096 -64.6413 823.981
238.049 -62.6252 816.955
237.76 -61.0859 815.962
236.608 -59.3341 812.01
236.322 -57.808 811.028
235.752 -56.2178 809.072
235.752 -54.767 809.072
233.778 -52.8698 802.297
231.562 -50.9436 794.692
231.015 -49.4016 792.814
230.47 -47.8668 790.944
228.851 -46.1222 785.387
228.583 -44.6616 784.468
227.784 -43.1037 781.725
227.254 -41.6049 779.907
227.254 -40.2065 779.907
225.679 -38.5391 774.504
225.159 -37.0647 772.719
224.9 -35.6381 771.83
224.9 -34.254 771.83
224.384 -32.7946 770.058
223.614 -31.3059 767.415
223.103 -29.8615 765.663
221.084 -28.2307 758.734
219.101 -26.6292 751.929
218.856 -25.2526 751.087
217.395 -23.7463 746.074
216.913 -22.3587 744.418
216.672 -21.0005 743.593
215.478 -19.5588 739.493
215.24 -18.2127 738.679
215.478 -16.9067 739.493
215.004 -15.5464 737.866
213.594 -14.1301 733.028
213.128 -12.7877 731.429
213.128 -11.4761 731.429
211.513 -10.0876 725.888
211.743 -8.79546 726.674
209.698 -7.42008 719.657
208.356 -6.09042 715.054
208.135 -4.80311 714.292
207.692 -3.51479 712.774
206.159 -2.22017 707.511
205.077 -0.946509 703.799
205.077 0.315503 703.799
204.648 1.57421 702.325
204.433 2.83062 701.59
204.22 4.0844 700.857
203.794 5.32999 699.396
202.317 6.5364 694.328
201.068 7.7334 690.042
200.862 8.96152 689.332
200.244 10.1662 687.214
199.835 11.3752 685.808
199.427 12.5792 684.409
198.213 13.7225 680.244
197.812 14.912 678.867
197.014 16.0643 676.129
196.618 17.2419 674.769
196.223 18.4148 673.414
196.026 19.6026 672.739
196.026 20.809 672.739
196.026 22.0153 672.739
194.66 23.0597 668.048
192.93 24.0421 662.113
192.361 25.1548 660.158
191.794 26.2611 658.214
191.606 27.4144 657.569
191.419 28.5655 656.925
190.486 29.5986 653.724
190.115 30.7109 652.452
188.829 31.6652 648.039
188.465 32.7639 646.789
187.741 33.7934 644.304
187.381 34.8817 643.068
185.778 35.7265 637.567
185.074 37.869 635.152
184.376 38.8607 632.755
184.202 39.9577 632.159
184.202 41.0912 632.159
184.029 42.185 631.564
184.029 43.3175 631.564
183.338 44.2832 629.194
182.824 45.284 627.428
181.972 46.193 624.507
181.129 48.2082 621.613
180.46 49.1407 619.317
178.973 49.8371 614.213
178.646 50.8453 613.09
178.646 51.9447 613.09
178.32 52.9472 611.971
178.157 53.9953 611.413
177.995 55.0415 610.857
177.833 56.0858 610.301
177.349 57.0245 608.639
174.811 57.2841 599.929
173.723 59.0658 596.196
173.569 60.0815 595.666
172.954 60.9331 593.558
172.041 61.67 590.423
173.108 63.1177 594.084
173.108 64.1829 594.084
172.954 65.1905 593.558
172.801 66.1962 593.033
172.954 67.3191 593.558
172.649 68.2627 592.509
172.344 69.2029 591.464
169.064 68.9262 580.208
169.211 70.0272 580.71
169.064 72.0474 580.208
168.481 72.8358 578.207
166.756 73.1162 572.287
166.899 74.2057 572.776
166.472 75.0406 571.312
166.048 75.8711 569.856
165.766 76.7625 568.889
165.626 77.7167 568.407
164.788 78.3376 565.532
164.372 79.1515 564.105
163.41 79.6938 560.803
163.41 80.6994 560.803
163.137 81.5686 559.867
162.594 82.2977 558.004
162.324 83.16 557.077
162.055 84.0193 556.153
161.12 84.526 552.943
160.722 85.3065 551.579
160.722 86.2955 551.579
160.458 87.1413 550.674
160.327 88.0564 550.222
160.327 89.043 550.222
159.933 89.8086 548.871
159.152 90.3492 546.189
159.152 91.3286 546.189
159.022 92.2329 545.745
159.152 93.2874 546.189
159.152 94.2668 546.189
159.152 95.2462 546.189
159.152 96.2256 546.189
158.764 96.9681 544.858
156.979 96.8437 538.731
155.976 97.1853 535.292
155.356 97.755 533.164
155.11 98.5544 532.318
155.11 99.5089 532.318
155.11 100.463 532.318
155.11 101.418 532.318
155.233 102.454 532.741
155.604 103.656 534.013
151.151 109.061 518.732
150.337 109.399 515.939
149.876 109.986 514.356
149.418 110.569 512.783
144.341 114.807 495.362
144.341 115.695 495.362
144.129 116.412 494.632
143.599 116.868 492.814
143.388 117.578 492.091
138.511 128.921 475.351
138.511 129.774 475.351
138.707 130.812 476.026
138.609 131.572 475.688
138.511 132.331 475.351
139.102 133.752 477.381
139.3 134.8 478.062
139.3 135.657 478.062
133.042 140.206 456.583
132.321 141.075 454.11
132.411 141.985 454.418
132.68 143.091 455.343
132.771 144.005 455.652
242.169 -69.244 826.01
241.574 -67.5963 823.981
240.393 -65.7955 819.952
239.806 -64.1683 817.952
239.514 -62.6252 816.955
238.064 -60.7901 812.01
237.776 -59.2623 811.028
237.489 -57.7382 810.049
236.917 -56.15 808.097
236.347 -54.5695 806.154
234.655 -52.7436 800.382
233.54 -51.0647 796.58
232.987 -49.5187 794.692
231.888 -47.8668 790.944
230.529 -46.1763 786.308
230.529 -44.7663 786.308
228.919 -43.0535 780.815
228.387 -41.5566 779.002
228.122 -40.1132 778.098
227.068 -38.5391 774.504
226.806 -37.1075 773.611
226.545 -35.6791 772.719
226.284 -34.254 771.83
226.024 -32.8323 770.943
224.99 -31.3059 767.415
224.476 -29.8615 765.663
222.445 -28.2307 758.734
220.697 -26.6591 752.773
220.203 -25.2526 751.087
218.733 -23.7463 746.074
218.248 -22.3587 744.418
218.248 -21.0238 744.418
217.043 -19.5803 740.31
216.804 -18.2327 739.493
216.565 -16.8881 738.679
215.852 -15.5123 736.246
214.674 -14.1146 732.228
214.206 -12.7737 730.632
213.973 -11.4511 729.837
212.815 -10.0876 725.888
212.815 -8.78594 725.888
210.988 -7.42008 719.657
209.862 -6.09692 715.817
209.415 -4.80311 714.292
208.97 -3.51479 712.774
207.646 -2.22251 708.258
206.991 -0.949498 706.021
206.773 0.316167 705.279
206.123 1.57586 703.061
205.907 2.83358 702.325
205.477 4.0844 700.857
204.621 5.3189 697.94
203.352 6.52964 693.609
202.514 7.74136 690.752
202.098 8.96152 689.332
201.683 10.1767 687.918
201.064 11.3752 685.808
200.859 12.5921 685.108
200.45 13.7924 683.711
199.231 14.9271 679.555
198.828 16.113 678.18
198.627 17.3116 677.495
197.629 18.4333 674.091
197.431 19.6223 673.414
197.431 20.8299 673.414
197.233 22.0153 672.739
196.053 23.0827 668.714
194.694 24.1135 664.08
194.309 25.2543 662.767
193.164 26.2869 658.861
192.975 27.4413 658.214
192.597 28.5655 656.925
192.032 29.6564 655
191.471 30.7408 653.087
189.808 31.6347 647.414
189.442 32.7324 646.166
188.534 33.7286 643.068
188.173 34.8149 641.838
186.744 35.6926 636.961
186.213 36.7301 635.152
186.39 37.9049 635.754
185.861 38.9342 633.951
185.51 39.9954 632.755
185.686 41.1688 633.353
185.336 42.2248 632.159
184.987 43.2768 630.969
184.466 44.2832 629.194
184.121 45.3264 628.015
183.605 46.3224 626.256
182.922 47.2688 623.926
182.075 48.1636 621.037
181.236 49.0501 618.175
180.239 49.8827 614.776
180.074 50.9384 614.213
180.074 52.0398 614.213
179.909 53.0926 613.651
179.909 54.1929 613.651
179.745 55.2427 613.09
177.795 56.8182 606.438
175.572 57.1818 598.858
175.572 58.2557 598.858
175.103 59.171 597.258
174.792 60.1349 596.196
173.865 60.8793 593.033
173.711 61.8879 592.509
173.865 63.006 593.033
174.019 64.1261 593.558
174.327 65.3061 594.61
174.019 66.2548 593.558
174.482 67.4983 595.138
174.019 68.3835 593.558
170.105 69.9666 580.208
170.105 71.007 580.208
169.811 71.923 579.206
168.069 72.2133 573.265
167.639 73.0539 571.799
167.782 74.1424 572.287
167.354 74.9767 570.826
167.07 75.8711 569.856
166.786 76.7625 568.889
166.645 77.7167 568.407
165.523 78.2057 564.579
165.384 79.1515 564.105
164.691 79.8273 561.742
164.691 80.8346 561.742
164.141 81.5686 559.867
163.731 82.3663 558.468
163.188 83.0909 556.615
163.323 84.1589 557.077
162.782 84.8758 555.232
162.111 85.5175 552.943
161.844 86.3666 552.033
161.579 87.2129 551.126
161.446 88.1287 550.674
161.446 89.1161 550.674
161.313 90.0297 550.222
160.262 90.4229 546.634
160.131 91.3286 546.189
160.001 92.2329 545.745
160.001 93.2115 545.745
160.131 94.2668 546.189
160.131 95.2462 546.189
160.001 96.1473 545.745
159.611 96.8894 544.416
156.936 97.1853 535.292
156.188 97.6774 532.741
156.064 98.5544 532.318
155.941 99.43 531.896
155.941 100.384 531.896
155.817 101.257 531.474
155.941 102.291 531.896
151.729 108.809 517.531
151.379 109.483 516.336
151.262 110.324 515.939
150.222 110.485 512.391
150.222 111.403 512.391
144.165 117.492 491.731
139.363 128.921 475.351
139.363 129.774 475.351
139.66 130.904 476.364
139.759 131.852 476.703
139.859 132.801 477.042
140.158 133.943 478.062
140.358 134.992 478.744
140.358 135.851 478.744
133.135 141.889 454.11
133.316 142.897 454.726
133.678 144.103 455.962
242.456 -68.9046 821.961
241.273 -67.1017 817.952
241.273 -65.635 817.952
240.979 -64.0902 816.955
240.979 -62.6252 816.955
240.102 -60.9377 813.981
238.942 -59.1907 810.049
238.942 -57.7382 810.049
237.793 -56.0151 806.154
237.223 -54.4387 804.221
236.09 -52.7436 800.382
234.135 -50.8834 793.752
233.858 -49.4016 792.814
232.757 -47.7542 789.083
231.939 -46.1763 786.308
231.667 -44.7139 785.387
230.856 -43.154 782.638
230.319 -41.6534 780.815
229.517 -40.1132 778.098
227.668 -38.4061 771.83
227.668 -37.022 771.83
227.407 -35.5971 770.943
227.407 -34.2147 770.943
226.885 -32.757 769.175
226.366 -31.3059 767.415
226.107 -29.8956 766.538
223.3 -28.167 757.021
222.047 -25.3093 752.773
220.316 -23.7727 746.905
219.582 -22.3587 744.418
219.582 -21.0238 744.418
218.13 -19.5588 739.493
218.13 -18.2327 739.493
217.89 -16.8881 738.679
217.411 -15.5293 737.055
215.516 -14.0839 730.632
214.581 -12.7183 727.462
214.349 -11.4015 726.674
213.885 -10.0767 725.103
213.194 -8.74807 722.759
212.279 -7.42008 719.657
211.146 -6.09692 715.817
210.921 -4.80823 715.054
210.472 -3.51853 713.532
209.58 -2.22958 710.509
208.476 -0.950499 706.765
208.476 0.316833 706.765
207.601 1.57752 703.799
207.166 2.83358 702.325
206.733 4.0844 700.857
205.659 5.31337 697.215
205.019 6.54317 695.047
203.753 7.74136 690.752
203.543 8.97074 690.042
203.125 10.1871 688.625
202.294 11.3752 685.808
202.088 12.5921 685.108
201.061 13.7504 681.626
200.45 14.9271 679.555
200.044 16.113 678.18
199.842 17.3116 677.495
199.038 18.4518 674.769
198.838 19.642 674.091
198.838 20.8508 674.091
198.838 22.0595 674.091
197.844 23.1519 670.72
196.274 24.1613 665.397
195.112 25.2045 661.46
194.155 26.2611 658.214
193.964 27.4144 657.569
193.775 28.5655 656.925
193.207 29.6564 655
192.455 30.7109 652.452
191.153 31.6652 648.039
190.785 32.7639 646.789
189.869 33.7609 643.686
189.506 34.8483 642.452
188.064 35.7265 637.567
187.886 36.8348 636.961
187.886 37.9769 636.961
187.352 39.0079 635.152
186.821 40.0331 633.353
186.821 41.1688 633.353
186.294 42.185 631.564
185.943 43.2361 630.376
185.421 44.2417 628.604
185.074 45.284 627.428
184.384 46.236 625.089
183.87 47.2249 623.346
182.344 47.9416 618.175
182.344 49.0501 618.175
181.842 50.0203 616.471
181.176 50.9384 614.213
181.176 52.0398 614.213
181.176 53.1412 614.213
180.844 54.1434 613.09
180.679 55.1923 612.53
178.721 56.7669 605.89
177.279 57.3868 601.004
176.646 58.2557 598.858
176.018 59.1184 596.726
175.705 60.0815 595.666
174.928 60.8793 593.033
174.774 61.8879 592.509
174.774 62.9504 592.509
174.774 64.0128 592.509
175.393 65.3061 594.61
175.083 66.2548 593.558
175.861 67.6183 596.196
175.705 68.6264 595.666
171.145 69.9666 580.208
170.85 70.8844 579.206
170.702 71.8609 578.706
169.387 72.3369 574.247
168.953 73.1787 572.776
168.953 74.2057 572.776
168.665 75.1045 571.799
168.665 76.1298 571.799
168.521 77.0894 571.312
167.806 77.7826 568.889
166.957 78.4037 566.009
166.535 79.2181 564.579
166.395 80.163 564.105
165.976 80.9702 562.685
165.283 81.6367 560.335
165.145 82.5725 559.867
164.322 83.16 557.077
164.322 84.1589 557.077
163.507 84.7355 554.314
163.237 85.588 553.4
162.969 86.4377 552.488
162.7 87.2846 551.579
162.3 88.0564 550.222
162.3 89.043 550.222
162.167 89.9559 549.771
161.242 90.4229 546.634
161.111 91.3286 546.189
161.111 92.308 546.189
161.111 93.2874 546.189
161.242 94.3436 546.634
161.111 95.2462 546.189
161.242 96.304 546.634
160.718 96.9681 544.858
158.529 96.6109 537.436
157.896 97.1853 535.292
157.394 97.8328 533.588
157.144 98.6327 532.741
157.144 99.588 532.741
157.144 100.543 532.741
157.019 101.418 532.318
157.144 102.454 532.741
153.13 105.422 519.133
152.422 105.861 516.734
152.188 106.624 515.939
152.422 108.641 516.734
152.657 109.737 517.531
152.422 110.494 516.734
151.141 110.485 512.391
151.026 111.318 512
146.66 115.233 497.198
140.116 129.682 475.014
140.116 130.534 475.014
140.215 131.478 475.351
140.116 132.237 475.014
140.914 133.847 477.721
141.317 135.089 479.086
141.519 136.142 479.771
133.678 141.601 453.189
134.222 142.994 455.034
243.036 -68.6522 818.95
242.74 -67.1017 817.952
242.444 -65.5551 816.955
242.444 -64.0902 816.955
241.855 -62.4731 814.97
240.976 -60.7901 812.01
240.394 -59.1907 810.049
240.394 -57.7382 810.049
239.239 -56.0151 806.154
239.239 -54.5695 806.154
237.526 -52.7436 800.382
235.837 -50.9436 794.692
235.837 -49.5187 794.692
234.172 -47.7542 789.083
233.897 -46.2848 788.156
233.349 -44.7663 786.308
233.075 -43.3056 785.387
231.989 -41.7019 781.725
231.449 -40.2065 779.907
229.581 -38.4946 773.611
229.581 -37.1075 773.611
229.052 -35.6381 771.83
228.789 -34.2147 770.943
227.742 -32.682 767.415
227.482 -31.2701 766.538
226.963 -29.8274 764.79
224.911 -28.1988 757.876
223.397 -26.6591 752.773
223.648 -25.3377 753.618
222.15 -23.8258 748.572
221.163 -22.3835 745.245
220.917 -21.0238 744.418
219.941 -19.602 741.128
219.456 -18.2327 739.493
219.214 -16.8881 738.679
218.973 -15.5464 737.866
216.355 -14.0533 729.044
215.418 -12.6908 725.888
215.418 -11.3892 725.888
214.953 -10.0658 724.32
214.49 -8.74807 722.759
213.799 -7.42805 720.43
212.43 -6.09692 715.817
211.977 -4.80311 714.292
211.752 -3.51853 713.532
211.302 -2.23431 712.017
210.186 -0.952506 708.258
209.965 0.317167 707.511
209.523 1.5825 706.021
208.644 2.83655 703.061
207.773 4.08013 700.126
207.34 5.32444 698.667
206.266 6.54317 695.047
204.991 7.74136 690.752
204.78 8.97074 690.042
204.36 10.1871 688.625
203.109 11.352 684.409
202.902 12.5664 683.711
202.078 13.7364 680.934
201.873 14.9422 680.244
201.464 16.1293 678.867
201.26 17.3291 678.18
200.248 18.4518 674.769
200.047 19.642 674.091
200.047 20.8508 674.091
200.047 22.0595 674.091
199.046 23.1519 670.72
197.467 24.1613 665.397
196.492 25.2293 662.113
195.719 26.3127 659.509
195.144 27.4144 657.569
194.952 28.5655 656.925
194.571 29.6854 655.641
193.625 30.7109 652.452
192.501 31.6959 648.666
191.945 32.7639 646.789
191.207 33.7934 644.304
191.023 34.9152 643.686
189.93 35.8629 640
189.208 36.8698 637.567
189.208 38.013 637.567
188.67 39.0449 635.754
188.135 40.071 633.951
188.67 41.3249 635.754
187.78 42.2646 632.755
186.548 43.1145 628.604
186.548 44.2417 628.604
186.373 45.3264 628.015
185.505 46.236 625.089
184.816 47.181 622.767
183.792 48.0302 619.317
183.792 49.1407 619.317
183.453 50.1586 618.175
182.444 50.9851 614.776
182.444 52.0875 614.776
182.277 53.1412 614.213
182.11 54.1929 613.651
181.944 55.2427 613.09
179.321 56.6135 604.253
177.72 57.1818 598.858
178.038 58.3599 599.929
177.562 59.2766 598.323
177.088 60.1884 596.726
175.836 60.8255 592.509
175.681 61.8333 591.986
175.681 62.8948 591.986
175.526 63.8999 591.464
175.681 65.0179 591.986
175.526 66.0211 591.464
175.836 67.2002 592.509
175.836 68.2627 592.509
173.385 68.3589 584.251
171.888 68.8072 579.206
172.037 69.9062 579.706
171.74 70.8232 578.706
171.444 71.7371 577.709
171.002 72.5855 576.22
170.855 73.5555 575.726
170.855 74.5879 575.726
170.416 75.426 574.247
169.835 76.1948 572.287
169.69 77.1552 571.799
168.97 77.8486 569.372
167.689 78.2716 565.055
167.689 79.2848 565.055
167.548 80.2305 564.579
167.266 81.1063 563.631
166.288 81.6367 560.335
165.872 82.4349 558.934
165.458 83.2291 557.54
165.458 84.2288 557.54
165.184 85.0871 556.615
164.23 85.588 553.4
163.959 86.4377 552.488
163.555 87.2129 551.126
163.421 88.1287 550.674
163.287 89.043 550.222
163.153 89.9559 549.771
162.487 90.5705 547.527
162.222 91.4031 546.634
162.222 92.3833 546.634
162.09 93.2874 546.189
162.09 94.2668 546.189
