ply
format ascii 1.0
element vertex 1905
property float x
property float y
property float z
end_header
-208.018 -5.8294 684.409
-206.962 -4.5788 680.934
-207.172 -3.3612 681.626
-207.806 -2.14549 683.711
-207.594 -0.918557 683.015
-206.752 0.304944 680.244
-206.333 1.52163 678.867
-204.266 2.71149 672.065
-202.843 3.88932 667.384
-202.843 5.08604 667.384
-202.843 6.28275 667.384
-202.843 7.47946 667.384
-202.641 8.66755 666.72
-203.045 9.88273 668.048
-203.045 11.0806 668.048
-203.045 12.2785 668.048
-202.641 13.4497 666.72
-201.639 14.5727 663.423
-199.664 15.608 656.925
-199.469 16.7695 656.282
-198.691 17.8764 653.724
-198.305 19.0115 652.452
-198.305 20.1815 652.452
-198.112 21.3306 651.818
-196.964 22.369 648.039
-197.154 23.5538 648.666
-196.964 24.6931 648.039
-196.964 25.8551 648.039
-196.773 26.991 647.414
-196.017 28.0437 644.923
-194.52 28.9772 640
-192.864 29.8683 634.551
-192.682 30.9769 633.951
-192.5 32.0833 633.353
-192.5 33.219 633.353
-192.137 34.2899 632.159
-192.318 35.4569 632.755
-192.318 36.5915 632.755
-192.137 37.6906 632.159
-191.956 38.7876 631.564
-191.595 39.845 630.376
-157.54 116.413 518.331
-159.888 120.034 526.055
-159.888 120.977 526.055
-160.391 122.304 527.711
-160.518 123.348 528.126
-160.644 124.392 528.542
-160.771 125.439 528.959
-160.644 126.288 528.542
-158.274 125.359 520.746
-158.274 126.293 520.746
-157.906 126.931 519.536
-158.767 128.559 522.368
-158.767 129.496 522.368
-159.015 130.636 523.183
-159.388 131.883 524.41
-158.891 132.409 522.775
-159.015 133.451 523.183
-159.015 134.389 523.183
-158.891 135.221 522.775
-158.767 136.053 522.368
-158.397 136.67 521.15
-157.784 137.072 519.133
-156.934 137.259 516.336
-156.934 138.185 516.336
-156.934 139.111 516.336
-156.934 140.037 516.336
-156.934 140.963 516.336
-156.934 141.889 516.336
-156.693 143.519 515.542
-155.735 143.561 512.391
-155.025 143.821 510.054
-154.789 144.515 509.279
-154.789 145.429 509.279
-154.672 146.231 508.893
-154.437 146.92 508.122
-154.32 147.72 507.737
-154.087 148.405 506.969
-153.971 149.202 506.586
-153.971 150.11 506.586
-153.855 150.905 506.204
-153.391 151.355 504.681
-153.046 151.917 503.544
-152.588 153.263 502.036
-152.246 153.818 500.911
-152.019 154.485 500.164
-151.792 155.151 499.42
-151.68 155.93 499.048
-151.454 156.592 498.306
-151.342 157.369 497.936
-151.229 158.144 497.567
-151.117 158.918 497.198
-151.005 159.692 496.83
-150.894 160.464 496.462
-150.448 160.877 494.997
-150.226 161.527 494.267
-150.337 162.533 494.632
-150.448 163.54 494.997
-148.476 163.148 488.507
-148.584 164.144 488.863
-148.476 164.9 488.507
-148.368 165.655 488.152
-148.044 166.168 487.088
-148.152 167.163 487.442
-147.616 167.428 485.677
-147.616 169.17 485.677
-146.239 169.318 481.148
-147.723 171.907 486.029
-147.616 172.654 485.677
-145.301 170.804 478.062
-145.094 172.273 477.381
-144.991 173.861 477.042
-144.991 174.716 477.042
-145.197 175.822 477.721
-144.888 177.156 476.703
-144.58 177.632 475.688
-142.259 182.335 468.053
-142.16 183.047 467.727
-142.259 184.014 468.053
-142.061 184.595 467.401
-141.863 185.175 466.75
-239.544 -102.002 792.814
-238.137 -99.9893 788.156
-237.857 -98.4603 787.231
-237.579 -96.9349 786.308
-237.023 -95.3015 784.468
-236.194 -93.5665 781.725
-235.919 -92.0575 780.815
-235.645 -90.5519 779.907
-235.098 -88.9466 778.098
-233.204 -86.8461 771.83
-231.605 -84.8761 766.538
-231.077 -83.3112 764.79
-231.341 -82.0333 765.663
-230.814 -80.4766 763.918
-230.028 -78.8374 761.317
-229.767 -77.3845 760.454
-229.507 -75.9348 759.593
-228.988 -74.4042 757.876
-228.472 -72.8805 756.167
-227.446 -71.2035 752.773
-227.958 -70.0108 754.466
-227.446 -68.5038 752.773
-227.702 -67.2295 753.618
-227.191 -65.7304 751.929
-226.177 -64.0947 748.572
-225.172 -62.4735 745.245
-224.175 -60.8666 741.947
-223.434 -59.3393 739.493
-222.697 -57.822 737.055
-222.209 -56.3764 735.439
-221.48 -54.8772 733.028
-221.48 -53.5628 733.028
-220.997 -50.8228 731.429
-220.997 -49.5113 731.429
-220.516 -48.0948 729.837
-219.561 -46.5834 726.674
-217.441 -44.8431 719.657
-217.674 -43.5994 720.43
-217.207 -42.2169 718.886
-216.511 -40.7966 716.582
-215.82 -39.3855 714.292
-216.511 -38.2268 716.582
-217.908 -37.1802 721.205
-217.441 -35.8099 719.657
-217.441 -34.5195 719.657
-216.05 -33.0165 715.054
-215.82 -31.7005 714.292
-215.361 -30.355 712.774
-214.676 -28.9845 710.509
-213.996 -27.6227 708.258
-213.771 -26.3249 707.511
-213.545 -25.0298 706.765
-213.096 -23.7125 705.279
-211.76 -22.3071 700.857
-211.539 -21.0284 700.126
-211.539 -19.773 700.126
-211.539 -18.5175 700.126
-210.879 -17.2082 697.94
-210.66 -15.9401 697.215
-211.539 -14.7512 700.126
-208.492 -13.3014 690.042
-207.851 -12.027 687.918
-207.425 -10.7713 686.51
-207.213 -9.53058 685.808
-206.79 -8.28389 684.409
-206.79 -7.05664 684.409
-205.95 -5.8057 681.626
-205.532 -4.57415 680.244
-205.532 -3.35438 680.244
-205.95 -2.13894 681.626
-206.369 -0.918557 683.015
-205.532 0.304944 680.244
-204.702 1.51856 677.495
-203.264 2.71421 672.739
-201.847 3.8932 668.048
-201.446 5.08098 666.72
-201.446 6.2765 666.72
-200.648 7.44244 664.08
-200.252 8.61616 662.767
-200.252 9.8046 662.767
-200.252 10.993 662.767
-200.45 12.1935 663.423
-200.252 13.3699 662.767
-200.054 14.544 662.113
-198.876 15.6386 658.214
-198.876 16.8189 658.214
-198.098 17.9288 655.641
-197.327 19.03 653.087
-197.135 20.1815 652.452
-197.135 21.3514 652.452
-196.181 22.4123 649.294
-196.752 23.6453 651.185
-196.752 24.8129 651.185
-196.752 25.9806 651.185
-195.801 27.0171 648.039
-194.86 28.0437 644.923
-192.09 28.7849 635.754
-191.184 29.7838 632.755
-191.184 30.9184 632.755
-191.184 32.053 632.755
-191.184 33.1876 632.755
-191.003 34.2899 632.159
-191.184 35.4569 632.755
-191.184 36.5915 632.755
-191.003 37.6906 632.159
-191.003 38.8241 632.159
-156.853 116.593 519.133
-156.732 117.433 518.732
-159.822 122.594 528.959
-159.822 123.542 528.959
-159.822 124.491 528.959
-159.948 125.538 529.377
-159.571 126.189 528.126
-157.34 127.226 520.746
-157.954 128.66 522.775
-158.077 129.698 523.183
-158.077 130.636 523.183
-158.2 131.677 523.591
-157.954 132.409 522.775
-157.954 133.347 522.775
-158.077 134.389 523.183
-157.831 135.116 522.368
-157.708 135.947 521.961
-157.463 136.67 521.15
-156.732 136.966 518.732
-156.128 137.365 516.734
-156.008 138.185 516.336
-155.888 139.004 515.939
-156.008 140.037 516.336
-155.888 140.854 515.939
-155.888 141.78 515.939
-155.768 142.595 515.542
-155.768 143.519 515.542
-154.935 143.671 512.783
-154.11 143.821 510.054
-153.876 144.515 509.279
-153.876 145.429 509.279
-153.876 146.342 509.279
-153.643 147.032 508.507
-153.178 147.496 506.969
-153.062 148.293 506.586
-152.831 148.977 505.822
-152.831 149.884 505.822
-152.601 150.564 505.061
-152.257 151.128 503.922
-152.143 151.917 503.544
-152.143 152.82 503.544
-151.461 153.034 501.286
-151.122 153.588 500.164
-151.122 154.485 500.164
-151.122 155.382 500.164
-151.122 156.279 500.164
-151.122 157.176 500.164
-151.122 158.073 500.164
-150.561 158.379 498.306
-150.449 159.154 497.936
-150.226 159.81 497.198
-149.782 160.226 495.728
-149.34 160.64 494.267
-148.792 160.934 492.453
-149.12 162.174 493.54
-149.45 163.42 494.632
-147.815 166.018 489.22
-147.6 166.652 488.507
-147.492 167.406 488.152
-146.851 167.55 486.029
-146.851 169.293 486.029
-145.481 169.44 481.493
-145.585 171.289 481.839
-144.341 170.682 477.721
-144.238 171.417 477.381
-144.033 172.028 476.703
-144.033 172.882 476.703
-144.033 173.737 476.703
-144.136 174.716 477.042
-141.716 182.718 469.035
-141.716 183.559 469.035
-141.617 184.271 468.707
-141.223 184.595 467.401
-141.124 185.304 467.075
-237.561 -103.18 790.944
-237.002 -101.522 789.083
-236.724 -99.9893 788.156
-236.446 -98.4603 787.231
-236.169 -96.9349 786.308
-235.892 -95.4131 785.387
-235.066 -93.6757 782.638
-234.519 -92.0575 780.815
-233.974 -90.4468 779.002
-232.623 -88.5358 774.504
-231.82 -86.8461 771.83
-230.494 -84.9732 767.415
-229.706 -83.3112 764.79
-229.706 -81.9398 764.79
-228.923 -80.2937 762.182
-228.145 -78.6589 759.593
-227.887 -77.2094 758.734
-227.887 -75.8489 758.734
-227.629 -74.4042 757.876
-227.629 -73.0452 757.876
-226.605 -71.3637 754.466
-227.116 -70.1687 756.167
-226.35 -68.5808 753.618
-226.096 -67.154 752.773
-225.59 -65.6568 751.087
-225.338 -64.238 750.247
-224.334 -62.6126 746.905
-223.835 -61.1371 745.245
-221.863 -59.2739 738.679
-220.89 -57.6952 735.439
-220.407 -56.2531 733.83
-220.166 -54.8772 733.028
-220.166 -53.5628 733.028
-219.926 -52.1913 732.228
-219.446 -50.7675 730.632
-219.446 -49.4573 730.632
-219.686 -48.1997 731.429
-218.258 -46.5834 726.674
-217.082 -45.0364 722.759
-216.848 -43.6933 721.981
-216.615 -42.3531 721.205
-216.15 -40.9717 719.657
-215.457 -39.554 717.348
-215.918 -38.3497 718.886
-216.615 -37.1802 721.205
-215.457 -35.695 717.348
-215.687 -34.4456 718.116
-214.767 -33.0165 715.054
-214.083 -31.6331 712.774
-213.177 -30.2265 709.757
-212.726 -28.8927 708.258
-212.502 -27.5935 707.511
-212.278 -26.2971 706.765
-212.055 -25.0035 706.021
-212.055 -23.7375 706.021
-210.724 -22.3304 701.59
-210.284 -21.0284 700.126
-210.284 -19.773 700.126
-210.504 -18.5369 700.857
-209.846 -17.2261 698.667
-209.846 -15.9733 698.667
-210.724 -14.7821 701.59
-209.192 -13.4258 696.491
-207.682 -12.089 691.464
-207.682 -10.8491 691.464
-207.468 -9.59929 690.752
-206.829 -8.33492 688.625
-205.773 -7.06385 685.108
-204.727 -5.8057 681.626
-204.312 -4.57415 680.244
-204.312 -3.35438 680.244
-204.312 -2.13461 680.244
-204.727 -0.91669 681.626
-203.899 0.304326 678.867
-202.668 1.51245 674.769
-201.654 2.70878 671.392
-200.649 3.8932 668.048
-200.051 5.07593 666.058
-199.853 6.26405 665.397
-199.457 7.44244 664.08
-199.26 8.62469 663.423
-199.26 9.8143 663.423
-199.26 11.0039 663.423
-199.26 12.1935 663.423
-198.867 13.3567 662.113
-198.867 14.544 662.113
-197.502 15.6233 657.569
-197.502 16.8024 657.569
-196.156 17.8589 653.087
-195.965 19.0115 652.452
-195.965 20.1815 652.452
-195.774 21.3306 651.818
-194.639 22.369 648.039
-194.639 23.531 648.039
-194.452 24.6692 647.414
-194.264 25.8052 646.789
-194.077 26.939 646.166
-192.962 27.9362 642.452
-190.588 28.7305 634.551
-189.87 29.7557 632.159
-190.049 30.9184 632.755
-190.049 32.053 632.755
-190.049 33.1876 632.755
-190.049 34.3223 632.755
-190.049 35.4569 632.755
-190.228 36.6261 633.353
-155.441 116.233 517.531
-155.802 117.433 518.732
-155.802 118.363 518.732
-155.561 119.109 517.931
-158.374 123.154 527.296
-154.963 121.426 515.939
-154.488 121.976 514.356
-153.546 122.149 511.22
-153.546 123.066 511.22
-156.772 126.587 521.961
-156.65 127.424 521.556
-156.894 128.559 522.368
-157.016 129.597 522.775
-156.894 130.433 522.368
-156.894 131.369 522.368
-157.016 132.409 522.775
-157.139 133.451 523.183
-157.507 134.704 524.41
-157.139 135.327 523.183
-156.894 136.053 522.368
-156.65 136.776 521.556
-155.922 137.072 519.133
-155.681 137.79 518.331
-155.441 138.505 517.531
-155.082 139.111 516.336
-155.082 140.037 516.336
-154.844 140.746 515.542
-154.606 141.453 514.751
-154.369 142.158 513.962
-154.369 143.08 513.962
-154.015 143.671 512.783
-153.78 144.37 512
-152.963 144.515 509.279
-152.963 145.429 509.279
-152.847 146.231 508.893
-152.5 146.809 507.737
-152.269 147.496 506.969
-152.039 148.181 506.204
-151.81 148.864 505.441
-151.924 149.884 505.822
-151.582 150.45 504.681
-151.354 151.128 503.922
-151.127 151.803 503.166
-150.225 152.691 500.164
-150.001 153.36 499.42
-150.001 154.255 499.42
-149.778 154.92 498.677
-150.225 156.279 500.164
-150.225 157.176 500.164
-150.001 157.837 499.42
-149.445 158.144 497.567
-149.224 158.801 496.83
-148.893 159.337 495.728
-148.673 159.99 494.997
-148.454 160.64 494.267
-148.454 161.527 494.267
-148.673 162.653 494.997
-147.26 166.382 490.293
-146.831 166.773 488.863
-146.724 167.528 488.507
-146.085 167.671 486.382
-145.98 168.421 486.029
-145.98 169.293 486.029
-145.874 170.912 485.677
-145.663 171.534 484.975
-144.929 171.536 482.533
-143.484 170.682 477.721
-143.382 171.417 477.381
-143.178 172.028 476.703
-143.178 172.882 476.703
-143.178 173.737 476.703
-143.077 174.468 476.364
-143.077 175.322 476.364
-142.975 176.051 476.026
-140.974 182.845 469.363
-140.974 183.687 469.363
-140.777 184.271 468.707
-140.287 184.467 467.075
-140.189 185.175 466.75
-236.701 -106.267 792.814
-236.701 -104.845 792.814
-236.422 -103.301 791.878
-236.422 -101.881 791.878
-236.143 -100.343 790.944
-235.587 -98.692 789.083
-235.034 -97.0487 787.231
-234.484 -95.4131 785.387
-233.663 -93.6757 782.638
-233.119 -92.0575 780.815
-232.848 -90.5519 779.907
-232.848 -89.1535 779.907
-230.702 -86.9462 772.719
-229.907 -85.2659 770.058
-228.595 -83.4063 765.663
-228.334 -81.9398 764.79
-228.074 -80.4766 763.918
-227.04 -78.7481 760.454
-226.783 -77.2968 759.593
-226.783 -75.9348 759.593
-226.015 -74.3202 757.021
-226.27 -73.0452 757.876
-225.76 -71.5246 756.167
-226.27 -70.3272 757.876
-224.999 -68.5808 753.618
-224.747 -67.154 752.773
-224.495 -65.7304 751.929
-224.243 -64.31 751.087
-222.995 -62.6126 746.905
-220.296 -60.5318 737.866
-220.054 -59.1437 737.055
-219.091 -57.569 733.83
-219.091 -56.2531 733.83
-218.852 -54.8772 733.028
-218.852 -53.5628 733.028
-218.613 -52.1913 732.228
-217.426 -50.6021 728.252
-217.662 -49.3498 729.044
-217.426 -47.9904 728.252
-216.486 -46.4826 725.103
-215.09 -44.8912 720.43
-216.486 -43.8822 725.103
-216.252 -42.536 724.32
-215.322 -41.0598 721.205
-214.4 -39.5963 718.116
-214.4 -38.3086 718.116
-214.629 -37.0606 718.886
-213.258 -35.543 714.292
-213.485 -34.2987 715.054
-213.031 -32.9462 713.532
-211.456 -31.4327 708.258
-211.233 -30.1309 707.511
-211.011 -28.8318 706.765
-211.011 -27.5645 706.765
-211.011 -26.2971 706.765
-210.567 -24.9772 705.279
-210.346 -23.6876 704.538
-209.247 -22.3071 700.857
-208.81 -21.0065 699.396
-208.593 -19.7318 698.667
-209.028 -18.5175 700.126
-208.593 -17.2261 698.667
-208.593 -15.9733 698.667
-209.247 -14.7667 700.857
-208.159 -13.4397 697.215
-207.512 -12.1516 695.047
-207.083 -10.8827 693.609
-206.442 -9.60918 691.464
-205.595 -8.33492 688.625
-202.887 -7.0066 679.555
-202.681 -5.7822 678.867
-202.681 -4.56489 678.867
-202.681 -3.34759 678.867
-202.887 -2.13244 679.555
-202.681 -0.912979 678.867
-202.476 0.304019 678.18
-201.458 1.51245 674.769
-200.852 2.71421 672.739
-199.849 3.90097 669.382
-199.451 5.0911 668.048
-199.451 6.28901 668.048
-199.451 7.48691 668.048
-199.055 8.66755 666.72
-198.463 9.83375 664.738
-198.266 11.0148 664.08
-197.875 12.1815 662.767
-197.875 13.3699 662.767
-197.679 14.544 662.113
-196.323 15.6233 657.569
-196.13 16.7859 656.925
-194.985 17.8589 653.087
-194.985 19.03 653.087
-194.985 20.2011 653.087
-194.606 21.3306 651.818
-193.477 22.369 648.039
-193.291 23.5083 647.414
-193.104 24.6454 646.789
-192.918 25.7804 646.166
-192.362 26.8614 644.304
-191.626 27.9095 641.838
-188.914 29.7838 632.755
-188.914 30.9184 632.755
-188.914 32.053 632.755
-188.914 33.1876 632.755
-189.093 35.4904 633.353
-189.271 36.6607 633.951
-154.992 116.593 519.133
-154.992 117.524 519.133
-154.992 118.455 519.133
-154.872 119.293 518.732
-154.872 120.223 518.732
-154.633 120.966 517.931
-154.038 121.426 515.939
-153.565 121.976 514.356
-152.862 122.335 512
-154.992 125.902 519.133
-155.232 127.029 519.938
-155.836 128.459 521.961
-155.957 129.496 522.368
-155.957 130.433 522.368
-155.957 131.369 522.368
-155.957 132.306 522.368
-155.957 133.243 522.368
-155.957 134.179 522.368
-155.957 135.116 522.368
-155.836 135.947 521.961
-155.473 136.564 520.746
-154.992 137.072 519.133
-154.513 137.577 517.531
-154.275 138.292 516.734
-154.156 139.111 516.336
-154.156 140.037 516.336
-154.038 140.854 515.939
-153.919 141.671 515.542
-153.919 142.595 515.542
-153.801 143.409 515.146
-153.096 143.671 512.783
-152.281 143.821 510.054
-152.165 144.625 509.666
-152.049 145.429 509.279
-152.049 146.342 509.279
-151.474 146.698 507.353
-151.246 147.385 506.586
-151.131 148.181 506.204
-151.017 148.977 505.822
-151.017 149.884 505.822
-150.79 150.564 505.061
-150.112 151.69 502.789
-149.551 152.021 500.911
-149.328 152.691 500.164
-149.106 153.36 499.42
-148.774 153.911 498.306
-148.553 154.575 497.567
-148.774 155.698 498.306
-148.995 156.825 499.048
-148.663 157.369 497.936
-148.443 158.027 497.198
-148.004 158.449 495.728
-147.676 158.985 494.632
-147.676 159.872 494.632
-147.459 160.522 493.903
-147.459 161.408 493.903
-147.568 162.413 494.267
-147.026 163.583 492.453
-145.848 164.9 488.507
-145.848 165.776 488.507
-145.742 166.531 488.152
-145.742 167.406 488.152
-145.319 167.793 486.735
-145.213 168.543 486.382
-145.319 169.538 486.735
-145.319 170.411 486.735
-145.213 171.16 486.382
-145.108 171.907 486.029
-144.064 171.536 482.533
-142.628 170.682 477.721
-142.526 171.417 477.381
-142.425 172.15 477.042
-142.425 173.005 477.042
-142.324 173.737 476.703
-142.222 174.468 476.364
-142.324 175.447 476.703
-142.324 176.302 476.703
-142.021 176.779 475.688
-141.021 182.31 472.338
-140.231 182.973 469.692
-139.839 183.302 468.38
-139.546 183.757 467.401
-139.449 184.467 467.075
-139.352 185.175 466.75
-235.28 -106.267 792.814
-235.558 -104.969 793.752
-235.558 -103.546 793.752
-235.558 -102.123 793.752
-235.28 -100.58 792.814
-234.725 -98.9247 790.944
-233.349 -96.9349 786.308
-232.531 -95.1902 783.552
-231.989 -93.5665 781.725
-231.989 -92.1648 781.725
-231.989 -90.763 781.725
-231.719 -89.2572 780.815
-231.181 -87.653 779.002
-229.052 -85.4621 771.83
-227.222 -83.4063 765.663
-226.704 -81.8465 763.918
-225.676 -80.1117 760.454
-225.166 -78.5699 758.734
-224.911 -77.1221 757.876
-225.166 -75.8489 758.734
-224.657 -74.3202 757.021
-225.166 -73.1278 758.734
-224.911 -71.6862 757.876
-224.911 -70.3272 757.876
-224.404 -68.8127 756.167
-223.899 -67.3051 754.466
-223.146 -65.7304 751.929
-222.896 -64.31 751.087
-221.655 -62.6126 746.905
-218.973 -60.5318 737.866
-218.732 -59.1437 737.055
-217.775 -57.569 733.83
-217.537 -56.1916 733.028
-217.537 -54.8772 733.028
-217.537 -53.5628 733.028
-217.063 -52.1344 731.429
-215.886 -50.5472 727.462
-216.12 -49.2962 728.252
-216.12 -47.9904 728.252
-215.185 -46.4826 725.103
-213.799 -44.8912 720.43
-214.49 -43.7404 722.759
-214.49 -42.4443 722.759
-214.028 -41.0598 721.205
-213.34 -39.6387 718.886
-212.884 -38.2677 717.348
-212.656 -36.9418 716.582
-212.203 -35.5809 715.054
-211.977 -34.2622 714.292
-211.752 -32.9462 713.532
-210.854 -31.5326 710.509
-210.186 -30.1627 708.258
-209.965 -28.8622 707.511
-209.523 -27.5354 706.021
-209.743 -26.2971 706.765
-209.302 -24.9772 705.279
-209.523 -23.7375 706.021
-208.863 -22.4007 703.799
-208.208 -21.0724 701.59
-207.99 -19.7936 700.857
-207.773 -18.5175 700.126
-207.34 -17.2261 698.667
-206.052 -15.8741 694.328
-206.48 -14.6594 695.768
-206.052 -13.3841 694.328
-205.839 -12.1265 693.609
-205.203 -10.8491 691.464
-204.57 -9.57955 689.332
-202.902 -8.27544 683.711
-201.873 -7.0137 680.244
-201.668 -5.78806 679.555
-201.668 -4.56952 679.555
-201.464 -3.34759 678.867
-201.668 -2.13244 679.555
-201.668 -0.913904 679.555
-201.464 0.304326 678.867
-200.652 1.5155 676.129
-199.445 2.71149 672.065
-198.056 3.88932 667.384
-196.881 5.05585 663.423
-196.881 6.24546 663.423
-197.271 7.44981 664.738
-197.663 8.65895 666.058
-197.859 9.86308 666.72
-197.467 11.0367 665.397
-196.881 12.1935 663.423
-196.686 13.3699 662.767
-195.719 14.4868 659.509
-194.952 15.608 656.925
-194.571 16.7531 655.641
-193.813 17.8589 653.087
-193.625 19.0115 652.452
-193.437 20.1618 651.818
-192.315 21.207 648.039
-191.945 22.3259 646.789
-191.76 23.463 646.166
-191.945 24.6454 646.789
-191.207 25.7061 644.304
-191.023 26.8356 643.686
-191.391 28.0437 644.923
-191.391 29.2001 644.923
-154.3 116.774 519.938
-154.3 117.706 519.938
-154.18 118.546 519.536
-154.061 119.385 519.133
-153.942 120.223 518.732
-153.823 121.06 518.331
-153.113 121.426 515.939
-152.643 121.976 514.356
-151.944 122.335 512
-154.78 127.424 521.556
-155.021 128.559 522.368
-155.021 129.496 522.368
-155.021 130.433 522.368
-155.021 131.369 522.368
-155.021 132.306 522.368
-155.021 133.243 522.368
-155.021 134.179 522.368
-155.141 135.221 522.775
-154.9 135.947 521.961
-154.3 136.352 519.938
-154.061 137.072 519.133
-153.585 137.577 517.531
-153.349 138.292 516.734
-153.231 139.111 516.336
-153.231 140.037 516.336
-153.113 140.854 515.939
-152.877 141.562 515.146
-152.76 142.376 514.751
-152.877 143.409 515.146
-152.409 143.891 513.568
-152.176 144.59 512.783
-151.481 144.845 510.442
-151.481 145.761 510.442
-151.481 146.676 510.442
-151.251 147.367 509.666
-149.997 147.052 505.441
-149.772 147.735 504.681
-149.547 148.417 503.922
-149.434 149.209 503.544
-149.322 149.999 503.166
-149.098 150.675 502.412
-148.764 151.236 501.286
-148.431 151.795 500.164
-148.1 152.351 499.048
-147.661 152.791 497.567
-147.661 153.683 497.567
-147.551 154.461 497.198
-147.661 155.467 497.567
-147.88 156.592 498.306
-147.661 157.252 497.567
-147.115 157.56 495.728
-147.006 158.332 495.362
-146.789 158.985 494.632
-146.789 159.872 494.632
-146.681 160.64 494.267
-146.681 161.527 494.267
-146.681 162.413 494.267
-146.681 163.299 494.267
-145.928 163.343 491.731
-146.25 165.47 492.814
-144.551 164.421 487.088
-144.551 165.295 487.088
-144.656 166.289 487.442
-144.656 167.163 487.442
-144.341 167.671 486.382
-144.237 168.421 486.029
-144.341 169.416 486.382
-144.551 170.535 487.088
-144.866 171.783 488.152
-144.132 171.783 485.677
-143.199 171.536 482.533
-141.771 170.682 477.721
-141.67 171.417 477.381
-141.569 172.15 477.042
-141.569 173.005 477.042
-141.268 173.491 476.026
-141.068 174.097 475.351
-140.968 174.826 475.014
-140.968 175.677 475.014
-140.968 176.529 475.014
-139.388 175.393 469.692
-140.174 182.31 472.338
-139.976 182.9 471.674
-139.291 182.845 469.363
-138.708 182.919 467.401
-138.708 183.757 467.401
-138.612 184.467 467.075
-138.612 185.304 467.075
-234.135 -104.969 793.752
-233.306 -103.18 790.944
-233.858 -102.002 792.814
-233.582 -100.461 791.878
-232.211 -98.4603 787.231
-231.667 -96.8214 785.387
-230.587 -94.9683 781.725
-230.587 -93.5665 781.725
-230.319 -92.0575 780.815
-230.587 -90.763 781.725
-230.587 -89.3613 781.725
-230.051 -87.755 779.907
-227.668 -85.4621 771.83
-226.625 -83.6929 768.294
-225.849 -82.0333 765.663
-224.822 -80.2937 762.182
-223.552 -78.4811 757.876
-223.552 -77.1221 757.876
-223.805 -75.8489 758.734
-223.552 -74.4042 757.876
-223.805 -73.1278 758.734
-223.805 -71.7673 758.734
-223.805 -70.4068 758.734
-223.552 -68.9683 757.876
-223.048 -67.4568 756.167
-222.047 -65.8042 752.773
-221.55 -64.31 751.087
-220.316 -62.6126 746.905
-218.854 -60.8666 741.947
-217.89 -59.2739 738.679
-217.172 -57.7585 736.246
-216.459 -56.2531 733.83
-215.987 -54.8173 732.228
-215.987 -53.5043 732.228
-215.987 -52.1913 732.228
-215.048 -50.6571 729.044
-215.282 -49.4035 729.837
-215.282 -48.0948 729.837
-214.117 -46.5329 725.888
-213.654 -45.1336 724.32
-214.117 -43.9297 725.888
-214.117 -42.6281 725.888
-213.194 -41.1483 722.759
-212.279 -39.6813 719.657
-211.824 -38.3086 718.116
-211.598 -36.9813 717.348
-210.921 -35.5809 715.054
-210.696 -34.2622 714.292
-210.472 -32.9462 713.532
-208.476 -31.3665 706.765
-208.476 -30.0991 706.765
-208.038 -28.7712 705.279
-208.257 -27.5354 706.021
-208.257 -26.2694 706.021
-208.038 -24.9772 705.279
-208.257 -23.7375 706.021
-208.257 -22.4715 706.021
-207.383 -21.1165 703.061
-206.95 -19.8143 701.59
-205.659 -18.4405 697.215
-205.445 -17.1725 696.491
-204.807 -15.8741 694.328
-205.019 -14.6442 695.047
-204.384 -13.3564 692.893
-204.173 -12.1014 692.178
-204.173 -10.8603 692.178
-203.543 -9.58941 690.042
-202.294 -8.30083 685.808
-201.47 -7.04227 683.015
-201.265 -5.81161 682.32
-200.45 -4.56952 679.555
-200.247 -3.34759 678.867
-200.653 -2.13461 680.244
-200.45 -0.913904 679.555
-200.45 0.304635 679.555
-199.439 1.5155 676.129
-195.691 3.86624 663.423
-195.498 5.05086 662.767
-195.498 6.23929 662.767
-195.691 7.43507 663.423
-196.859 8.67618 667.384
-196.859 9.87289 667.384
-196.274 11.0367 665.397
-195.885 12.2056 664.08
-195.498 13.3699 662.767
-194.537 14.4868 659.509
-193.585 15.5927 656.282
-192.83 16.7041 653.724
-192.268 17.8242 651.818
-192.081 18.9746 651.185
-191.895 20.1227 650.553
-191.153 21.207 648.039
-190.969 22.3474 647.414
-190.785 23.4857 646.789
-190.785 24.6454 646.789
-189.687 25.6568 643.068
-189.506 26.7842 642.452
-190.601 28.0977 646.166
-152.893 115.483 518.331
-153.011 116.503 518.732
-153.13 117.524 519.133
-153.13 118.455 519.133
-152.893 119.201 518.331
-153.011 120.223 518.732
-152.893 121.06 518.331
-152.305 121.52 516.336
-151.721 121.976 514.356
-151.026 122.335 512
-151.141 123.348 512.391
-153.725 128.26 521.15
-153.725 129.194 521.15
-153.844 130.23 521.556
-153.964 131.267 521.961
-153.964 132.203 521.961
-153.844 133.036 521.556
-153.844 133.971 521.556
-153.964 135.011 521.961
-153.725 135.736 521.15
-153.367 136.352 519.938
-153.248 137.178 519.536
-152.775 137.683 517.931
-152.54 138.398 517.132
-152.305 139.111 516.336
-152.305 140.037 516.336
-152.071 140.746 515.542
-152.071 141.671 515.542
-151.954 142.485 515.146
-152.071 143.519 515.542
-152.071 144.444 515.542
-151.837 145.145 514.751
-150.223 145.429 509.279
-150.223 146.342 509.279
-149.429 146.477 506.586
-149.091 147.052 505.441
-148.867 147.735 504.681
-148.643 148.417 503.922
-148.42 149.097 503.166
-148.42 149.999 503.166
-148.198 150.675 502.412
-148.087 151.462 502.036
-147.755 152.021 500.911
-147.645 152.805 500.538
-147.645 153.703 500.538
-146.877 153.797 497.936
-146.768 154.575 497.567
-146.768 155.467 497.567
-146.768 156.36 497.567
-146.66 157.135 497.198
-146.334 157.676 496.095
-146.01 158.215 494.997
-145.902 158.985 494.632
-145.795 159.754 494.267
-145.795 160.64 494.267
-145.795 161.527 494.267
-145.795 162.413 494.267
-145.902 163.42 494.632
-145.153 163.463 492.091
-145.153 164.345 492.091
-145.473 165.592 493.177
-143.886 164.66 487.797
-143.573 165.175 486.735
-144.096 166.652 488.507
-143.886 167.284 487.797
-143.469 167.671 486.382
-143.261 168.299 485.677
-143.261 169.17 485.677
-143.261 170.041 485.677
-143.158 170.788 485.326
-142.744 171.163 483.925
-142.436 171.659 482.88
-140.914 170.682 477.721
-140.814 171.417 477.381
-140.714 172.15 477.042
-140.714 173.005 477.042
-140.614 173.737 476.703
-140.414 174.344 476.026
-140.215 174.949 475.351
-140.215 175.802 475.351
-140.215 176.654 475.351
-138.546 175.393 469.692
-139.229 182.182 472.006
-138.838 182.515 470.681
-138.352 182.718 469.035
-137.774 182.792 467.075
-137.774 183.629 467.075
-137.774 184.467 467.075
-137.678 185.175 466.75
-232.987 -106.519 794.692
-232.711 -104.969 793.752
-231.342 -102.937 789.083
-232.436 -102.002 792.814
-232.436 -100.58 792.814
-230.799 -98.4603 787.231
-230.259 -96.8214 785.387
-229.453 -95.0791 782.638
-229.185 -93.5665 781.725
-228.919 -92.0575 780.815
-229.185 -90.763 781.725
-229.185 -89.3613 781.725
-228.122 -87.5514 778.098
-226.545 -85.5606 772.719
-225.506 -83.7889 769.175
-223.965 -81.8465 763.918
-222.445 -79.9304 758.734
-222.193 -78.4811 757.876
-222.949 -77.3845 760.454
-223.456 -76.1936 762.182
-223.456 -74.8269 762.182
-223.71 -73.5438 763.049
-223.456 -72.0935 762.182
-223.202 -70.6465 761.317
-222.193 -68.9683 757.876
-221.943 -67.533 757.021
-220.945 -65.8781 753.618
-220.45 -64.3821 751.929
-219.956 -62.8927 750.247
-218.733 -61.2051 746.074
-218.248 -59.7344 744.418
-216.327 -57.8856 737.866
-215.379 -56.3147 734.634
-214.674 -54.8173 732.228
-214.674 -53.5043 732.228
-214.44 -52.1344 731.429
-214.206 -50.7675 730.632
-213.973 -49.4035 729.837
-214.206 -48.1472 730.632
-213.046 -46.5834 726.674
-212.815 -45.2313 725.888
-213.277 -44.025 727.462
-212.815 -42.6281 725.888
-212.585 -41.2818 725.103
-211.215 -39.7239 720.43
-210.762 -38.3497 718.886
-210.311 -36.9813 717.348
-209.415 -35.543 714.292
-208.97 -34.1893 712.774
-208.748 -32.8763 712.017
-206.991 -31.3334 706.021
-206.339 -29.9728 703.799
-205.907 -28.6507 702.325
-206.556 -27.4776 704.538
-206.773 -26.2418 705.279
-206.991 -25.0035 706.021
-206.991 -23.7375 706.021
-207.209 -22.4951 706.765
-206.991 -21.2055 706.021
-205.907 -19.8351 702.325
-203.985 -18.4023 695.768
-203.773 -17.1369 695.047
-202.723 -15.8087 691.464
-203.562 -14.6291 694.328
-202.514 -13.3151 690.752
-202.514 -12.0765 690.752
-202.932 -10.8603 692.178
-202.514 -9.59929 690.752
-201.27 -8.30932 686.51
-200.245 -7.04227 683.015
-200.245 -5.81753 683.015
-199.433 -4.57415 680.244
-199.029 -3.34759 678.867
-199.231 -2.13244 679.555
-199.231 -0.913904 679.555
-199.029 0.304326 678.867
-197.828 1.51245 674.769
-194.887 3.8739 664.738
-194.502 5.05585 663.423
-194.887 6.25784 664.738
-195.468 7.47203 666.72
-196.053 8.69348 668.714
-195.858 9.88273 668.048
-195.274 11.0476 666.058
-194.309 12.1815 662.767
-194.118 13.3567 662.113
-193.164 14.4725 658.861
-192.597 15.608 656.925
-191.845 16.7204 654.361
-191.285 17.8416 652.452
-191.099 18.993 651.818
-190.914 20.1423 651.185
-189.808 21.1865 647.414
-189.442 22.3044 646.166
-188.896 23.3954 644.304
-188.534 24.5037 643.068
-188.354 25.6322 642.452
-187.635 26.682 640
-151.846 115.394 517.931
-151.964 116.413 518.331
-152.081 117.433 518.732
-152.081 118.363 518.732
-152.081 119.293 518.732
-152.081 120.223 518.732
-152.081 121.153 518.732
-151.379 121.52 516.336
-150.798 121.976 514.356
-150.337 122.523 512.783
-150.222 123.348 512.391
-150.222 124.267 512.391
-152.79 128.26 521.15
-152.909 129.295 521.556
-153.028 130.331 521.961
-153.028 131.267 521.961
-153.028 132.203 521.961
-152.909 133.036 521.556
-152.909 133.971 521.556
-152.909 134.906 521.556
-152.672 135.63 520.746
-152.435 136.352 519.938
-152.199 137.072 519.133
-151.262 137.154 515.939
-151.146 137.973 515.542
-151.262 139.004 515.939
-151.379 140.037 516.336
-151.262 140.854 515.939
-151.262 141.78 515.939
-151.146 142.595 515.542
-151.146 143.519 515.542
-150.914 144.222 514.751
-150.452 144.701 513.176
-150.337 145.51 512.783
-150.222 146.318 512.391
-150.222 147.236 512.391
-148.408 147.274 506.204
-148.185 147.958 505.441
-147.739 148.417 503.922
-147.518 149.097 503.166
-147.518 149.999 503.166
-147.407 150.788 502.789
-147.407 151.69 502.789
-146.857 152.021 500.911
-146.747 152.805 500.538
-146.747 153.703 500.538
-146.638 154.485 500.164
-146.202 154.92 498.677
-145.984 155.583 497.936
-145.984 156.476 497.936
-145.876 157.252 497.567
-145.66 157.91 496.83
-145.016 158.098 494.632
-145.016 158.985 494.632
-144.909 159.754 494.267
-144.802 160.522 493.903
-144.909 161.527 494.267
-144.909 162.413 494.267
-145.016 163.42 494.632
-144.377 163.583 492.453
-142.597 164.183 486.382
-142.597 165.055 486.382
-142.494 165.807 486.029
-142.494 166.678 486.029
-142.39 167.428 485.677
-142.287 168.178 485.326
-142.287 169.048 485.326
-142.287 169.918 485.326
-142.287 170.788 485.326
-141.979 171.287 484.275
-141.672 171.783 483.228
-139.958 170.561 477.381
-139.859 171.295 477.042
-139.759 172.028 476.703
-139.759 172.882 476.703
-139.561 173.491 476.026
-139.462 174.221 475.688
-139.363 174.949 475.351
-139.363 175.802 475.351
-137.607 175.271 469.363
-137.704 176.236 469.692
-137.704 177.078 469.692
-137.704 177.92 469.692
-137.8 178.888 470.021
-138.285 180.362 471.674
-137.704 181.289 469.692
-137.704 182.131 469.692
-137.511 182.718 469.035
-136.937 182.792 467.075
-136.841 183.501 466.75
-136.841 184.338 466.75
-136.841 185.175 466.75
-232.665 -107.026 798.477
-229.927 -102.937 789.083
-231.288 -102.123 793.752
-231.015 -100.58 792.814
-229.388 -98.4603 787.231
-228.851 -96.8214 785.387
-228.316 -95.1902 783.552
-227.518 -93.4576 780.815
-227.784 -92.1648 781.725
-228.316 -90.9751 783.552
-227.784 -89.3613 781.725
-226.727 -87.5514 778.098
-224.9 -85.4621 771.83
-222.595 -83.2163 763.918
-221.585 -81.4753 760.454
-220.585 -79.75 757.021
-220.834 -78.4811 757.876
-221.585 -77.3845 760.454
-222.849 -76.4543 764.79
-222.595 -73.6276 763.918
-222.342 -72.1755 763.049
-221.837 -70.6465 761.317
-221.084 -69.0463 758.734
-220.834 -67.6093 757.876
-219.841 -65.9522 754.466
-219.101 -64.3821 751.929
-218.611 -62.8927 750.247
-218.123 -61.4101 748.572
-217.154 -59.8008 745.245
-215.24 -57.9494 738.679
-215.004 -56.5625 737.866
-213.828 -54.9372 733.83
-213.594 -53.5628 733.028
-213.361 -52.1913 732.228
-211.972 -50.5472 727.462
-212.433 -49.3498 729.044
-212.202 -47.9904 728.252
-211.513 -46.5329 725.888
-211.513 -45.2313 725.888
-211.513 -43.9297 725.888
-211.743 -42.6743 726.674
-211.285 -41.2818 725.103
-209.923 -39.7239 720.43
-209.473 -38.3497 718.886
-208.579 -36.9024 715.817
-207.913 -35.5052 713.532
-206.594 -34.0086 709.007
-206.376 -32.7027 708.258
-204.862 -31.2021 703.061
-204.648 -29.91 702.325
-204.648 -28.6507 702.325
-205.077 -27.4488 703.799
-205.508 -26.2418 705.279
-205.725 -25.0035 706.021
-205.725 -23.7375 706.021
-205.725 -22.4715 706.021
-203.582 -19.7318 698.667
-202.527 -18.3832 695.047
-202.527 -17.1369 695.047
-202.317 -15.8741 694.328
-202.527 -14.6442 695.047
-202.317 -13.3841 694.328
-202.317 -12.139 694.328
-202.108 -10.8827 693.609
-201.483 -9.60918 691.464
-200.862 -8.34348 689.332
-198.616 -7.02796 681.626
-198.818 -5.81161 682.32
-198.013 -4.56952 679.555
-198.013 -3.35098 679.555
-198.213 -2.13461 680.244
-198.013 -0.913904 679.555
-197.812 0.304326 678.867
-196.223 1.50941 673.414
-195.634 2.70878 671.392
-194.854 3.89708 668.714
-194.466 5.08604 667.384
-194.66 6.28901 668.048
-194.66 7.48691 668.048
-194.66 8.68482 668.048
-193.887 9.84351 665.397
-193.312 11.0039 663.423
-192.93 12.1694 662.113
-192.74 13.3435 661.46
-191.983 14.4725 658.861
-191.419 15.608 656.925
-190.672 16.7204 654.361
-190.115 17.8416 652.452
-189.746 18.9746 651.185
-189.562 20.1227 650.553
-188.465 21.1661 646.789
-188.465 22.3259 646.789
-187.741 23.3954 644.304
-187.561 24.5272 643.686
-187.201 25.6322 642.452
-150.918 115.394 517.931
-151.034 116.413 518.331
-151.151 117.433 518.732
-151.151 118.363 518.732
-151.151 119.293 518.732
-151.151 120.223 518.732
-151.151 121.153 518.732
-150.337 122.351 515.939
-149.418 122.523 512.783
-149.418 123.442 512.783
-149.19 124.172 512
-149.19 125.09 512
-151.974 128.359 521.556
-151.974 129.295 521.556
-152.092 130.331 521.961
-152.092 131.267 521.961
-152.092 132.203 521.961
-151.856 132.932 521.15
-151.974 133.971 521.556
-151.974 134.906 521.556
-151.503 135.42 519.938
-151.268 136.141 519.133
-150.453 136.334 516.336
-150.222 137.048 515.542
-150.106 137.867 515.146
-150.222 138.897 515.542
-150.453 140.037 516.336
-150.337 140.854 515.939
-150.337 141.78 515.939
-150.222 142.595 515.542
-150.222 143.519 515.542
-150.222 144.444 515.542
-150.106 145.257 515.146
-149.761 145.844 513.962
-149.647 146.654 513.568
-149.532 147.462 513.176
-147.612 147.385 506.586
-147.501 148.181 506.204
-147.057 148.64 504.681
-146.615 149.097 503.166
-146.396 149.774 502.412
-146.068 150.337 501.286
-146.068 151.236 501.286
-145.958 152.021 500.911
-145.85 152.805 500.538
-145.85 153.703 500.538
-145.85 154.601 500.538
-145.415 155.035 499.048
-144.984 155.467 497.567
-145.092 156.476 497.936
-144.876 157.135 497.198
-144.662 157.793 496.462
-144.129 158.098 494.632
-144.129 158.985 494.632
-144.022 159.754 494.267
-143.916 160.522 493.903
-144.022 161.527 494.267
-144.022 162.413 494.267
-144.129 163.42 494.632
-143.283 163.343 491.731
-141.931 163.548 487.088
-141.622 164.064 486.029
-141.622 164.935 486.029
-141.519 165.687 485.677
-141.519 166.558 485.677
-141.519 167.428 485.677
-141.417 168.178 485.326
-141.315 168.926 484.975
-141.315 169.795 484.975
-141.315 170.665 484.975
-140.907 171.04 483.576
-140.502 171.413 482.186
-139.3 170.804 478.062
-139.102 171.417 477.381
-139.003 172.15 477.042
-138.904 172.882 476.703
-138.609 173.368 475.688
-138.511 174.097 475.351
-138.412 174.826 475.014
-138.412 175.677 475.014
-136.862 175.393 469.692
-136.958 176.359 470.021
-136.862 177.078 469.692
-136.958 178.045 470.021
-136.958 178.888 470.021
-137.15 179.983 470.681
-136.958 180.573 470.021
-136.766 181.162 469.363
-136.67 181.876 469.035
-136.194 182.081 467.401
-135.91 182.537 466.426
-135.721 183.119 465.778
-136.004 184.338 466.75
-135.91 185.047 466.426
-139.137 -127.291 480.459
-139.738 -126.975 482.533
-139.839 -126.201 482.88
-140.547 -121.619 485.326
-140.547 -120.748 485.326
-140.547 -119.878 485.326
-140.649 -119.094 485.677
-140.649 -118.223 485.677
-140.75 -117.437 486.029
-142.297 -109.036 491.37
-142.297 -108.155 491.37
-142.402 -107.352 491.731
-142.297 -106.392 491.37
-142.611 -105.744 492.453
-142.82 -105.015 493.177
-143.031 -104.284 493.903
-143.242 -103.551 494.632
-229.051 -107.434 790.944
-229.051 -106.016 790.944
-229.593 -104.845 792.814
-228.513 -102.937 789.083
-228.782 -101.641 790.012
-228.513 -100.107 789.083
-227.976 -98.4603 787.231
-227.442 -96.8214 785.387
-226.646 -95.0791 782.638
-226.382 -93.5665 781.725
-226.118 -92.0575 780.815
-226.118 -90.6574 780.815
-225.855 -89.1535 779.907
-224.291 -87.147 774.504
-223.259 -85.3639 770.943
-221.984 -83.5016 766.538
-221.477 -81.9398 764.79
-219.972 -80.0209 759.593
-219.724 -78.5699 758.734
-220.722 -77.5603 762.182
-221.477 -76.4543 764.79
-221.225 -74.9974 763.918
-220.472 -73.3768 761.317
-220.973 -72.1755 763.049
-220.472 -70.6465 761.317
-219.475 -68.9683 757.876
-218.488 -67.3051 754.466
-217.997 -65.8042 752.773
-217.753 -64.3821 751.929
-216.781 -62.7524 748.572
-216.539 -61.3416 747.737
-216.298 -59.934 746.905
-215.339 -58.3348 743.593
-215.339 -57.0015 743.593
-213.681 -55.2394 737.866
-212.512 -53.6214 733.83
-212.279 -52.2483 733.028
-211.126 -50.6571 729.044
-211.126 -49.3498 729.044
-211.355 -48.0948 729.837
-210.212 -46.5329 725.888
-210.212 -45.2313 725.888
-210.212 -43.9297 725.888
-210.212 -42.6281 725.888
-209.758 -41.2372 724.32
-208.407 -39.6813 719.657
-208.184 -38.3497 718.886
-207.295 -36.9024 715.817
-206.854 -35.543 714.292
-205.976 -34.1168 711.262
-205.106 -32.7027 708.258
-204.459 -31.3334 706.021
-203.601 -29.9414 703.061
-203.388 -28.6507 702.325
-204.029 -27.4776 704.538
-204.459 -26.2694 706.021
-204.459 -25.0035 706.021
-204.029 -23.6876 704.538
-204.244 -22.4478 705.279
-203.388 -21.0944 702.325
-201.699 -19.6703 696.491
-201.072 -18.3642 694.328
-201.072 -17.1191 694.328
-201.072 -15.8741 694.328
-201.072 -14.6291 694.328
-200.864 -13.3702 693.609
-200.657 -12.1139 692.893
-200.657 -10.8715 692.893
-200.037 -9.59929 690.752
-198.605 -8.30083 685.808
-197.595 -7.03511 682.32
-197.595 -5.81161 682.32
-196.794 -4.56952 679.555
-196.595 -3.34759 678.867
-196.794 -2.13244 679.555
-196.595 -0.912979 678.867
-196.198 0.303712 677.495
-195.408 1.51245 674.769
-194.82 2.71421 672.739
-194.042 3.90486 670.05
-193.655 5.09618 668.714
-193.655 6.29528 668.714
-193.462 7.48691 668.048
-193.462 8.68482 668.048
-193.077 9.86308 666.72
-192.313 11.0148 664.08
-191.932 12.1815 662.767
-191.554 13.3435 661.46
-190.614 14.4583 658.214
-190.241 15.608 656.925
-189.129 16.6879 653.087
-188.762 17.8242 651.818
-188.031 18.9195 649.294
-187.849 20.0643 648.666
-187.305 21.1661 646.789
-186.765 22.2615 644.923
-186.049 23.3282 642.452
-185.694 24.4334 641.224
-185.694 25.5832 641.224
-149.989 115.394 517.931
-150.105 116.413 518.331
-150.221 117.433 518.732
-150.221 118.363 518.732
-150.221 119.293 518.732
-150.221 120.223 518.732
-149.873 121.801 517.531
-148.954 121.976 514.356
-148.954 122.898 514.356
-148.498 123.442 512.783
-148.498 124.362 512.783
-148.045 124.899 511.22
-147.595 125.433 509.666
-146.815 125.679 506.969
-146.482 126.301 505.822
-146.593 127.304 506.204
-150.454 131.589 519.536
-150.454 132.52 519.536
-150.921 133.867 521.15
-150.921 134.801 521.15
-150.337 135.21 519.133
-150.105 135.931 518.331
-149.527 136.334 516.336
-149.412 137.154 515.939
-149.412 138.079 515.939
-149.412 139.004 515.939
-149.527 140.037 516.336
-149.412 140.854 515.939
-149.297 141.671 515.542
-149.297 142.595 515.542
-149.183 143.409 515.146
-149.183 144.333 515.146
-148.954 145.034 514.356
-148.84 145.844 513.962
-148.954 146.879 514.356
-147.483 146.342 509.279
-147.037 146.809 507.737
-146.704 147.385 506.586
-146.593 148.181 506.204
-146.372 148.864 505.441
-145.823 149.209 503.544
-145.604 149.886 502.789
-145.277 150.45 501.661
-145.386 151.462 502.036
-145.169 152.135 501.286
-144.952 152.805 500.538
-144.844 153.588 500.164
-144.521 154.14 499.048
-144.199 154.69 497.936
-144.092 155.467 497.567
-144.092 156.36 497.567
-144.092 157.252 497.567
-143.772 157.793 496.462
-143.242 158.098 494.632
-143.242 158.985 494.632
-143.136 159.754 494.267
-143.136 160.64 494.267
-143.136 161.527 494.267
-143.136 162.413 494.267
-143.136 163.299 494.267
-142.402 163.343 491.731
-141.985 163.744 490.293
-141.365 163.905 488.152
-140.75 164.064 486.029
-140.649 164.816 485.677
-140.649 165.687 485.677
-140.649 166.558 485.677
-140.649 167.428 485.677
-140.547 168.178 485.326
-140.547 169.048 485.326
-140.547 169.918 485.326
-140.547 170.788 485.326
-140.242 171.287 484.275
-140.04 171.907 483.576
-138.542 170.925 478.403
-137.951 171.051 476.364
-137.951 171.905 476.364
-137.951 172.76 476.364
-137.658 173.245 475.351
-137.658 174.097 475.351
-137.561 174.826 475.014
-137.463 175.553 474.678
-136.21 175.639 470.351
-136.497 176.855 471.343
-136.115 177.202 470.021
-136.115 178.045 470.021
-136.115 178.888 470.021
-136.115 179.73 470.021
-135.924 180.32 469.363
-135.639 180.783 468.38
-135.356 181.243 467.401
-135.167 181.827 466.75
-134.699 182.031 465.132
-134.605 182.738 464.81
-135.073 184.21 466.426
-134.886 184.789 465.778
-138.873 -128.706 482.533
-138.474 -127.474 481.148
-138.673 -126.793 481.839
-139.073 -126.292 483.228
-138.973 -125.335 482.88
-138.773 -124.29 482.186
-139.073 -123.692 483.228
-139.073 -122.826 483.228
-139.778 -122.578 485.677
-139.374 -121.355 484.275
-139.475 -120.574 484.625
-139.677 -119.878 485.326
-139.677 -119.008 485.326
-139.778 -118.223 485.677
-139.778 -117.352 485.677
-140.184 -116.82 487.088
-140.388 -116.115 487.797
-140.49 -115.324 488.152
-140.49 -114.449 488.152
-140.695 -113.739 488.863
-140.592 -111.904 488.507
-140.592 -111.028 488.507
-140.695 -110.233 488.863
-141.003 -109.596 489.935
-141.313 -108.956 491.011
-141.313 -108.076 491.011
-141.416 -107.274 491.37
-141.52 -106.47 491.731
-141.728 -105.744 492.453
-142.25 -105.247 494.267
-142.355 -104.438 494.632
-142.355 -103.551 494.632
-142.25 -102.588 494.267
-142.355 -101.777 494.632
-142.145 -100.741 493.903
-142.145 -99.8558 493.903
-142.25 -99.0431 494.267
-142.25 -98.1568 494.267
-143.2 -96.1355 497.567
-143.093 -95.1727 497.198
-143.093 -94.2812 497.198
-143.2 -93.4589 497.567
-142.987 -92.4295 496.83
-228.441 -104.969 793.752
-228.441 -103.546 793.752
-228.441 -102.123 793.752
-227.902 -100.461 791.878
-226.831 -98.576 788.156
-226.565 -97.0487 787.231
-225.77 -95.3015 784.468
-225.243 -93.6757 782.638
-224.718 -92.0575 780.815
-224.718 -90.6574 780.815
-224.457 -89.1535 779.907
-223.418 -87.3487 776.297
-222.645 -85.6593 773.611
-221.877 -83.9815 770.943
-220.609 -82.1271 766.538
-219.855 -80.4766 763.918
-219.356 -78.927 762.182
-220.106 -77.8257 764.79
-220.106 -76.4543 764.79
-219.356 -74.8269 762.182
-218.858 -73.2936 760.454
-219.855 -72.2577 763.918
-218.61 -70.4865 759.593
-218.363 -69.0463 758.734
-217.625 -67.4568 756.167
-216.648 -65.8042 752.773
-215.921 -64.238 750.247
-214.72 -62.543 746.074
-214.72 -61.2051 746.074
-214.959 -59.934 746.905
-214.959 -58.5947 746.905
-215.439 -57.3832 748.572
-211.659 -55.0577 735.439
-210.965 -53.5628 733.028
-210.735 -52.1913 732.228
-209.591 -50.6021 728.252
-209.591 -49.2962 728.252
-209.136 -47.8864 726.674
-208.684 -46.4826 725.103
-208.684 -45.1824 725.103
-208.91 -43.9297 725.888
-208.91 -42.6281 725.888
-208.684 -41.2818 725.103
-207.339 -39.7239 720.43
-206.673 -38.3086 718.116
-205.573 -36.8238 714.292
-205.573 -35.543 714.292
-204.268 -32.7719 709.757
-203.621 -31.3995 707.511
-202.979 -30.0358 705.279
-202.129 -28.6507 702.325
-202.979 -27.5065 705.279
-203.193 -26.2694 706.021
-202.979 -24.9772 705.279
-202.553 -23.6627 703.799
-202.553 -22.4007 703.799
-202.129 -21.0944 702.325
-200.034 -19.6295 695.047
-199.003 -18.2884 691.464
-199.003 -17.0486 691.464
-199.003 -15.8087 691.464
-199.003 -14.5688 691.464
-198.798 -13.3151 690.752
-198.798 -12.0765 690.752
-199.208 -10.8603 692.178
-198.594 -9.58941 690.042
-196.571 -8.26702 683.015
-195.575 -7.0066 679.555
-195.575 -5.78806 679.555
-195.378 -4.56489 678.867
-195.378 -3.34759 678.867
-195.378 -2.13028 678.867
-195.18 -0.912056 678.18
-194.394 0.302794 675.449
-194.003 1.51093 674.091
-193.614 2.71421 672.739
-192.648 3.90097 669.382
-192.456 5.09618 668.714
-192.84 6.30785 670.05
-192.456 7.49438 668.714
-192.456 8.69348 668.714
-192.264 9.88273 668.048
-190.933 11.0039 663.423
-190.368 12.1574 661.46
-189.806 13.3042 659.509
-189.248 14.4442 657.569
-188.878 15.5927 656.282
-187.958 16.6879 653.087
-187.229 17.7897 650.553
-186.505 18.8829 648.039
-186.505 20.045 648.039
-185.966 21.1457 646.166
-185.966 22.3044 646.166
-185.252 23.373 643.686
-184.897 24.4802 642.452
-149.06 115.394 517.931
-149.291 116.503 518.732
-149.291 117.433 518.732
-149.291 118.363 518.732
-149.291 119.293 518.732
-149.291 120.223 518.732
-148.945 121.801 517.531
-148.487 122.351 515.939
-148.031 122.898 514.356
-147.579 123.442 512.783
-147.353 124.172 512
-147.353 125.09 512
-146.682 125.433 509.666
-146.237 125.964 508.122
-145.795 126.492 506.586
-145.795 127.401 506.586
-145.795 128.309 506.586
-149.522 132.52 519.536
-149.522 133.452 519.536
-149.06 133.968 517.931
-148.945 134.793 517.531
-148.945 135.721 517.531
-148.259 136.019 515.146
-148.145 136.838 514.751
-148.259 137.867 515.146
-148.487 139.004 515.939
-148.373 139.822 515.542
-148.373 140.746 515.542
-148.259 141.562 515.146
-148.259 142.485 515.146
-148.145 143.299 514.751
-148.145 144.222 514.751
-147.918 144.923 513.962
-147.918 145.844 513.962
-147.466 146.318 512.391
-146.682 146.453 509.666
-146.57 147.255 509.279
-146.237 147.832 508.122
-145.795 148.293 506.586
-145.575 148.977 505.822
-145.029 149.321 503.922
-144.92 150.111 503.544
-144.702 150.788 502.789
-144.811 151.803 503.166
-144.594 152.477 502.412
-144.162 152.92 500.911
-144.162 153.818 500.911
-144.054 154.601 500.538
-143.2 154.575 497.567
-142.882 155.122 496.462
-142.882 156.012 496.462
-142.987 157.019 496.83
-142.776 157.676 496.095
-142.355 158.098 494.632
-142.355 158.985 494.632
-142.355 159.872 494.632
-142.25 160.64 494.267
-142.25 161.527 494.267
-142.25 162.413 494.267
-141.52 163.343 491.731
-141.003 163.625 489.935
-140.592 164.024 488.507
-139.879 164.064 486.029
-139.879 164.935 486.029
-139.778 165.687 485.677
-139.677 166.437 485.326
-139.677 167.307 485.326
-139.576 168.056 484.975
-139.576 168.926 484.975
-139.576 169.795 484.975
-139.677 170.788 485.326
-139.475 171.41 484.625
-139.173 171.907 483.576
-137.488 170.682 477.721
-137.097 171.051 476.364
-137.195 172.028 476.703
-137.097 172.76 476.364
-136.806 173.245 475.351
-136.806 174.097 475.351
-136.709 174.826 475.014
-136.612 175.553 474.678
-135.177 175.393 469.692
-135.652 176.855 471.343
-135.272 177.202 470.021
-135.272 178.045 470.021
-135.272 178.888 470.021
-135.272 179.73 470.021
-135.083 180.32 469.363
-134.894 180.909 468.707
-134.518 181.243 467.401
-134.331 181.827 466.75
-133.865 182.031 465.132
-133.772 182.738 464.81
-133.865 183.699 465.132
-133.865 184.533 465.132
-138.206 -129.758 483.228
-138.107 -128.799 482.88
-137.809 -127.657 481.839
-138.107 -127.067 482.88
-138.206 -126.292 483.228
-138.107 -125.335 482.88
-138.107 -124.469 482.88
-138.206 -123.692 483.228
-138.406 -123.003 483.925
-138.306 -122.047 483.576
-138.206 -121.093 483.228
-138.306 -120.313 483.576
-138.506 -119.618 484.275
-138.706 -118.922 484.975
-138.907 -118.223 485.677
-139.007 -117.437 486.029
-139.209 -116.735 486.735
-139.31 -115.946 487.088
-139.108 -114.906 486.382
-139.513 -114.366 487.797
-139.818 -113.739 488.863
-139.614 -112.698 488.152
-139.614 -111.823 488.152
-139.614 -110.948 488.152
-139.716 -110.152 488.507
-139.716 -109.276 488.507
-139.818 -108.479 488.863
-139.818 -107.603 488.863
-139.92 -106.804 489.22
