ply
format ascii 1.0
element vertex 1923
property float x
property float y
property float z
end_header
-242.682 88.7351 519.536
-242.494 89.5973 519.133
-242.12 90.3882 518.331
-241.188 90.9662 516.336
-240.817 91.7508 515.542
-239.895 92.3204 513.568
-239.345 93.0276 512.391
-239.345 93.9464 512.391
-239.162 94.7928 512
-238.072 95.2745 509.666
-237.891 96.1154 509.279
-237.53 96.8814 508.507
-237.351 97.7192 508.122
-236.633 98.3323 506.586
-236.633 99.2407 506.586
-236.633 100.149 506.586
-235.036 100.375 503.166
-234.333 100.974 501.661
-233.808 101.646 500.538
-233.46 102.391 499.792
-232.593 102.903 497.936
-232.248 103.642 497.198
-231.562 104.225 495.728
-231.22 104.959 494.997
-230.879 105.69 494.267
-230.031 106.185 492.453
-229.863 106.99 492.091
-227.857 106.931 487.797
-228.022 107.884 488.152
-227.691 108.601 487.442
-227.36 109.316 486.735
-227.031 110.029 486.029
-227.196 110.981 486.382
-227.031 111.772 486.029
-226.702 112.481 485.326
-225.885 112.943 483.576
-225.236 113.482 482.186
-224.429 113.938 480.459
-223.628 114.389 478.744
-223.15 115.002 477.721
-222.991 115.776 477.381
-223.309 116.798 478.062
-221.572 116.74 474.343
-219.553 118.205 470.021
-219.553 119.048 470.021
-219.246 119.723 469.363
-218.634 120.228 468.053
-218.482 120.983 467.727
-218.482 121.821 467.727
-218.026 122.404 466.75
-217.571 122.984 465.778
-217.571 123.819 465.778
-216.819 124.223 464.166
-215.922 125.367 462.247
-215.625 126.023 461.611
-215.476 126.763 461.293
-214.738 127.153 459.712
-214.591 127.89 459.398
-214.151 128.449 458.456
-213.421 128.831 456.894
-212.697 129.21 455.343
-212.409 129.851 454.726
-212.121 130.489 454.11
-212.265 131.392 454.418
-211.263 131.583 452.273
-211.12 132.305 451.968
-211.12 133.115 451.968
-210.553 133.566 450.753
-209.848 133.924 449.243
-209.008 134.19 447.445
-209.008 134.993 447.445
-209.008 135.795 447.445
-209.147 136.688 447.744
-209.008 137.4 447.445
-208.59 137.926 446.552
-207.76 138.175 444.775
-207.76 138.972 444.775
-197.543 151.096 422.901
-197.294 151.663 422.368
-197.046 152.228 421.837
-196.182 152.314 419.988
-195.448 152.494 418.416
-195.326 153.149 418.155
-195.326 153.899 418.155
-195.204 154.552 417.894
-194.719 154.916 416.855
-194.961 155.857 417.374
-192.683 154.775 412.497
-346.393 -53.0602 744.418
-345.243 -51.5537 741.947
-343.723 -50.002 738.679
-344.101 -48.7311 739.493
-340.721 -46.9393 732.228
-337.771 -45.2313 725.888
-337.405 -43.8822 725.103
-337.771 -42.6281 725.888
-337.041 -41.2372 724.32
-335.591 -39.7666 721.205
-335.231 -38.4321 720.43
-334.871 -37.1004 719.657
-333.44 -35.6569 716.582
-331.668 -34.1893 712.774
-329.567 -32.7027 708.258
-327.149 -31.2021 703.061
-326.123 -29.8475 700.857
-325.783 -28.5609 700.126
-326.464 -27.3626 701.59
-326.123 -26.0773 700.857
-325.104 -24.743 698.667
-324.428 -23.4414 697.215
-320.761 -21.9403 689.332
-318.795 -20.5773 685.108
-318.145 -19.3094 683.711
-316.853 -18.0099 680.934
-317.175 -16.806 681.626
-316.853 -15.5679 680.934
-316.211 -14.3178 679.555
-315.891 -13.086 678.867
-315.571 -11.8567 678.18
-313.668 -10.5765 674.091
-311.477 -9.3023 669.382
-310.857 -8.08587 668.048
-310.857 -6.88796 668.048
-310.857 -5.69005 668.048
-310.239 -4.48322 666.72
-308.399 -3.2682 662.767
-308.095 -2.07771 662.113
-308.095 -0.890447 662.113
-307.488 0.296231 660.808
-306.883 1.47824 659.509
-306.582 2.65822 658.861
-306.582 3.83965 658.861
-302.423 4.95297 649.923
-301.546 6.10064 648.039
-301.546 7.26267 648.039
-300.964 8.40845 646.789
-300.674 9.55901 646.166
-300.674 10.7177 646.166
-299.233 11.8194 643.068
-298.66 12.9477 641.838
-296.673 14.0048 637.567
-296.11 15.1193 636.357
-294.991 16.1989 633.951
-295.27 17.3521 634.551
-293.603 18.3855 630.969
-292.502 19.4438 628.604
-292.228 20.5517 628.015
-291.955 21.6576 627.428
-290.867 22.6977 625.089
-290.596 23.7964 624.507
-289.786 24.8468 622.767
-287.915 25.7959 618.746
-287.65 26.8806 618.175
-285.806 27.8096 614.213
-284.763 28.8055 611.971
-283.985 29.8212 610.301
-283.727 30.8875 609.746
-283.47 31.9518 609.192
-283.212 33.0142 608.639
-281.933 33.9515 605.89
-281.171 34.9432 604.253
-279.66 35.8331 601.004
-279.159 36.8447 599.929
-277.916 37.7516 597.258
-277.669 38.7881 596.726
-277.422 39.8227 596.196
-277.176 40.8554 595.666
-277.422 41.9608 596.196
-277.176 42.9916 595.666
-274.736 46.848 590.423
-274.012 47.7806 588.868
-271.391 48.3694 583.235
-269.983 49.1587 580.208
-269.284 50.0692 578.706
-268.589 50.9749 577.212
-268.589 52.0099 577.212
-268.358 52.9994 576.716
-266.297 53.6186 572.287
-265.391 54.4589 570.34
-264.716 55.3404 568.889
-264.716 56.3605 568.889
-264.492 57.332 568.407
-264.268 58.3018 567.926
-264.492 59.3705 568.407
-264.044 60.2875 567.445
-261.172 61.6445 561.272
-260.735 62.5463 560.335
-260.518 63.498 559.867
-258.361 63.968 555.232
-257.721 64.8027 553.857
-257.508 65.7415 553.4
-257.508 66.7338 553.4
-256.872 67.5589 552.033
-256.45 68.4362 551.126
-256.03 69.3105 550.222
-255.61 70.182 549.321
-254.776 70.9346 547.527
-253.946 71.6824 545.745
-253.122 72.4252 543.974
-253.122 73.4006 543.974
-252.304 74.1356 542.215
-252.1 75.0472 541.777
-251.288 75.7738 540.033
-250.482 76.4958 538.299
-249.48 77.1515 536.147
-249.48 78.1129 536.147
-249.082 78.948 535.292
-248.685 79.7805 534.439
-248.29 80.6104 533.588
-247.895 81.4376 532.741
-247.895 82.3929 532.741
-247.502 83.216 531.896
-246.915 83.97 530.633
-246.525 84.7873 529.795
-244.784 85.1321 526.055
-243.828 85.7392 524
-244.401 86.8824 525.231
-243.448 87.4817 523.183
-243.069 88.2821 522.368
-242.502 89.0108 521.15
-241.751 89.6667 519.536
-241.563 90.5281 519.133
-240.447 91.0362 516.734
-239.341 91.5397 514.356
-239.157 92.3912 513.962
-238.609 93.0987 512.783
-238.426 93.9464 512.391
-238.244 94.7928 512
-237.158 95.2745 509.666
-236.798 96.0424 508.893
-236.26 96.7348 507.737
-235.903 97.4976 506.969
-235.547 98.2581 506.204
-235.015 98.9418 505.061
-236.082 100.301 507.353
-233.084 99.9254 500.911
-232.737 100.673 500.164
-232.39 101.419 499.42
-231.7 102.011 497.936
-231.528 102.827 497.567
-231.357 103.642 497.198
-230.673 104.225 495.728
-230.332 104.959 494.997
-229.993 105.69 494.267
-229.993 106.577 494.267
-229.654 107.305 493.54
-228.812 107.793 491.731
-227.81 108.199 489.577
-226.817 108.601 487.442
-226.488 109.316 486.735
-226.159 110.029 486.029
-226.159 110.901 486.029
-226.159 111.772 486.029
-225.996 112.562 485.677
-224.856 112.861 483.228
-224.049 113.32 481.493
-223.407 113.856 480.115
-222.769 114.389 478.744
-222.293 115.002 477.721
-222.135 115.776 477.381
-221.505 116.301 476.026
-221.034 116.905 475.014
-219.634 117.858 472.006
-218.711 118.205 470.021
-218.711 119.048 470.021
-218.252 119.639 469.035
-217.643 120.144 467.727
-217.491 120.898 467.401
-217.491 121.736 467.401
-216.286 121.895 464.81
-216.136 122.644 464.488
-215.837 123.306 463.845
-215.986 124.223 464.166
-215.837 124.969 463.845
-215.241 125.454 462.566
-214.945 126.109 461.929
-214.945 126.938 461.929
-214.649 127.59 461.293
-214.06 128.065 460.028
-213.767 128.713 459.398
-212.602 128.831 456.894
-212.313 129.474 456.272
-212.313 130.292 456.272
-211.737 130.755 455.034
-211.593 131.481 454.726
-211.307 132.118 454.11
-211.307 132.932 454.11
-211.021 133.565 453.496
-210.168 133.836 451.664
-209.323 134.104 449.846
-209.042 134.73 449.243
-209.042 135.535 449.243
-208.763 136.158 448.642
-208.623 136.871 448.343
-207.651 137.034 446.254
-207.79 137.926 446.552
-207.513 138.542 445.958
-207.928 139.62 446.849
-208.067 140.515 447.147
-195.551 151.656 420.251
-195.063 152.028 419.2
-194.697 152.494 418.416
-194.576 153.149 418.155
-194.576 153.899 418.155
-194.576 154.649 418.155
-194.697 156.996 418.416
-192.417 155.898 413.514
-191.825 156.158 412.244
-190.305 157.121 408.976
-190.654 158.143 409.725
-190.887 159.072 410.227
-190.77 159.71 409.976
-345.058 -54.395 744.418
-344.676 -53.0014 743.593
-343.913 -51.5537 741.947
-342.021 -49.947 737.866
-341.645 -48.5705 737.055
-338.668 -46.8371 730.632
-337.199 -45.3294 727.462
-336.469 -43.9297 725.888
-336.105 -42.582 725.103
-335.742 -41.2372 724.32
-334.298 -39.7666 721.205
-333.939 -38.4321 720.43
-333.581 -37.1004 719.657
-332.155 -35.6569 716.582
-327.605 -33.9011 706.765
-325.888 -32.4628 703.061
-325.206 -31.1368 701.59
-324.189 -29.7853 699.396
-323.514 -28.4718 697.94
-324.527 -27.3055 700.126
-323.178 -25.9418 697.215
-323.178 -24.6916 697.215
-323.851 -23.4902 698.667
-320.513 -22.0081 691.464
-319.525 -20.7042 689.332
-318.216 -19.3884 686.51
-316.919 -18.0834 683.711
-316.919 -16.8574 683.711
-316.596 -15.6155 683.015
-315.312 -14.3323 680.244
-314.673 -13.086 678.867
-313.089 -11.809 675.449
-312.146 -10.5659 673.414
-310.277 -9.3023 669.382
-309.967 -8.09393 668.714
-309.659 -6.88796 668.048
-309.351 -5.68439 667.384
-308.736 -4.47877 666.058
-307.819 -3.27467 664.08
-307.211 -2.07976 662.767
-306.908 -0.890447 662.113
-306.908 0.296816 662.113
-306.001 1.4797 660.158
-304.801 2.65301 657.569
-303.611 3.81716 655
-301.842 4.96259 651.185
-301.549 6.12431 650.553
-300.094 8.41656 647.414
-300.094 9.57747 647.414
-299.805 10.728 646.789
-297.794 11.8081 642.452
-297.509 12.9477 641.838
-296.658 14.0583 640
-294.689 15.105 635.754
-293.299 16.1683 632.755
-293.576 17.3193 633.353
-291.375 18.3166 628.604
-291.375 19.4438 628.604
-290.558 20.5133 626.842
-289.207 21.5367 623.926
-288.938 22.6344 623.346
-288.67 23.7301 622.767
-287.07 24.7092 619.317
-286.806 25.7959 618.746
-286.277 26.8558 617.606
-284.705 27.8096 614.213
-284.184 28.8581 613.09
-283.149 29.8484 610.857
-282.634 30.8875 609.746
-282.891 32.0099 610.301
-282.121 33.0142 608.639
-280.34 33.8903 604.797
-278.832 34.7865 601.543
-278.582 35.8331 601.004
-278.083 36.8447 599.929
-277.092 37.7853 597.79
-276.599 38.7881 596.726
-276.599 39.8581 596.726
-277.092 41.0011 597.79
-272.239 46.6019 587.321
-271.526 47.5302 585.782
-270.816 48.4536 584.251
-269.408 49.2439 581.214
-268.71 50.1557 579.706
-267.784 51.0188 577.709
-267.324 51.9652 576.716
-267.094 52.9538 576.22
-265.045 53.5729 571.799
-263.92 54.3664 569.372
-263.696 55.3404 568.889
-263.696 56.3605 568.889
-263.472 57.332 568.407
-263.249 58.3018 567.926
-263.249 59.3202 567.926
-263.249 60.3386 567.926
-262.582 61.2015 566.487
-262.139 62.1123 565.532
-260.165 62.651 561.272
-258.22 64.1805 557.077
-256.516 65.7415 553.4
-256.305 66.6788 552.943
-255.883 67.5589 552.033
-255.462 68.4362 551.126
-255.043 69.3105 550.222
-254.834 70.2395 549.771
-254.417 71.1088 548.871
-253.174 71.7407 546.189
-252.762 72.6019 545.301
-252.147 73.4006 543.974
-251.129 74.0757 541.777
-250.926 74.9866 541.34
-250.119 75.7129 539.598
-249.917 76.6188 539.164
-249.516 77.4611 538.299
-249.516 78.4263 538.299
-248.321 79.0111 535.719
-247.53 79.717 534.013
-247.136 80.5463 533.164
-247.136 81.5024 533.164
-246.94 82.3929 532.741
-246.94 83.3482 532.741
-246.94 85.2588 532.741
-243.841 85.1321 526.055
-243.078 85.8062 524.41
-243.459 86.8824 525.231
-243.269 87.7555 524.82
-242.699 88.4889 523.591
-242.132 89.2188 522.368
-241.38 89.8755 520.746
-240.633 90.5281 519.133
-240.075 91.2471 517.931
-238.968 91.7508 515.542
-238.236 92.3912 513.962
-237.689 93.0987 512.783
-237.508 93.9464 512.391
-237.689 94.9377 512.783
-237.326 95.7109 512
-236.244 96.1884 509.666
-235.886 96.9549 508.893
-234.994 97.4976 506.969
-233.582 97.8152 503.922
-231.495 100.523 499.42
-230.979 101.193 498.306
-230.807 102.011 497.936
-230.807 102.903 497.936
-230.465 103.642 497.198
-229.445 104.071 494.997
-229.106 104.804 494.267
-228.601 105.457 493.177
-228.433 106.263 492.814
-228.265 107.068 492.453
-228.098 107.872 492.091
-226.602 108.041 488.863
-225.615 108.444 486.735
-225.451 109.237 486.382
-225.451 110.109 486.382
-225.288 110.901 486.029
-224.962 111.611 485.326
-224.475 112.237 484.275
-223.989 112.861 483.228
-223.185 113.32 481.493
-222.706 113.938 480.459
-222.228 114.553 479.428
-221.595 115.084 478.062
-221.437 115.858 477.721
-221.279 116.632 477.381
-220.651 117.154 476.026
-219.871 117.59 474.343
-219.251 118.107 473.005
-218.174 118.371 470.681
-218.174 119.215 470.681
-217.715 119.807 469.692
-217.259 120.396 468.707
-216.653 120.898 467.401
-216.502 121.652 467.075
-215.601 121.98 465.132
-215.452 122.728 464.81
-215.154 123.391 464.166
-215.303 124.309 464.488
-215.303 125.142 464.488
-215.154 125.888 464.166
-214.56 126.37 462.885
-214.264 127.025 462.247
-213.969 127.678 461.611
-213.089 127.977 459.712
-212.652 128.537 458.769
-211.783 128.831 456.894
-211.639 129.562 456.583
-211.639 130.381 456.583
-211.495 131.11 456.272
-211.495 131.929 456.272
-210.921 132.386 455.034
-210.778 133.112 454.726
-210.635 133.837 454.418
-209.358 133.836 451.664
-208.796 134.284 450.45
-208.656 135.001 450.148
-209.218 136.174 451.36
-208.516 136.524 449.846
-208.097 137.054 448.943
-206.029 136.489 444.48
-206.302 137.468 445.07
-206.165 138.175 444.775
-206.029 138.88 444.48
-193.947 153.245 418.416
-193.947 153.995 418.416
-193.947 154.745 418.416
-193.826 155.398 418.155
-193.947 156.246 418.416
-191.557 155.802 413.26
-191.086 156.158 412.244
-190.384 157.058 410.729
-189.919 157.409 409.725
-190.035 158.24 409.976
-190.035 158.975 409.976
-343.723 -55.7299 744.418
-342.204 -54.1546 741.128
-342.583 -52.8841 741.947
-341.826 -51.4399 740.31
-341.073 -50.002 738.679
-340.698 -48.6239 737.866
-338.095 -46.9393 732.228
-336.625 -45.428 729.044
-334.805 -43.8822 725.103
-334.443 -42.536 724.32
-334.083 -41.1927 723.539
-332.647 -39.7239 720.43
-332.29 -38.3908 719.657
-332.29 -37.1004 719.657
-325.994 -33.8654 706.021
-325.309 -32.5309 704.538
-324.288 -31.1694 702.325
-323.948 -29.8787 701.59
-323.948 -28.6207 701.59
-323.948 -27.3626 701.59
-323.61 -26.0773 700.857
-323.61 -24.8206 700.857
-323.61 -23.5638 700.857
-319.273 -20.7682 691.464
-317.962 -19.4481 688.625
-316.015 -18.1018 684.409
-316.015 -16.8746 684.409
-316.015 -15.6473 684.409
-315.371 -14.3907 683.015
-314.411 -13.1259 680.934
-313.456 -11.8687 678.867
-312.192 -10.6085 676.129
-310.938 -9.35834 673.414
-308.461 -8.08587 668.048
-308.154 -6.88111 667.384
-307.848 -5.67874 666.72
-307.237 -4.47432 665.397
-306.325 -3.27143 663.423
-306.325 -2.08182 663.423
-305.72 -0.890447 662.113
-304.818 0.295939 660.158
-303.92 1.47534 658.214
-303.622 2.65301 657.569
-303.028 3.82463 656.282
-301.847 4.98193 653.724
-301.259 6.14218 652.452
-298.933 7.25566 647.414
-298.933 8.41656 647.414
-298.645 9.56823 646.789
-297.783 10.6971 644.923
-296.075 11.7855 641.224
-296.075 12.9353 641.224
-295.51 14.0583 640
-294.387 15.148 637.567
-293.271 16.2296 635.152
-293.828 17.4015 636.357
-289.976 18.2995 628.015
-289.976 19.4256 628.015
-288.625 20.4559 625.089
-287.82 21.5167 623.346
-287.286 22.5924 622.19
-287.286 23.7081 622.19
-285.96 24.7092 619.317
-285.696 25.7959 618.746
-285.433 26.8806 618.175
-283.603 27.8096 614.213
-282.568 28.8055 611.971
-282.053 29.8484 610.857
-281.541 30.8875 609.746
-281.797 32.0099 610.301
-280.521 32.9543 607.537
-279.508 33.9208 605.343
-278.252 34.8491 602.624
-277.753 35.8652 601.543
-277.256 36.8777 600.466
-275.774 37.7516 597.258
-275.774 38.8226 597.258
-275.529 39.8581 596.726
-271.662 44.5737 588.351
-271.424 45.5887 587.836
-270.949 46.5611 586.807
-270.476 47.5302 585.782
-270.004 48.4959 584.761
-269.3 49.4152 583.235
-267.902 50.1991 580.208
-267.208 51.1069 578.706
-266.061 51.9206 576.22
-265.15 52.7725 574.247
-263.346 53.4362 570.34
-262.676 54.3203 568.889
-262.453 55.2935 568.407
-262.453 56.3128 568.407
-262.453 57.332 568.407
-262.231 58.3018 567.926
-262.676 59.4208 568.889
-262.899 60.4922 569.372
-262.009 61.305 567.445
-260.686 62.0078 564.579
-259.159 62.651 561.272
-258.079 63.3922 558.934
-257.435 64.2339 557.54
-255.735 64.8027 553.857
-255.524 65.7415 553.4
-255.313 66.6788 552.943
-254.893 67.5589 552.033
-254.474 68.4362 551.126
-254.474 69.4244 551.126
-254.056 70.2971 550.222
-253.848 71.2253 549.771
-252.194 71.7407 546.189
-251.784 72.6019 545.301
-250.968 73.3412 543.534
-250.562 74.1955 542.654
-250.562 75.1686 542.654
-250.359 76.0801 542.215
-248.751 76.5573 538.731
-248.352 77.399 537.867
-247.558 78.1129 536.147
-246.769 78.8222 534.439
-245.985 79.5271 532.741
-245.985 80.4823 532.741
-245.985 81.4376 532.741
-245.985 82.3929 532.741
-245.789 83.282 532.318
-245.985 85.2588 532.741
-242.707 85.0654 525.643
-242.138 85.8062 524.41
-242.517 86.8824 525.231
-242.328 87.7555 524.82
-242.138 88.6273 524.41
-239.702 89.5973 519.133
-239.516 90.4581 518.732
-239.331 91.3176 518.331
-238.41 91.892 516.336
-237.861 92.604 515.146
-236.77 93.0987 512.783
-236.589 93.9464 512.391
-236.77 94.9377 512.783
-236.048 95.565 511.22
-235.509 96.2615 510.054
-234.973 96.9549 508.893
-233.732 97.3504 506.204
-232.678 97.8152 503.922
-230.085 100.299 498.306
-229.914 101.118 497.936
-229.914 102.011 497.936
-229.914 102.903 497.936
-229.744 103.719 497.567
-228.895 104.225 495.728
-228.388 104.881 494.632
-227.549 105.38 492.814
-227.215 106.107 492.091
-227.049 106.911 491.731
-227.049 107.793 491.731
-225.725 108.041 488.863
-224.742 108.444 486.735
-224.579 109.237 486.382
-224.416 110.029 486.029
-224.416 110.901 486.029
-224.092 111.611 485.326
-223.284 112.075 483.576
-222.962 112.78 482.88
-222.322 113.32 481.493
-222.003 114.019 480.803
-221.686 114.717 480.115
-221.369 115.413 479.428
-221.369 116.272 479.428
-220.737 116.798 478.062
-220.423 117.488 477.381
-219.486 117.84 475.351
-218.402 118.107 473.005
-217.33 118.371 470.681
-217.635 119.382 471.343
-216.873 119.807 469.692
-215.665 119.977 467.075
-215.515 120.73 466.75
-215.215 121.398 466.102
-214.619 121.895 464.81
-214.619 122.728 464.81
-214.47 123.476 464.488
-214.47 124.309 464.488
-214.47 125.142 464.488
-214.47 125.975 464.488
-214.173 126.633 463.845
-213.435 127.025 462.247
-212.849 127.502 460.976
-212.411 128.065 460.028
-211.54 128.362 458.142
-210.964 128.831 456.894
-210.82 129.562 456.583
-210.964 130.47 456.894
-210.964 131.289 456.894
-211.251 132.289 457.517
-211.107 133.018 457.205
-210.82 133.656 456.583
-210.248 134.109 455.343
-210.105 134.834 455.034
-210.39 135.835 455.652
-207.709 134.91 449.846
-205.504 136.67 445.07
-205.641 137.56 445.365
-205.232 138.083 444.48
-193.197 153.245 418.416
-193.197 153.995 418.416
-193.197 154.745 418.416
-190.699 154.966 413.005
-190.816 155.802 413.26
-190.347 156.158 412.244
-189.069 158.047 409.475
-189.3 158.975 409.976
-344.299 -57.3832 748.572
-342.769 -55.7918 745.245
-341.252 -54.2145 741.947
-341.252 -52.8841 741.947
-342.388 -51.7253 744.418
-342.009 -50.3346 743.593
-342.009 -49.0013 743.593
-341.252 -47.5624 741.947
-336.414 -45.5766 731.429
-333.866 -43.9297 725.888
-333.505 -42.582 725.103
-333.145 -41.2372 724.32
-331.355 -39.7239 720.43
-331 -38.3908 719.657
-330.291 -37.0209 718.116
-325.413 -33.9369 707.511
-325.413 -32.6682 707.511
-325.071 -31.3665 706.765
-323.706 -29.9728 703.799
-323.028 -28.6507 702.325
-323.706 -27.4488 703.799
-323.367 -26.1593 703.061
-323.028 -24.8725 702.325
-322.69 -23.5885 701.59
-317.379 -21.9628 690.042
-316.727 -20.6829 688.625
-315.431 -19.3686 685.808
-314.467 -18.0834 683.711
-314.788 -16.8746 684.409
-314.788 -15.6473 684.409
-314.467 -14.4054 683.711
-314.467 -13.1794 683.711
-313.508 -11.917 681.626
-312.555 -10.6622 679.555
-310.042 -9.36775 674.091
-307.876 -8.10201 669.382
-307.263 -6.88796 668.048
-306.957 -5.68439 667.384
-306.652 -4.48322 666.72
-304.834 -3.2682 662.767
-304.834 -2.07976 662.767
-304.533 -0.890447 662.113
-303.335 0.295648 659.509
-302.147 1.47245 656.925
-300.382 2.63493 653.087
-300.089 3.8023 652.452
-300.382 4.97708 653.087
-298.926 6.11837 649.923
-297.772 7.25566 647.414
-296.058 8.3681 643.686
-295.774 9.51319 643.068
-295.774 10.6663 643.068
-295.208 11.7968 641.838
-294.925 12.9353 641.224
-295.208 14.0986 641.838
-293.522 15.1625 638.174
-292.687 16.2604 636.357
-292.687 17.4015 636.357
-288.85 18.2995 628.015
-288.58 19.4074 627.428
-288.31 20.5133 626.842
-287.236 21.5567 624.507
-286.436 22.6134 622.767
-285.376 23.6423 620.463
-284.587 24.6864 618.746
-284.587 25.7959 618.746
-284.324 26.8806 618.175
-282.502 27.8096 614.213
-281.471 28.8055 611.971
-281.471 29.9028 611.971
-280.958 30.9437 610.857
-281.214 32.0683 611.413
-280.702 33.1043 610.301
-280.193 34.1365 609.192
-278.422 35.0063 605.343
-277.921 36.0268 604.253
-276.426 36.9108 601.004
-274.948 37.7853 597.79
-273.972 38.7192 595.666
-272.76 39.6114 593.033
-273.002 40.7108 593.558
-272.279 41.6645 591.986
-270.607 43.5187 588.351
-270.37 44.5346 587.836
-269.897 45.5089 586.807
-269.661 46.5204 586.294
-269.19 47.4887 585.271
-268.955 48.4959 584.761
-267.788 49.3294 582.223
-266.631 50.1557 579.706
-265.712 51.0188 577.709
-265.255 51.9652 576.716
-265.027 52.9538 576.22
-263.218 53.6186 572.287
-262.546 54.5052 570.826
-262.1 55.4344 569.856
-261.656 56.3605 568.889
-261.656 57.3806 568.889
-261.434 58.3512 568.407
-261.656 59.4208 568.889
-261.434 60.3897 568.407
-261.212 61.3569 567.926
-260.551 62.2173 566.487
-259.455 62.9671 564.105
-257.721 63.5511 560.335
-257.506 64.5019 559.867
-254.321 64.6958 552.943
-254.112 65.6332 552.488
-253.694 66.5143 551.579
-253.486 67.4479 551.126
-253.07 68.3239 550.222
-252.862 69.2537 549.771
-252.655 70.182 549.321
-251.83 70.9346 547.527
-251.215 71.7407 546.189
-250.806 72.6019 545.301
-250.399 73.4602 544.416
-249.589 74.1955 542.654
-249.589 75.1686 542.654
-249.387 76.0801 542.215
-248.183 76.6804 539.598
-247.984 77.5856 539.164
-247.586 78.4263 538.299
-246.006 78.8851 534.865
-245.419 79.6536 533.588
-245.224 80.5463 533.164
-245.419 81.5672 533.588
-245.224 82.4584 533.164
-245.029 83.3482 532.741
-245.419 84.4376 533.588
-245.615 85.4624 534.013
-242.335 85.2659 526.882
-241.765 86.008 525.643
-241.576 86.8824 525.231
-240.446 87.4135 522.775
-240.259 88.2821 522.368
-240.072 89.1494 521.961
-239.141 89.7362 519.938
-238.956 90.5983 519.536
-238.586 91.3883 518.732
-237.85 92.0337 517.132
-236.392 92.3912 513.962
-235.85 93.0987 512.783
-235.85 94.0182 512.783
-235.85 94.9377 512.783
-235.67 95.784 512.391
-234.773 96.3348 510.442
-234.416 97.1023 509.666
-232.824 97.3504 506.204
-231.775 97.8152 503.922
-231.601 98.6447 503.544
-229.021 100.225 497.936
-228.852 101.043 497.567
-228.852 101.935 497.567
-228.852 102.827 497.567
-229.021 103.796 497.936
-228.513 104.457 496.83
-227.501 104.881 494.632
-226.333 105.225 492.091
-226.167 106.03 491.731
-226.167 106.911 491.731
-225.506 107.478 490.293
-224.848 108.041 488.863
-224.358 108.68 487.797
-223.869 109.316 486.735
-223.545 110.029 486.029
-223.221 110.74 485.326
-222.738 111.369 484.275
-222.417 112.075 483.576
-222.256 112.861 483.228
-221.937 113.564 482.533
-221.777 114.347 482.186
-220.983 114.799 480.459
-220.667 115.495 479.771
-220.509 116.272 479.428
-220.825 117.3 480.115
-219.567 117.488 477.381
-218.634 117.84 475.351
-217.862 118.274 473.673
-216.486 118.371 470.681
-216.334 119.131 470.351
-216.031 119.807 469.692
-215.729 120.48 469.035
-214.827 120.814 467.075
-213.637 120.978 464.488
-213.637 121.811 464.488
-213.785 122.728 464.81
-213.637 123.476 464.488
-213.637 124.309 464.488
-213.785 125.229 464.81
-213.785 126.062 464.81
-213.489 126.72 464.166
-213.194 127.376 463.525
-212.606 127.854 462.247
-212.168 128.417 461.293
-210.719 128.362 458.142
-210.001 128.743 456.583
-210.001 129.562 456.583
-210.288 130.559 457.205
-210.288 131.379 457.205
-207.739 133.026 451.664
-207.32 133.566 450.753
-207.042 134.194 450.148
-204.435 137.286 444.48
-204.299 137.992 444.186
-204.299 138.788 444.186
-198.26 144.733 431.054
-198.132 145.413 430.777
-192.207 151.555 417.894
-192.447 153.245 418.416
-192.447 153.995 418.416
-192.447 154.745 418.416
-190.31 155.253 413.77
-190.31 155.995 413.77
-189.958 156.447 413.005
-189.027 156.417 410.981
-189.027 157.154 410.981
-189.027 157.891 410.981
-188.68 158.337 410.227
-342.193 -57.2554 746.905
-340.675 -55.6681 743.593
-339.171 -54.0948 740.31
-339.546 -52.8257 741.128
-341.054 -51.7253 744.418
-341.432 -50.4465 745.245
-341.432 -49.1102 745.245
-341.432 -47.7738 745.245
-334.01 -45.428 729.044
-332.564 -43.9297 725.888
-332.564 -42.6281 725.888
-331.846 -41.2372 724.32
-331.131 -39.8523 722.759
-330.064 -38.4321 720.43
-329.356 -37.0606 718.886
-323.803 -33.9011 706.765
-323.803 -32.6338 706.765
-323.462 -31.3334 706.021
-322.106 -29.9414 703.061
-322.106 -28.6807 703.061
-322.783 -27.4776 704.538
-321.769 -26.1319 702.325
-318.765 -24.6403 695.768
-317.448 -23.2961 692.893
-314.846 -21.8728 687.214
-314.846 -20.6406 687.214
-314.202 -19.3686 685.808
-313.56 -18.1018 684.409
-313.56 -16.8746 684.409
-313.881 -15.6633 685.108
-313.241 -14.4054 683.711
-313.56 -13.1929 684.409
-313.241 -11.9534 683.711
-312.922 -10.7165 683.015
-309.144 -9.37717 674.769
-307.905 -8.13448 672.065
-306.676 -6.90171 669.382
-306.065 -5.69005 668.048
-305.76 -4.48768 667.384
-305.457 -3.28769 666.72
-304.85 -2.08802 665.397
-303.646 -0.891327 662.767
-303.047 0.296523 661.46
-300.969 1.47245 656.925
-299.502 2.63749 653.724
-297.761 4.95297 649.923
-296.611 6.09475 647.414
-296.04 7.24168 646.166
-294.621 8.36007 643.068
-294.621 9.51319 643.068
-294.621 10.6663 643.068
-294.621 11.8194 643.068
-294.338 12.9601 642.452
-294.057 14.0986 641.838
-292.378 15.1625 638.174
-290.994 16.2296 635.152
-290.994 17.3685 635.152
-288.264 18.3338 629.194
-287.724 19.4256 628.015
-287.455 20.5325 627.428
-286.65 21.597 625.672
-285.585 22.6344 623.346
-285.32 23.7301 622.767
-284.001 24.732 619.889
-283.739 25.8197 619.317
-283.739 26.9302 619.317
-281.917 27.8607 615.34
-279.354 28.7007 609.746
-280.629 29.9301 612.53
-279.863 30.9437 610.857
-279.354 31.9808 609.746
-279.354 33.0742 609.746
-279.354 34.1675 609.746
-277.337 35.0063 605.343
-276.588 35.9943 603.709
-275.349 36.9108 601.004
-273.389 37.7181 596.726
-271.697 38.548 593.033
-271.457 39.5764 592.509
-271.457 40.6389 592.509
-270.739 41.5911 590.943
-270.026 42.5383 589.385
-269.789 43.5569 588.868
-269.552 44.5737 588.351
-269.316 45.5887 587.836
-268.844 46.5611 586.807
-267.907 47.4473 584.761
-267.441 48.4115 583.743
-265.821 49.1587 580.208
-264.905 50.026 578.207
-264.221 50.9311 576.716
-263.994 51.9206 576.22
-263.994 52.9538 576.22
-262.192 53.6186 572.287
-261.746 54.5517 571.312
-261.523 55.5288 570.826
-260.857 56.4084 569.372
-260.636 57.3806 568.889
-260.194 58.3018 567.926
-260.636 59.4208 568.889
-260.415 60.3897 568.407
-260.194 61.3569 567.926
-259.097 62.1123 565.532
-258.661 63.0201 564.579
-257.577 63.7641 562.213
-255.861 64.3408 558.468
-253.33 64.6958 552.943
-253.33 65.6873 552.943
-253.121 66.6239 552.488
-252.705 67.5034 551.579
-252.29 68.38 550.674
-252.083 69.3105 550.222
-252.083 70.2971 550.222
-251.67 71.167 549.321
-250.236 71.7407 546.189
-249.626 72.5429 544.858
-249.019 73.3412 543.534
-248.616 74.1955 542.654
-248.616 75.1686 542.654
-248.817 76.2033 543.093
-248.214 76.9901 541.777
-247.017 77.5856 539.164
-246.621 78.4263 538.299
-245.439 79.0111 535.719
-245.243 79.9079 535.292
-245.047 80.8033 534.865
-245.047 81.7624 534.865
-245.047 82.7214 534.865
-244.657 83.5473 534.013
-244.657 84.5048 534.013
-242.725 84.7873 529.795
-242.151 85.5346 528.542
-240.822 86.008 525.643
-240.634 86.8824 525.231
-239.695 87.4817 523.183
-239.136 88.2134 521.961
-238.394 88.8727 520.342
-238.024 89.6667 519.536
-237.84 90.5281 519.133
-237.84 91.459 519.133
-236.923 92.0337 517.132
-236.195 92.6752 515.542
-235.11 93.17 513.176
-235.11 94.0902 513.176
-234.931 94.9377 512.783
-234.751 95.784 512.391
-234.036 96.4082 510.831
-233.68 97.1761 510.054
-231.916 97.3504 506.204
-231.218 97.9624 504.681
-230.871 98.7188 503.922
-227.959 99.2582 497.567
-227.959 100.15 497.567
-228.129 101.118 497.936
-228.129 102.011 497.936
-228.129 102.903 497.936
-228.298 103.873 498.306
-227.285 104.302 496.095
-226.448 104.804 494.267
-225.616 105.302 492.453
-225.451 106.107 492.091
-225.285 106.911 491.731
-224.135 108.12 489.22
-222.512 108.208 485.677
-222.512 109.079 485.677
-222.03 109.711 484.625
-221.709 110.421 483.925
-221.55 111.208 483.576
-221.55 112.075 483.576
-221.39 112.861 483.228
-221.071 113.564 482.533
-220.912 114.347 482.186
-220.279 114.881 480.803
-219.964 115.578 480.115
-219.964 116.439 480.115
-220.121 117.384 480.459
-218.556 117.404 477.042
-217.781 117.84 475.351
-217.627 118.609 475.014
-216.401 119.635 472.338
-216.097 120.312 471.674
-215.49 120.818 470.351
-213.692 120.646 466.426
-212.804 120.978 464.488
-213.099 121.98 465.132
-213.247 122.899 465.455
-212.952 123.562 464.81
-212.952 124.395 464.81
-213.247 125.403 465.455
-213.395 126.325 465.778
-212.952 126.896 464.81
-212.952 127.729 464.81
-212.216 128.119 463.205
-211.632 128.594 461.929
-209.325 128.012 456.894
-209.183 128.743 456.583
-209.04 129.474 456.272
-209.183 130.381 456.583
-209.04 131.11 456.272
-209.611 132.289 457.517
-206.373 133.476 450.45
-205.682 133.834 448.943
-204.043 136.761 445.365
-203.773 137.377 444.775
-203.638 138.083 444.48
-198.507 142.374 433.282
-197.614 144.053 431.331
-197.614 144.826 431.331
-197.614 145.6 431.331
-197.614 146.373 431.331
-191.457 151.555 417.894
-191.577 152.399 418.155
-191.696 153.245 418.416
-191.816 154.091 418.677
-191.696 154.745 418.416
-189.568 155.995 413.77
-189.334 156.543 413.26
-188.29 156.417 410.981
-340.854 -57.2554 746.905
-337.844 -55.4223 740.31
-337.471 -54.0352 739.493
-337.844 -52.7674 740.31
-339.719 -51.7253 744.418
-339.719 -50.3905 744.418
-340.474 -49.1648 746.074
-340.854 -47.8802 746.905
-331.981 -45.3294 727.462
-331.263 -43.9297 725.888
-330.904 -42.582 725.103
-330.904 -41.2818 725.103
-330.19 -39.8953 723.539
-328.772 -38.4321 720.43
-328.419 -37.1004 719.657
-322.536 -33.9011 706.765
-322.536 -32.6338 706.765
-322.536 -31.3665 706.765
-321.858 -30.0358 705.279
-321.519 -28.7409 704.538
-321.519 -27.4776 704.538
-319.506 -26.0501 700.126
-317.517 -24.6403 695.768
-315.553 -23.248 691.464
-314.904 -21.9628 690.042
-314.904 -20.7255 690.042
-312.333 -19.3291 684.409
-311.697 -18.065 683.015
-312.333 -16.8746 684.409
-312.333 -15.6473 684.409
-312.015 -14.4054 683.711
-312.652 -13.2063 685.108
-312.333 -11.9656 684.409
-312.333 -10.7384 684.409
-307.625 -9.36775 674.091
-306.087 -8.11821 670.72
-305.476 -6.90171 669.382
-305.171 -5.69573 668.714
-305.171 -4.49663 668.714
-305.171 -3.29753 668.714
-302.457 -2.07976 662.767
-302.457 -0.891327 662.767
-302.457 0.297109 662.767
-298.913 1.46814 655
-295.736 4.93861 648.039
-295.45 6.09475 647.414
-294.881 7.24168 646.166
-293.749 8.3681 643.686
-293.467 9.51319 643.068
-293.467 10.6663 643.068
-293.186 11.8081 642.452
-293.186 12.9601 642.452
-292.906 14.0986 641.838
-290.957 15.148 637.567
-290.957 16.2913 637.567
-288.761 17.303 632.755
-286.598 18.2995 628.015
-286.598 19.4256 628.015
-286.33 20.5325 627.428
-285.795 21.6171 626.256
-284.732 22.6555 623.926
-283.939 23.7081 622.19
-282.368 24.6864 618.746
-282.368 25.7959 618.746
-282.628 26.9302 619.317
-281.848 27.9633 617.606
-280.556 28.9375 614.776
-280.043 29.9849 613.651
-279.787 31.0569 613.09
-278.514 32.0099 610.301
-278.26 34.1675 609.746
-276.002 34.9748 604.797
-275.754 36.0268 604.253
-274.764 36.977 602.083
-272.804 37.7853 597.79
-272.319 38.7881 596.726
-270.873 39.6465 593.558
-270.634 40.6748 593.033
-270.156 41.6645 591.986
-269.918 42.6883 591.464
-269.68 43.7104 590.943
-268.733 44.6128 588.868
-268.497 45.6287 588.351
-268.262 46.6427 587.836
-266.858 47.4473 584.761
-266.394 48.4115 583.743
-265.01 49.2013 580.71
-264.552 50.1557 579.706
-264.323 51.151 579.206
-263.868 52.0996 578.207
-263.187 52.9994 576.716
-261.389 53.6643 572.776
-261.166 54.6448 572.287
-260.499 55.5288 570.826
-259.395 56.3128 568.407
-259.176 57.2834 567.926
-258.738 58.2032 566.966
-259.176 59.3202 567.926
-258.956 60.2875 567.445
-259.176 61.3569 567.926
-258.519 62.2173 566.487
-257.649 63.0201 564.579
-256.139 63.6574 561.272
-254.436 64.2339 557.54
-252.547 64.7492 553.4
-252.547 65.7415 553.4
-252.131 66.6239 552.488
-252.131 67.6146 552.488
-252.338 68.6618 552.943
-251.716 69.4815 551.579
-251.303 70.3549 550.674
-251.096 71.2838 550.222
-249.256 71.7407 546.189
-249.053 72.6609 545.745
-248.649 73.5199 544.858
-247.643 74.1955 542.654
-246.844 76.866 540.904
-246.05 77.5856 539.164
-246.248 78.6156 539.598
-245.655 79.3916 538.299
-244.869 80.0997 536.576
-244.478 80.9323 535.719
-244.478 81.8929 535.719
-245.262 83.1191 537.436
-244.478 83.8142 535.719
-242.157 84.9215 530.633
-240.823 85.4001 527.711
-239.692 85.9406 525.231
-239.504 86.8144 524.82
-239.13 87.6184 524
-238.385 88.2821 522.368
-238.2 89.1494 521.961
-238.2 90.0853 521.961
-238.385 91.0922 522.368
-236.36 92.1759 517.931
-235.451 92.7465 515.939
-234.729 93.3843 514.356
-234.369 94.1622 513.568
-234.19 95.0104 513.176
-232.236 95.1299 508.893
-232.412 96.1154 509.279
-232.943 97.2501 510.442
-232.765 98.0907 510.054
-230.487 98.0362 505.061
-227.913 98.7323 499.42
-227.067 99.2582 497.567
-227.067 100.15 497.567
-227.067 101.043 497.567
-227.236 102.011 497.936
-227.236 102.903 497.936
-227.236 103.796 497.936
-225.561 103.918 494.267
-225.561 104.804 494.267
-224.898 105.38 492.814
-224.568 106.107 492.091
-223.095 108.041 488.863
-220.842 107.818 483.925
-221.001 108.764 484.275
-220.842 109.553 483.925
-220.842 110.421 483.925
-220.682 111.208 483.576
-220.682 112.075 483.576
-220.523 112.861 483.228
-220.365 113.646 482.88
-220.206 114.429 482.533
-219.574 114.964 481.148
-219.103 115.578 480.115
-218.946 116.355 479.771
-218.321 116.881 478.403
-217.7 117.404 477.042
-216.469 117.59 474.343
-216.622 118.525 474.678
-215.554 118.788 472.338
-215.706 119.719 472.671
-214.948 120.143 471.012
-214.346 120.649 469.692
-212.56 120.479 465.778
-211.971 120.978 464.488
-212.265 121.98 465.132
-212.265 122.814 465.132
-212.118 123.562 464.81
-212.118 124.395 464.81
-212.413 125.403 465.455
-212.708 126.413 466.102
-211.971 126.808 464.488
-212.56 127.995 465.778
-208.506 128.012 456.894
-208.506 128.831 456.894
-208.506 129.65 456.894
-208.506 130.47 456.894
-208.648 131.379 457.205
-209.362 132.65 458.769
-209.505 133.564 459.083
-209.648 134.48 459.398
-206.258 133.115 451.968
-205.014 133.118 449.243
-204.74 133.745 448.642
-202.037 135.949 442.72
-202.438 137.014 443.598
-202.706 137.992 444.186
-197.858 142.466 433.562
-197.858 143.243 433.562
-197.858 144.021 433.562
-197.73 144.704 433.282
-197.221 145.106 432.165
-197.348 145.975 432.444
-190.827 151.649 418.155
-190.827 152.399 418.155
-190.946 153.245 418.416
-191.065 154.091 418.677
-191.304 155.035 419.2
-188.826 155.253 413.77
-188.709 155.898 413.514
-188.245 156.255 412.497
-187.898 156.705 411.738
-187.553 157.154 410.981
-336.516 -55.4223 740.31
-336.145 -54.0352 739.493
-338.009 -53.0014 743.593
-338.76 -51.7828 745.245
-339.137 -50.5026 746.074
-338.76 -49.1102 745.245
-338.76 -47.7738 745.245
-332.117 -45.527 730.632
-330.318 -43.9773 726.674
-329.961 -42.6281 725.888
-329.604 -41.2818 725.103
-329.248 -39.9384 724.32
-327.48 -38.4321 720.43
-326.778 -37.0606 718.886
-321.607 -33.9369 707.511
-321.269 -32.6338 706.765
-321.269 -31.3665 706.765
-321.269 -30.0991 706.765
-321.269 -28.8318 706.765
-320.93 -27.5354 706.021
-319.25 -26.1319 702.325
-316.27 -24.6403 695.768
-315.615 -23.3443 694.328
-313.99 -21.9855 690.752
-313.667 -20.7255 690.042
-310.789 -19.3094 683.711
-310.789 -18.0834 683.711
-310.789 -16.8574 683.711
-310.789 -15.6314 683.711
-310.472 -14.3907 683.015
-311.106 -13.1929 684.409
-311.424 -11.9778 685.108
-310.789 -10.7274 683.711
-305.495 -9.33959 672.065
-303.972 -8.09393 668.714
-303.669 -6.88796 668.048
-302.464 -5.66747 665.397
-301.865 -4.46546 664.08
-300.971 -3.26497 662.113
-300.083 -2.07158 660.158
-299.493 -0.886074 658.861
-298.906 0.294779 657.569
-296.58 1.46242 652.452
-293.722 2.607 646.166
-293.158 3.75843 644.923
-294.289 4.93385 647.414
-294.574 6.10064 648.039
-293.722 7.24168 646.166
-292.876 8.37614 644.304
-292.595 9.52232 643.686
-292.314 10.6663 643.068
-292.034 11.8081 642.452
-292.314 12.9725 643.068
-292.314 14.1256 643.068
-290.642 15.1914 639.39
-290.089 16.3068 638.174
-288.17 17.3357 633.951
-285.472 18.2995 628.015
-285.205 19.4074 627.428
-284.938 20.5133 626.842
-283.877 21.5567 624.507
-283.349 22.6344 623.346
-282.039 23.6423 620.463
-281.518 24.7092 619.317
-281.518 25.8197 619.317
-282.039 26.98 620.463
-281.518 28.0407 619.317
-280.74 29.0707 617.606
-278.687 29.9575 613.09
-277.672 30.9437 610.857
-277.419 32.0099 610.301
-277.167 33.0742 609.746
-276.413 34.0746 608.087
-274.67 34.9432 604.253
-274.176 35.962 603.166
-273.438 36.9439 601.543
-271.491 37.7516 597.258
-271.008 38.7536 596.196
-270.287 39.7167 594.61
-269.809 40.7108 593.558
-269.57 41.7382 593.033
-269.094 42.726 591.986
-268.62 43.7104 590.943
-267.677 44.6128 588.868
-267.442 45.6287 588.351
-267.208 46.6427 587.836
-265.578 47.406 584.251
-265.347 48.4115 583.743
-264.886 49.3722 582.728
-263.74 50.1991 580.208
-263.74 51.2395 580.208
-263.512 52.2347 579.706
-263.512 53.2742 579.706
-260.585 54.7382 573.265
-259.476 55.5288 570.826
-257.069 56.0279 565.532
-257.721 57.1866 566.966
-257.939 58.2525 567.445
-258.157 59.3202 567.926
-258.157 60.3386 567.926
-258.157 61.3569 567.926
-257.721 62.2698 566.966
-256.42 62.9671 564.105
-254.707 63.5511 560.335
-253.436 64.2339 557.54
-253.226 65.1794 557.077
-252.596 66.0139 555.692
-251.762 66.7889 553.857
-251.554 67.7262 553.4
-251.554 68.7185 553.4
-251.347 69.6534 552.943
-250.521 70.4127 551.126
-248.075 71.6824 545.745
-247.873 72.6019 545.301
-247.27 73.4006 543.974
-246.67 74.1955 542.654
-246.67 77.1147 542.654
-246.67 78.0878 542.654
-246.87 79.1248 543.093
-244.887 79.4553 538.731
-244.298 80.228 537.436
-245.083 81.4528 539.164
-243.517 81.8929 535.719
-243.517 82.8536 535.719
-245.281 84.4211 539.598
-240.825 84.7873 529.795
-240.255 85.5346 528.542
-238.75 85.9406 525.231
-237.448 87.3455 522.368
-237.448 88.2821 522.368
-237.264 89.1494 521.961
-237.448 90.1555 522.368
-237.448 92.0288 522.368
-235.796 92.3184 518.732
-234.166 92.604 515.146
-233.27 93.17 513.176
-232.914 93.9464 512.391
-232.027 94.5042 510.442
-231.851 95.3469 510.054
-231.675 96.1884 509.666
-232.381 97.3983 511.22
-229.236 97.8887 504.301
-229.581 98.9418 505.061
-227.017 98.7323 499.42
-226.175 100.15 497.567
-226.007 100.968 497.198
-226.007 101.859 497.198
-226.175 102.827 497.567
-226.175 103.719 497.567
-224.841 103.994 494.632
-224.509 104.727 493.903
-223.686 105.225 492.091
-223.358 105.952 491.37
-223.031 106.677 490.651
-222.543 107.321 489.577
-222.057 107.962 488.507
-220.292 107.973 484.625
-220.292 108.842 484.625
-220.611 109.87 485.326
-220.611 110.74 485.326
-220.133 111.369 484.275
-219.974 112.156 483.925
-219.815 112.943 483.576
-219.657 113.728 483.228
-219.183 114.347 482.186
-218.555 114.881 480.803
-218.086 115.495 479.771
-217.619 116.106 478.744
-217.309 116.798 478.062
-216.691 117.321 476.703
-215.618 117.59 474.343
-215.313 118.274 473.673
-214.707 118.788 472.338
-214.556 119.55 472.006
-213.504 119.807 469.692
-212.611 120.144 467.727
-211.431 120.311 465.132
-211.285 121.062 464.81
-211.578 122.064 465.455
-212.019 123.155 466.426
-211.578 123.733 465.455
-211.578 124.568 465.455
-211.872 126.413 466.102
-211.431 126.984 465.132
-211.872 128.084 466.102
-207.687 128.012 456.894
-206.421 128.86 454.11
-206.281 129.587 453.803
-208.968 132.923 459.712
-208.968 133.748 459.712
-205.447 132.305 451.968
-205.309 133.026 451.664
-204.346 133.208 449.545
-204.209 133.924 449.243
-203.392 134.19 447.445
-202.85 134.633 446.254
-202.178 134.984 444.775
-202.178 135.782 444.775
-202.044 136.489 444.48
-202.044 137.286 444.48
-202.178 138.175 444.775
-198.105 138.517 435.816
-198.105 139.299 435.816
-198.363 140.263 436.383
-198.492 141.137 436.667
-198.621 142.012 436.951
-198.234 142.517 436.099
-197.977 143.113 435.533
-197.848 143.801 435.25
-197.977 144.675 435.533
-197.464 145.079 434.404
-196.826 145.387 433.002
-196.572 145.975 432.444
-193.087 150.242 424.775
-192.842 150.813 424.238
-190.077 150.9 418.155
-190.077 151.649 418.155
-190.077 152.399 418.155
-190.196 153.245 418.416
-190.315 154.091 418.677
-190.672 155.132 419.462
-187.852 155.061 413.26
-187.505 155.515 412.497
-187.275 156.063 411.99
-187.16 156.705 411.738
-186.931 157.25 411.233
-335.931 -56.8754 741.947
-334.819 -54.0352 739.493
-337.049 -53.0602 744.418
-337.799 -51.8404 746.074
-337.423 -50.4465 745.245
-334.083 -48.6239 737.866
-333.716 -47.2488 737.055
-331.168 -45.5766 731.429
-329.372 -44.025 727.462
-329.015 -42.6743 726.674
-328.659 -41.3265 725.888
-328.659 -40.0248 725.888
-327.949 -38.6396 724.32
-325.838 -37.1004 719.657
-320.339 -33.9369 707.511
-320.339 -32.6682 707.511
-320.001 -31.3665 706.765
-320.339 -30.1309 707.511
-320.001 -28.8318 706.765
-319.664 -27.5354 706.021
-320.001 -26.2971 706.765
-315.022 -24.6403 695.768
-313.72 -23.2961 692.893
-312.429 -21.9628 690.042
-312.751 -20.7468 690.752
-312.429 -19.4882 690.042
-310.512 -18.1388 685.808
-310.195 -16.8918 685.108
-310.195 -15.6633 685.108
-309.879 -14.4201 684.409
-310.512 -13.2198 685.808
-310.512 -11.9901 685.808
-309.879 -10.7384 684.409
-304.901 -9.35834 673.414
-302.471 -8.08587 668.048
-302.471 -6.88796 668.048
-302.17 -5.68439 667.384
-301.271 -4.47432 665.397
-300.674 -3.27467 664.08
-300.08 -2.07976 662.767
-297.435 -0.88347 656.925
-294.265 0.291351 649.923
-292.846 1.44973 646.789
-292.001 2.60199 644.923
-292.001 3.75843 644.923
-292.846 4.92909 646.789
-293.129 6.09475 647.414
-291.721 7.22081 644.304
-291.441 8.3681 643.686
-291.161 9.51319 643.068
-290.882 10.6561 642.452
-290.604 11.7968 641.838
-290.326 12.9353 641.224
-290.604 14.0986 641.838
-289.22 15.1769 638.781
-288.396 16.2758 636.961
-286.762 17.3193 633.353
-284.612 18.3166 628.604
-284.08 19.4074 627.428
-284.08 20.5325 627.428
-283.285 21.597 625.672
-282.232 22.6344 623.346
-281.708 23.7081 622.19
-281.186 24.7778 621.037
-280.667 25.8435 619.889
-281.186 27.005 621.037
-280.407 28.0407 619.317
-279.633 29.0707 617.606
-278.096 30.0124 614.213
-277.081 31.0002 611.971
-276.074 31.9808 609.746
-276.074 33.0742 609.746
-275.323 34.0746 608.087
-274.08 35.0063 605.343
-272.116 35.8331 601.004
-272.116 36.9108 601.004
-271.386 37.8866 599.393
-270.661 38.8572 597.79
-270.42 39.8936 597.258
-269.939 40.8917 596.196
-268.033 41.6645 591.986
-266.154 42.4264 587.836
-265.92 43.4425 587.321
-265.224 44.379 585.782
-265.92 45.5488 587.321
-265.456 46.5204 586.294
-264.761 47.4473 584.761
-264.531 48.4536 584.251
-264.531 49.5013 584.251
-263.841 50.4172 582.728
-263.612 51.4174 582.223
-263.841 52.507 582.728
-263.155 53.4127 581.214
-262.246 54.2668 579.206
-259.114 54.6448 572.287
-258.013 55.4344 569.856
-256.487 56.1225 566.487
-256.704 57.1866 566.966
-256.921 58.2525 567.445
-257.139 59.3202 567.926
-256.921 60.2875 567.445
-256.921 61.305 567.445
-256.055 62.1123 565.532
-255.409 62.9671 564.105
-254.553 63.7641 562.213
-254.126 64.6639 561.272
-253.914 65.6154 560.803
-252.018 66.1234 556.615
-250.355 66.6788 552.943
-250.149 67.6146 552.488
-249.943 68.5488 552.033
-249.533 69.4244 551.126
-249.328 70.3549 550.674
-246.095 71.3919 543.534
-246.095 72.3665 543.534
-245.896 73.2818 543.093
-245.498 74.1356 542.215
-245.697 77.1147 542.654
-245.697 78.0878 542.654
-246.095 79.189 543.534
-243.921 79.4553 538.731
-243.725 80.3568 538.299
-244.313 81.5183 539.598
-244.313 82.4859 539.598
-244.313 83.4535 539.598
-244.51 84.489 540.033
-236.696 86.4761 522.775
-236.512 87.3455 522.368
-236.512 88.2821 522.368
-236.512 89.2188 522.368
-236.144 90.0153 521.556
-236.328 91.0213 521.961
-235.229 91.5299 519.536
-233.961 91.9628 516.734
-233.601 92.7465 515.939
-232.706 93.3128 513.962
-232.528 94.1622 513.568
-230.761 94.3606 509.666
-230.586 95.2021 509.279
-230.586 96.1154 509.279
-230.936 97.1761 510.054
-230.061 97.7192 508.122
-230.061 98.6303 508.122
-229.366 99.2407 506.586
-226.459 98.8795 500.164
-225.45 99.3319 497.936
-225.116 100.076 497.198
-225.116 100.968 497.198
-224.783 101.709 496.462
-224.783 102.599 496.462
-224.949 103.566 496.83
-224.119 104.071 494.997
-223.624 104.727 493.903
-222.64 105.148 491.731
-222.477 105.952 491.37
-222.152 106.677 490.651
-221.503 107.243 489.22
-221.342 108.041 488.863
-219.899 108.208 485.677
-219.74 109 485.326
-219.899 109.95 485.677
-219.74 110.74 485.326
-219.264 111.369 484.275
-219.106 112.156 483.925
-218.633 112.78 482.88
-218.005 113.32 481.493
-217.849 114.101 481.148
-217.693 114.881 480.803
-217.537 115.661 480.459
-217.381 116.439 480.115
-216.297 116.715 477.721
-215.836 117.321 476.703
-214.313 117.342 473.338
-214.011 118.024 472.671
-213.259 118.454 471.012
-212.662 118.964 469.692
-212.216 119.555 468.707
-211.477 119.977 467.075
-211.036 120.562 466.102
-210.597 121.146 465.132
-210.451 121.895 464.81
-210.597 122.814 465.132
-210.451 123.562 464.81
-210.597 124.482 465.132
-210.597 125.316 465.132
-210.743 126.237 465.455
-210.597 126.984 465.132
-211.33 128.263 466.75
-211.036 128.92 466.102
-206.305 128.481 455.652
-206.165 129.21 455.343
-206.025 129.939 455.034
-205.886 130.666 454.726
-208.001 132.832 459.398
-204.499 131.406 451.664
-204.361 132.127 451.36
-203.95 132.668 450.45
-203.676 133.297 449.846
-203.54 134.014 449.545
-202.319 134.011 446.849
-201.648 134.365 445.365
-201.38 134.984 444.775
-201.38 135.782 444.775
-201.247 136.489 444.48
-200.45 136.742 442.72
-198.096 137.49 437.521
-197.967 138.185 437.236
-198.096 139.059 437.521
-197.838 139.662 436.951
-197.967 140.537 437.236
-198.096 141.413 437.521
-197.967 142.105 437.236
-197.196 142.332 435.533
-196.94 142.928 434.968
-197.068 143.801 435.25
-197.068 144.581 435.25
-196.43 144.892 433.842
-195.293 144.826 431.331
-195.293 145.6 431.331
-192.447 150.337 425.045
-192.203 150.908 424.507
-189.919 150.619 419.462
-189.564 151.088 418.677
-189.446 151.744 418.416
-189.446 152.494 418.416
-189.446 153.245 418.416
-190.157 154.573 419.988
-190.396 155.521 420.514
-186.881 154.87 412.751
-186.651 156.158 412.244
-186.422 156.705 411.738
-186.422 157.443 411.738
-334.6 -59.5362 741.947
-334.6 -56.8754 741.947
-333.493 -54.0352 739.493
-333.861 -52.7674 740.31
-335.714 -51.7253 744.418
-335.342 -50.3346 743.593
-333.126 -48.6775 738.679
-332.394 -47.2488 737.055
-330.578 -45.6762 733.028
-329.857 -44.265 731.429
-328.424 -42.7669 728.252
-327.712 -41.3712 726.674
-327.358 -40.0248 725.888
-326.651 -38.6396 724.32
-324.548 -37.1004 719.657
-319.07 -33.9369 707.511
-319.07 -32.6682 707.511
-319.07 -31.3995 707.511
-318.734 -27.5645 706.765
-317.729 -26.2143 704.538
-311.833 -24.4879 691.464
-312.478 -23.2961 692.893
-311.512 -21.9855 690.752
-311.512 -20.7468 690.752
-311.192 -19.4882 690.042
-310.553 -18.2133 688.625
-309.916 -16.9437 687.214
-309.283 -15.6793 685.808
-308.967 -14.4348 685.108
-309.916 -13.2469 687.214
-309.283 -11.9901 685.808
-308.651 -10.7384 684.409
-304.304 -9.37717 674.769
-301.273 -8.08587 668.048
-301.273 -6.88796 668.048
-301.273 -5.69005 668.048
-301.273 -4.49215 668.048
-301.273 -3.29424 668.048
-299.484 -2.08388 664.08
-297.13 -0.886074 658.861
-293.099 0.291351 649.923
-291.968 1.45113 647.414
-291.405 2.607 646.166
-291.405 3.76567 646.166
-291.968 4.93385 647.414
-291.968 6.09475 647.414
-290.286 7.21388 643.686
-289.73 8.35207 642.452
-289.453 9.49498 641.838
-289.453 10.6459 641.838
-289.176 11.7855 641.224
-288.625 12.9106 640
-288.349 14.0448 639.39
-287.527 15.148 637.567
-287.254 16.2758 636.961
-285.626 17.3193 633.353
-284.552 18.3855 630.969
-283.485 19.4438 628.604
-283.22 20.5517 628.015
-282.955 21.6576 627.428
-281.9 22.6977 625.089
-281.375 23.7743 623.926
-281.114 24.8699 623.346
-281.114 25.9877 623.346
-281.114 27.1054 623.346
-280.853 28.197 622.767
-276.995 28.911 614.213
-278.013 30.1227 616.471
-277.249 31.1423 614.776
-276.995 32.2151 614.213
-275.984 33.1949 611.971
-274.481 34.1055 608.639
-272.995 35.0063 605.343
-272.258 35.9943 603.709
-271.281 36.9439 601.543
