ply
format ascii 1.0
element vertex 1927
property float x
property float y
property float z
end_header
-254.113 65.5012 586.807
-253.448 66.3793 585.271
-253.007 67.3113 584.251
-252.128 68.1215 582.223
-251.691 69.0457 581.214
-251.256 69.9666 580.208
-251.038 70.9456 579.706
-249.529 71.5522 576.22
-248.037 72.1516 572.776
-247.826 73.1162 572.287
-247.826 74.1424 572.287
-247.614 75.1045 571.799
-247.826 76.1948 572.287
-247.826 77.221 572.287
-248.037 78.314 572.776
-245.937 78.6693 567.926
-244.077 81.1063 563.631
-243.259 81.8419 561.742
-242.852 82.7106 560.803
-241.841 83.3677 558.468
-241.039 84.089 556.615
-240.639 84.9461 555.692
-240.241 85.8004 554.773
-240.043 86.7234 554.314
-237.88 86.9272 549.321
-237.491 87.7684 548.422
-237.491 88.7518 548.422
-237.103 89.5887 547.527
-236.717 90.4229 546.634
-236.717 91.4031 546.634
-236.524 92.308 546.189
-235.756 92.9845 544.416
-233.294 93.9457 538.731
-232.175 94.4565 536.147
-231.805 95.2656 535.292
-231.067 95.9192 533.588
-231.067 96.876 533.588
-230.7 97.6774 532.741
-230.7 98.6327 532.741
-230.517 99.5089 532.318
-230.334 100.384 531.896
-229.425 100.937 529.795
-228.702 101.566 528.126
-227.448 101.951 525.231
-227.448 102.893 525.231
-226.915 103.592 524
-226.032 104.125 521.961
-225.857 104.979 521.556
-225.681 105.832 521.15
-224.808 106.353 519.133
-224.808 107.284 519.133
-223.768 107.715 516.734
-222.568 108.058 513.962
-222.058 108.73 512.783
-221.044 109.149 510.442
-220.708 109.897 509.666
-220.54 110.727 509.279
-220.206 111.471 508.507
-219.54 112.043 506.969
-219.374 112.866 506.586
-219.374 113.775 506.586
-219.043 114.51 505.822
-219.706 115.766 507.353
-217.73 115.627 502.789
-215.149 115.147 496.83
-215.309 116.124 497.198
-215.149 116.929 496.83
-214.99 117.733 496.462
-214.672 118.447 495.728
-214.514 119.248 495.362
-214.197 119.959 494.632
-213.097 120.226 492.091
-211.854 120.401 489.22
-211.854 121.279 489.22
-211.545 121.978 488.507
-211.545 122.854 488.507
-211.545 123.73 488.507
-211.545 124.606 488.507
-210.472 124.845 486.029
-210.167 125.535 485.326
-208.508 126.27 481.493
-208.209 126.951 480.803
-208.06 127.722 480.459
-208.06 128.584 480.459
-207.911 129.352 480.115
-208.06 130.307 480.459
-207.169 130.607 478.403
-206.727 131.184 477.381
-206.727 132.04 477.381
-204.832 132.526 473.005
-203.969 132.812 471.012
-203.255 134.031 469.363
-202.971 134.684 468.707
-202.688 135.335 468.053
-202.546 136.079 467.727
-202.405 136.823 467.401
-199.212 142.088 460.028
-199.076 142.815 459.712
-198.939 143.541 459.398
-198.125 143.774 457.517
-198.125 144.594 457.517
-197.586 145.019 456.272
-194.803 143.783 449.846
-194.803 144.59 449.846
-194.542 145.202 449.243
-194.022 145.617 448.043
-193.634 146.128 447.147
-193.376 146.734 446.552
-192.607 146.948 444.775
-192.479 147.647 444.48
-192.479 148.444 444.48
-192.607 149.34 444.775
-192.479 150.038 444.48
-192.479 150.835 444.48
-192.352 151.532 444.186
-188.727 154.147 435.816
-188.605 154.828 435.533
-188.605 155.609 435.533
-188.238 156.086 434.686
-187.63 156.358 433.282
-187.026 156.63 431.887
-187.388 157.709 432.723
-186.786 157.975 431.331
-186.546 158.544 430.777
-186.187 159.01 429.949
-183.946 158.621 424.775
-183.482 158.979 423.702
-183.135 159.437 422.901
-183.019 160.094 422.634
-183.019 161.61 422.634
-182.904 162.266 422.368
-181.873 162.104 419.988
-181.873 162.857 419.988
-181.646 163.406 419.462
-181.306 163.851 418.677
-337.907 -58.6596 783.552
-337.907 -57.2546 783.552
-336.727 -55.6545 780.815
-336.336 -54.1913 779.907
-335.945 -52.7315 779.002
-336.336 -51.3943 779.907
-335.945 -49.9378 779.002
-336.336 -48.5974 779.907
-335.555 -47.0894 778.098
-332.852 -45.3261 771.83
-332.852 -43.9421 771.83
-330.193 -42.218 765.663
-329.441 -40.752 763.918
-328.692 -39.2927 762.182
-327.575 -37.7971 759.593
-327.204 -36.3938 758.734
-327.575 -35.073 759.593
-327.204 -33.6728 758.734
-323.907 -31.9866 751.087
-323.544 -30.6056 750.247
-321.388 -29.0652 745.245
-321.388 -27.7289 745.245
-320.675 -26.334 743.593
-318.907 -24.8628 739.493
-318.556 -23.5109 738.679
-317.856 -22.1376 737.055
-316.119 -20.7022 733.028
-315.774 -19.3666 732.228
-315.774 -18.0536 732.228
-310.02 -16.4356 718.886
-310.02 -15.1465 718.886
-309.357 -13.8278 717.348
-309.357 -12.5415 717.348
-309.357 -11.2552 717.348
-308.039 -9.92642 714.292
-305.76 -8.58162 709.007
-305.115 -7.29484 707.511
-305.115 -6.02618 707.511
-304.793 -4.75249 706.765
-304.472 -3.48149 706.021
-302.878 -2.2039 702.325
-302.878 -0.944527 702.325
-301.615 0.313529 699.396
-300.051 1.55951 695.768
-298.195 2.78976 691.464
-297.275 4.01723 689.332
-295.755 5.22645 685.808
-295.152 6.44302 684.409
-293.654 7.63133 680.934
-293.356 8.84336 680.244
-292.762 10.0428 678.867
-292.466 11.2487 678.18
-291.581 12.4271 676.129
-290.702 13.5983 674.091
-290.119 14.7774 672.739
-289.828 15.9677 672.065
-288.384 17.0872 668.714
-287.81 18.2499 667.384
-287.81 19.4466 667.384
-287.524 20.6228 666.72
-286.102 21.7104 663.423
-285.819 22.8774 662.767
-284.694 23.9711 660.158
-283.577 25.0562 657.569
-283.022 26.184 656.282
-281.37 27.2011 652.452
-281.37 28.371 652.452
-281.097 29.5123 651.818
-279.198 30.4738 647.414
-279.198 31.6347 647.414
-278.66 32.7324 646.166
-276.529 33.6318 641.224
-274.69 34.5504 636.961
-273.91 35.5912 635.152
-273.392 36.6607 633.951
-273.134 37.7618 633.353
-270.832 38.5697 628.015
-270.326 39.6216 626.842
-269.319 40.5938 624.507
-269.069 41.6749 623.926
-269.069 42.7937 623.926
-269.319 43.9533 624.507
-269.57 45.1152 625.089
-269.069 46.15 623.926
-269.069 47.2688 623.926
-266.589 47.9416 618.175
-266.343 49.0049 617.606
-265.123 49.8827 614.776
-265.123 50.9851 614.776
-263.913 51.8499 611.971
-263.193 52.8027 610.301
-261.291 53.5076 605.89
-260.116 54.3485 603.166
-258.951 55.182 600.466
-258.951 56.2587 600.466
-258.72 57.2841 599.929
-258.489 58.3077 599.393
-258.72 59.4356 599.929
-258.489 60.4573 599.393
-257.568 61.313 597.258
-253.95 62.5635 588.868
-253.505 63.5079 587.836
-253.283 64.5055 587.321
-253.283 65.5586 587.321
-252.619 66.4372 585.782
-251.74 67.2527 583.743
-251.084 68.1215 582.223
-250.649 69.0457 581.214
-250.432 70.0272 580.71
-249.783 70.8844 579.206
-248.282 71.4908 575.726
-246.799 72.09 572.287
-246.379 72.9917 571.312
-246.589 74.0792 571.799
-246.169 74.9767 570.826
-245.96 75.9356 570.34
-246.379 77.0894 571.312
-246.799 78.2472 572.287
-243.271 81.1745 564.105
-241.847 81.705 560.803
-241.645 82.6415 560.335
-240.24 83.16 557.077
-239.841 84.0193 556.153
-239.643 84.9461 555.692
-239.643 85.9426 555.692
-238.851 86.6518 553.857
-236.701 86.856 548.871
-236.701 87.8402 548.871
-236.121 88.6069 547.527
-235.737 89.4427 546.634
-235.545 90.3492 546.189
-235.545 91.3286 546.189
-235.353 92.2329 545.745
-234.02 92.6836 542.654
-232.515 93.0544 539.164
-232.328 93.9457 538.731
-231.214 94.4565 536.147
-230.845 95.2656 535.292
-229.745 95.7668 532.741
-229.745 96.7221 532.741
-229.563 97.5999 532.318
-229.745 98.6327 532.741
-229.199 99.3512 531.474
-229.563 100.463 532.318
-228.836 101.097 530.633
-226.684 101.089 525.643
-225.799 101.633 523.591
-225.447 102.412 522.775
-225.447 103.35 522.775
-225.096 104.125 521.961
-224.224 104.653 519.938
-223.704 105.341 518.732
-222.67 105.78 516.336
-222.499 106.624 515.939
-222.328 107.466 515.542
-221.307 107.893 513.176
-221.138 108.73 512.783
-219.961 109.066 510.054
-219.794 109.897 509.666
-219.794 110.811 509.666
-219.294 111.471 508.507
-218.466 111.958 506.586
-218.466 112.866 506.586
-218.136 113.603 505.822
-217.317 114.08 503.922
-217.317 114.984 503.922
-217.154 115.8 503.544
-215.215 115.661 499.048
-214.1 115.952 496.462
-213.783 116.67 495.728
-213.468 117.385 494.997
-213.31 118.185 494.632
-213.31 119.072 494.632
-212.996 119.783 493.903
-212.371 120.314 492.453
-210.823 120.314 488.863
-210.823 121.19 488.863
-210.363 121.8 487.797
-210.21 122.586 487.442
-210.363 123.55 487.797
-210.363 124.425 487.797
-209.601 124.845 486.029
-209.297 125.535 485.326
-207.347 126.089 480.803
-207.347 126.951 480.803
-207.198 127.722 480.459
-207.198 128.584 480.459
-207.05 129.352 480.115
-206.902 130.12 479.771
-206.018 130.421 477.721
-205.871 131.184 477.381
-205.871 132.04 477.381
-204.561 132.05 474.343
-203.553 132.246 472.006
-202.555 132.44 469.692
-202.555 133.282 469.692
-202.555 134.124 469.692
-202.413 134.872 469.363
-202.413 135.714 469.363
-202.413 136.555 469.363
-202.272 137.301 469.035
-198.933 142.479 461.293
-198.387 142.913 460.028
-197.98 143.443 459.083
-197.305 143.774 457.517
-197.17 144.496 457.205
-197.17 145.316 457.205
-194.649 144.267 451.36
-194.649 145.076 451.36
-193.997 145.397 449.846
-193.866 146.105 449.545
-193.09 146.323 447.744
-192.833 146.93 447.147
-192.064 147.143 445.365
-191.937 147.843 445.07
-191.81 148.543 444.775
-192.064 149.539 445.365
-191.937 150.237 445.07
-191.682 150.835 444.48
-191.176 151.231 443.305
-189.671 151.619 439.817
-189.299 152.108 438.953
-188.313 153.665 436.667
-187.946 154.147 435.816
-187.824 154.828 435.533
-187.946 155.71 435.816
-187.702 156.288 435.25
-186.733 156.258 433.002
-186.012 156.428 431.331
-186.012 157.201 431.331
-185.893 157.873 431.054
-185.535 158.341 430.225
-185.178 158.807 429.398
-184.824 159.271 428.575
-184.47 159.733 427.755
-182.147 158.479 422.368
-182.261 159.337 422.634
-182.147 159.994 422.368
-182.147 160.751 422.368
-182.147 161.508 422.368
-182.147 162.266 422.368
-181.12 162.104 419.988
-181.12 162.857 419.988
-180.668 163.202 418.938
-180.442 163.748 418.416
-180.217 164.294 417.894
-336.502 -57.2546 783.552
-335.718 -55.7194 781.725
-335.327 -54.2544 780.815
-335.327 -51.4542 780.815
-334.548 -49.9378 779.002
-334.548 -48.5409 779.002
-333.387 -46.9804 776.297
-331.468 -45.3261 771.83
-331.468 -43.9421 771.83
-328.82 -42.218 765.663
-328.445 -40.7985 764.79
-328.071 -39.3822 763.918
-326.954 -37.8829 761.317
-326.583 -36.4764 760.454
-326.213 -35.073 759.593
-325.844 -33.6728 758.734
-323.284 -32.0584 752.773
-320.764 -30.4692 746.905
-320.051 -29.0652 745.245
-320.051 -27.7289 745.245
-320.051 -26.3925 745.245
-319.342 -25.0006 743.593
-317.231 -23.5109 738.679
-315.84 -22.089 735.439
-315.149 -20.7248 733.83
-314.461 -19.3666 732.228
-309.727 -16.4886 721.205
-308.731 -15.1465 718.886
-308.071 -13.8278 717.348
-308.401 -12.5549 718.116
-307.742 -11.2432 716.582
-306.432 -9.91586 713.532
-305.134 -8.5998 710.509
-304.167 -7.30255 708.258
-304.167 -6.03254 708.258
-304.167 -4.76253 708.258
-303.526 -3.48516 706.765
-301.935 -2.20621 703.061
-301.303 -0.943539 701.59
-299.424 0.312551 697.215
-298.184 1.55629 694.328
-296.649 2.78689 690.752
-296.039 4.01723 689.332
-294.225 5.22111 685.108
-293.925 6.44302 684.409
-293.028 7.64686 682.32
-292.433 8.85234 680.934
-291.545 10.0428 678.867
-291.25 11.2487 678.18
-290.369 12.4271 676.129
-289.203 13.5847 673.414
-289.203 14.7922 673.414
-288.913 15.9837 672.739
-287.471 17.1042 669.382
-286.613 18.2499 667.384
-285.76 19.3887 665.397
-285.76 20.5819 665.397
-285.194 21.7319 664.08
-284.912 22.9 663.423
-284.912 24.0896 663.423
-284.912 25.2793 663.423
-281.57 26.1584 655.641
-280.2 27.2011 652.452
-280.2 28.371 652.452
-279.928 29.5123 651.818
-278.575 30.5327 648.666
-278.037 31.6347 647.414
-276.171 32.5755 643.068
-275.642 33.664 641.838
-274.33 34.6491 638.781
-273.808 35.7265 637.567
-273.808 36.8698 637.567
-273.289 37.9409 636.357
-269.454 38.5336 627.428
-269.454 39.6586 627.428
-268.199 40.5938 624.507
-267.95 41.6749 623.926
-267.95 42.7937 623.926
-267.95 43.9124 623.926
-267.95 45.0312 623.926
-267.701 46.1071 623.346
-267.452 47.181 622.767
-266.216 48.0746 619.889
-265.971 49.1407 619.317
-262.337 51.7554 610.857
-261.622 52.7068 609.192
-259.034 53.267 603.166
-258.569 54.2509 602.083
-257.414 55.0833 599.393
-257.644 56.2084 599.929
-257.644 57.2841 599.929
-257.644 58.3599 599.929
-257.644 59.4356 599.929
-256.726 60.2957 597.79
-255.814 61.1496 595.666
-252.672 62.5086 588.351
-252.451 63.5079 587.836
-252.229 64.5055 587.321
-252.229 65.5586 587.321
-252.009 66.5535 586.807
-250.911 67.3113 584.251
-250.475 68.24 583.235
-250.257 69.2256 582.728
-249.391 70.0272 580.71
-249.175 71.007 580.208
-248.316 71.799 578.207
-245.773 72.09 572.287
-245.354 72.9917 571.312
-245.354 74.0161 571.312
-244.729 74.8493 569.856
-244.521 75.8067 569.372
-244.521 76.8277 569.372
-244.314 77.7826 568.889
-241.245 80.8346 561.742
-240.841 81.705 560.803
-240.64 82.6415 560.335
-239.241 83.16 557.077
-238.252 83.8108 554.773
-238.055 84.7355 554.314
-238.252 85.8004 554.773
-236.88 86.2955 551.579
-235.717 86.856 548.871
-235.91 87.9122 549.321
-235.524 88.7518 548.422
-234.756 89.4427 546.634
-234.565 90.3492 546.189
-234.374 91.2543 545.745
-233.804 92.0083 544.416
-233.047 92.6836 542.654
-231.735 93.1292 539.598
-231.548 94.0212 539.164
-230.806 94.6835 537.436
-230.069 95.3416 535.719
-228.971 95.8429 533.164
-228.79 96.7221 532.741
-228.608 97.5999 532.318
-228.608 98.5544 532.318
-225.565 99.126 525.231
-225.388 99.9895 524.82
-225.212 100.852 524.41
-224.86 101.633 523.591
-224.685 102.492 523.183
-224.51 103.35 522.775
-224.335 104.206 522.368
-223.465 104.735 520.342
-222.773 105.341 518.732
-222.601 106.189 518.331
-222.086 106.87 517.132
-221.404 107.466 515.542
-221.064 108.224 514.751
-220.556 108.897 513.568
-220.05 109.566 512.391
-219.046 109.981 510.054
-218.714 110.727 509.279
-218.052 111.302 507.737
-217.557 111.958 506.586
-217.393 112.781 506.204
-216.902 113.432 505.061
-216.089 113.909 503.166
-216.089 114.811 503.166
-215.765 115.54 502.412
-214.639 115.834 499.792
-213.526 116.124 497.198
-213.367 116.929 496.83
-212.894 117.559 495.728
-212.423 118.185 494.632
-212.267 118.985 494.267
-211.954 119.695 493.54
-211.332 120.226 492.091
-211.023 120.931 491.37
-210.714 121.633 490.651
-210.099 122.156 489.22
-210.099 123.033 489.22
-210.099 123.91 489.22
-210.099 124.788 489.22
-209.336 125.208 487.442
-208.578 125.626 485.677
-208.427 126.405 485.326
-207.227 126.543 482.533
-206.485 126.951 480.803
-206.337 127.722 480.459
-206.189 128.492 480.115
-206.189 129.352 480.115
-206.189 130.213 480.115
-205.6 130.7 478.744
-205.015 131.184 477.381
-204.724 131.852 476.703
-203.422 131.864 473.673
-202.707 132.246 472.006
-201.854 132.533 470.021
-201.854 133.376 470.021
-201.713 134.124 469.692
-201.713 134.967 469.692
-201.572 135.714 469.363
-201.713 136.651 469.692
-201.431 137.301 469.035
-198.242 142.577 461.611
-197.698 143.011 460.343
-197.157 143.443 459.083
-196.35 143.676 457.205
-196.35 144.496 457.205
-193.84 144.267 451.36
-193.84 145.076 451.36
-193.449 145.592 450.45
-193.19 146.203 449.846
-191.903 146.03 446.849
-191.647 146.636 446.254
-191.393 147.241 445.661
-191.139 147.843 445.07
-191.012 148.543 444.775
-191.266 149.539 445.365
-191.393 150.437 445.661
-191.012 150.935 444.775
-190.759 151.532 444.186
-188.883 151.619 439.817
-188.142 151.81 438.093
-187.897 152.397 437.521
-187.897 153.181 437.521
-187.652 153.765 436.951
-187.408 154.348 436.383
-187.286 155.029 436.099
-187.286 155.811 436.099
-187.164 156.491 435.816
-186.558 156.764 434.404
-185.597 156.73 432.165
-185.716 157.607 432.444
-185.239 157.975 431.331
-185.001 158.544 430.777
-184.763 159.113 430.225
-183.703 158.966 427.755
-182.192 158.42 424.238
-181.733 158.779 423.167
-181.733 159.538 423.167
-181.618 160.195 422.901
-181.504 160.852 422.634
-181.389 161.508 422.368
-181.389 162.266 422.368
-180.367 162.104 419.988
-180.254 162.756 419.725
-179.804 163.1 418.677
-179.692 163.748 418.416
-179.58 164.396 418.155
-335.097 -55.8496 783.552
-333.927 -54.2544 780.815
-333.151 -52.7315 779.002
-333.539 -51.3943 779.907
-333.151 -49.9378 779.002
-333.151 -48.5409 779.002
-331.228 -46.8719 774.504
-330.084 -45.3261 771.83
-330.084 -43.9421 771.83
-328.196 -42.3146 767.415
-327.447 -40.845 765.663
-325.958 -39.2927 762.182
-324.483 -37.7544 758.734
-324.483 -36.3938 758.734
-324.117 -34.9937 757.876
-324.117 -33.6348 757.876
-321.934 -32.0584 752.773
-319.425 -30.4692 746.905
-318.715 -29.0652 745.245
-318.361 -27.6981 744.418
-318.008 -26.334 743.593
-316.604 -24.8903 740.31
-315.907 -23.5109 738.679
-313.833 -22.0407 733.83
-313.148 -20.6796 732.228
-313.148 -19.3666 732.228
-313.148 -18.0536 732.228
-309.099 -16.5241 722.759
-307.442 -15.1465 718.886
-307.442 -13.8574 718.886
-307.113 -12.5549 718.116
-307.113 -11.2672 718.116
-305.478 -9.92642 714.292
-304.828 -8.62721 712.774
-303.86 -7.32575 710.509
-303.86 -6.05171 710.509
-302.577 -4.75751 707.511
-301.623 -3.47783 705.279
-300.36 -2.2039 702.325
-299.732 -0.942553 700.857
-297.555 0.311903 695.768
-296.632 1.55468 693.609
-295.41 2.78689 690.752
-294.5 4.01311 688.625
-292.697 5.21578 684.409
-292.697 6.44302 684.409
-292.101 7.65464 683.015
-290.916 8.84336 680.244
-290.034 10.0326 678.18
-289.741 11.2373 677.495
-289.741 12.4522 677.495
-289.741 13.667 677.495
-289.448 14.8668 676.812
-288.575 16.0319 674.769
-287.995 17.2073 673.414
-285.701 18.2681 668.048
-283.442 19.3121 662.767
-283.442 20.5005 662.767
-283.722 21.7104 663.423
-282.326 22.7873 660.158
-281.219 23.8771 657.569
-282.326 25.1548 660.158
-280.944 26.2096 656.925
-279.574 27.2541 653.724
-279.031 28.371 652.452
-279.031 29.541 652.452
-277.68 30.5623 649.294
-276.876 31.6347 647.414
-275.282 32.6067 643.686
-274.491 33.664 641.838
-274.229 34.7816 641.224
-274.754 36.0003 642.452
-274.229 37.0813 641.224
-275.018 38.341 643.068
-268.329 38.5336 627.428
-268.078 39.6216 626.842
-267.578 40.6696 625.672
-267.328 41.7526 625.089
-267.578 42.9134 625.672
-268.078 44.1176 626.842
-268.078 45.2417 626.842
-266.831 46.15 623.926
-266.336 47.181 622.767
-265.105 48.0746 619.889
-264.616 49.0954 618.746
-262.918 49.8827 614.776
-262.437 50.8918 613.651
-261.242 51.7554 610.857
-260.53 52.7068 609.192
-258.65 53.4111 604.797
-257.953 54.3485 603.166
-256.798 55.182 600.466
-257.028 56.3091 601.004
-257.028 57.3868 601.004
-257.028 58.4645 601.004
-256.568 59.4356 599.929
-255.882 60.3495 598.323
-251.617 61.4536 588.351
-251.617 62.5086 588.351
-251.617 63.5636 588.351
-251.396 64.562 587.836
-251.396 65.6161 587.836
-251.396 66.6701 587.836
-249.864 67.3113 584.251
-249.429 68.24 583.235
-248.78 69.1056 581.718
-248.349 70.0272 580.71
-247.92 70.9456 579.706
-244.747 72.09 572.287
-244.538 73.0539 571.799
-244.538 74.0792 571.799
-244.538 75.1045 571.799
-244.538 76.1298 571.799
-243.914 76.9583 570.34
-243.294 77.7826 568.889
-243.088 78.7359 568.407
-241.248 80.163 564.105
-240.036 80.7669 561.272
-239.635 81.6367 560.335
-239.236 82.5037 559.4
-238.242 83.16 557.077
-237.257 83.8108 554.773
-237.061 84.7355 554.314
-236.865 85.6587 553.857
-235.118 86.0126 549.771
-234.925 86.9272 549.321
-234.925 87.9122 549.321
-234.733 88.8244 548.871
-233.967 89.5156 547.08
-233.586 90.3492 546.189
-233.396 91.2543 545.745
-232.639 91.9337 543.974
-232.262 92.7587 543.093
-231.325 93.3546 540.904
-230.396 93.9457 538.731
-229.108 94.381 535.719
-228.925 95.2656 535.292
-228.015 95.8429 533.164
-227.834 96.7221 532.741
-227.113 97.368 531.053
-224.623 98.1842 525.231
-224.447 99.0485 524.82
-224.272 99.9114 524.41
-223.921 100.694 523.591
-223.921 101.633 523.591
-223.747 102.492 523.183
-223.921 103.511 523.591
-223.572 104.287 522.775
-222.532 104.735 520.342
-222.015 105.422 519.133
-221.843 106.271 518.732
-221.843 107.201 518.732
-220.819 107.632 516.336
-220.649 108.474 515.939
-220.479 109.315 515.542
-219.803 109.902 513.962
-218.631 110.232 511.22
-217.966 110.811 509.666
-216.977 111.218 507.353
-216.649 111.958 506.586
-216.486 112.781 506.204
-215.672 113.262 504.301
-215.186 113.909 503.166
-214.864 114.639 502.412
-214.222 115.195 500.911
-213.108 115.489 498.306
-212.477 116.038 496.83
-211.849 116.584 495.362
-211.693 117.385 494.997
-211.381 118.098 494.267
-211.069 118.81 493.54
-210.914 119.607 493.177
-210.605 120.314 492.453
-210.45 121.108 492.091
-210.296 121.901 491.731
-209.222 122.156 489.22
-209.222 123.033 489.22
-209.375 124.001 489.577
-209.528 124.97 489.935
-209.07 125.573 488.863
-208.462 126.082 487.442
-206.511 126.634 482.88
-205.77 127.042 481.148
-205.475 127.722 480.459
-205.328 128.492 480.115
-205.181 129.26 479.771
-204.742 129.842 478.744
-204.304 130.421 477.721
-203.724 130.904 476.364
-203.291 131.478 475.351
-202.43 131.771 473.338
-202.002 132.339 472.338
-201.294 132.719 470.681
-201.011 133.376 470.021
-200.871 134.124 469.692
-200.73 134.872 469.363
-200.73 135.714 469.363
-200.871 136.651 469.692
-197.279 142.479 461.293
-196.468 142.717 459.398
-195.664 142.954 457.517
-195.531 143.676 457.205
-193.161 143.554 451.664
-192.771 144.073 450.753
-192.642 144.784 450.45
-192.771 145.69 450.753
-192.254 146.105 449.545
-191.997 146.715 448.943
-191.357 147.028 447.445
-191.229 147.731 447.147
-190.467 147.941 445.365
-190.214 148.543 444.775
-190.341 149.439 445.07
-190.214 150.138 444.775
-187.479 151.123 438.379
-187.357 151.81 438.093
-187.357 152.596 438.093
-187.112 153.966 437.521
-187.112 154.75 437.521
-186.869 155.332 436.951
-186.504 155.811 436.099
-186.262 156.39 435.533
-185.779 156.764 434.404
-184.822 156.73 432.165
-185.06 157.709 432.723
-184.465 157.975 431.331
-184.11 158.443 430.501
-183.756 158.909 429.674
-183.404 159.373 428.849
-181.202 158.979 423.702
-181.202 159.739 423.702
-181.088 160.398 423.435
-180.86 160.954 422.901
-180.632 162.266 422.368
-179.726 162.206 420.251
-179.501 162.756 419.725
-179.053 163.1 418.677
-178.942 163.748 418.416
-178.83 164.396 418.155
-178.719 165.043 417.894
-332.527 -58.4547 780.815
-333.692 -57.2546 783.552
-334.474 -55.9804 785.387
-333.692 -54.4446 783.552
-332.915 -52.9159 781.725
-332.527 -51.4542 780.815
-331.755 -49.9378 779.002
-331.755 -48.5409 779.002
-329.459 -46.8178 773.611
-328.7 -45.3261 771.83
-328.323 -43.8916 770.943
-326.074 -42.218 765.663
-325.331 -40.752 763.918
-324.592 -39.2927 762.182
-323.489 -37.7971 759.593
-323.123 -36.3938 758.734
-322.758 -34.9937 757.876
-322.394 -33.5968 757.021
-320.584 -32.0584 752.773
-317.732 -30.4353 746.074
-317.379 -29.0652 745.245
-317.026 -27.6981 744.418
-317.026 -26.3632 744.418
-315.974 -24.9453 741.947
-314.582 -23.5109 738.679
-313.202 -22.089 735.439
-312.517 -20.7248 733.83
-312.176 -19.3877 733.028
-311.835 -18.0536 732.228
-307.802 -16.5241 722.759
-306.481 -15.1628 719.657
-307.141 -13.9021 721.205
-306.481 -12.5819 719.657
-307.141 -11.3157 721.205
-303.55 -9.90532 712.774
-302.585 -8.5998 710.509
-301.946 -7.31027 709.007
-301.627 -6.03254 708.258
-300.991 -4.75249 706.765
-300.043 -3.47418 704.538
-299.1 -2.2039 702.325
-298.787 -0.943539 701.59
-297.233 0.312877 697.94
-296.001 1.5579 695.047
-294.779 2.79264 692.178
-293.567 4.01723 689.332
-291.768 5.22111 685.108
-291.768 6.4496 685.108
-291.173 7.66245 683.711
-290.581 8.87035 682.32
-289.696 10.0631 680.244
-289.11 11.2601 678.867
-289.403 12.49 679.555
-289.403 13.7086 679.555
-289.11 14.912 678.867
-288.818 16.113 678.18
-287.944 17.2767 676.129
-283.374 18.1956 665.397
-280.59 19.1983 658.861
-281.142 20.4198 660.158
-281.975 21.6676 662.113
-281.142 22.7873 660.158
-281.142 23.9711 660.158
-280.04 26.2353 657.569
-278.131 27.2276 653.087
-277.591 28.3435 651.818
-277.321 29.4836 651.185
-275.715 30.4738 647.414
-273.34 32.5131 641.838
-272.298 33.5357 639.39
-272.039 34.6491 638.781
-272.558 35.8629 640
-271.78 36.9049 638.174
-272.558 38.1581 640
-267.454 38.5697 628.015
-266.954 39.6216 626.842
-266.208 40.6317 625.089
-266.456 41.7915 625.672
-266.705 42.9535 626.256
-266.456 44.0353 625.672
-267.454 45.3264 628.015
-266.456 46.2792 625.672
-265.219 47.181 622.767
-264.482 48.1636 621.037
-263.263 49.0501 618.175
-260.621 49.6552 611.971
-259.438 50.522 609.192
-259.202 51.5676 608.639
-258.265 52.4685 606.438
-257.798 53.4593 605.343
-257.566 54.4955 604.797
-255.95 55.2314 601.004
-256.18 56.3596 601.543
-256.18 57.4383 601.543
-255.95 58.4645 601.004
-255.721 59.4888 600.466
-254.355 60.242 597.258
-250.342 61.3998 587.836
-250.342 62.4538 587.836
-250.342 63.5079 587.836
-250.342 64.562 587.836
-250.123 65.5586 587.321
-250.123 66.6118 587.321
-248.816 67.3113 584.251
-247.952 68.1215 582.223
-247.094 68.9262 580.208
-246.88 69.9062 579.706
-246.454 70.8232 578.706
-245.607 71.6138 576.716
-244.555 74.3963 574.247
-244.137 75.2971 573.265
-244.555 76.4557 574.247
-243.513 77.1552 571.799
-242.274 77.7826 568.889
-242.068 78.7359 568.407
-240.844 79.3517 565.532
-240.236 80.163 564.105
-239.03 80.7669 561.272
-238.83 81.705 560.803
-238.63 82.6415 560.335
-237.44 83.2291 557.54
-236.653 83.9497 555.692
-236.067 84.7355 554.314
-235.872 85.6587 553.857
-235.677 86.5803 553.4
-234.132 86.9984 549.771
-233.94 87.9122 549.321
-233.557 88.7518 548.422
-232.796 89.4427 546.634
-232.417 90.2757 545.745
-232.04 91.1061 544.858
-231.101 91.7106 542.654
-231.101 92.6836 542.654
-229.984 93.2042 540.033
-229.43 93.9457 538.731
-228.33 94.4565 536.147
-228.148 95.3416 535.719
-227.784 96.1487 534.865
-227.24 96.876 533.588
-226.699 97.5999 532.318
-226.161 98.3203 531.053
-223.681 98.1842 525.231
-223.681 99.126 525.231
-223.506 99.9895 524.82
-223.506 100.931 524.82
-223.506 101.872 524.82
-222.983 102.572 523.591
-222.983 103.511 523.591
-222.635 104.287 522.775
-221.427 104.653 519.938
-221.084 105.422 519.133
-220.913 106.271 518.732
-220.913 107.201 518.732
-220.232 107.798 517.132
-220.062 108.641 516.734
-219.893 109.483 516.336
-219.555 110.24 515.542
-217.714 110.232 511.22
-217.052 110.811 509.666
-216.559 111.471 508.507
-215.741 111.958 506.586
-215.578 112.781 506.204
-214.929 113.347 504.681
-214.445 113.994 503.544
-213.803 114.553 502.036
-213.165 115.109 500.538
-212.214 115.489 498.306
-212.057 116.296 497.936
-211.586 116.929 496.83
-211.586 117.82 496.83
-210.494 118.098 494.267
-210.184 118.81 493.54
-209.722 119.431 492.453
-209.722 120.314 492.453
-209.568 121.108 492.091
-209.261 121.812 491.37
-208.497 122.245 489.577
-208.345 123.033 489.22
-208.649 124.091 489.935
-208.193 124.697 488.863
-207.89 125.39 488.152
-206.836 125.626 485.677
-206.537 126.314 484.975
-205.793 126.725 483.228
-205.793 127.592 483.228
-205.645 128.366 482.88
-204.614 128.584 480.459
-204.321 129.26 479.771
-203.593 129.656 478.062
-203.448 130.421 477.721
-203.014 130.997 476.703
-202.438 131.478 475.351
-201.581 131.771 473.338
-201.155 132.339 472.338
-200.731 132.905 471.343
-200.45 133.563 470.681
-200.169 134.218 470.021
-200.029 134.967 469.692
-200.029 135.809 469.692
-195.377 141.699 458.769
-195.377 142.522 458.769
-194.844 142.954 457.517
-194.049 143.188 455.652
-194.049 144.005 455.652
-193.131 144.137 453.496
-192.74 144.656 452.578
-192.61 145.37 452.273
-192.48 146.082 451.968
-192.221 146.695 451.36
-191.834 147.207 450.45
-191.192 147.52 448.943
-190.3 147.633 446.849
-189.921 148.138 445.958
-189.417 148.543 444.775
-189.417 149.34 444.775
-189.291 150.038 444.48
-187.428 150.929 440.105
-186.571 151.025 438.093
-186.571 151.81 438.093
-187.183 153.096 439.528
-186.085 153.765 436.951
-186.085 154.549 436.951
-185.964 155.231 436.667
-185.601 155.71 435.816
-185.361 156.288 435.25
-184.761 156.561 433.842
-184.403 157.034 433.002
-184.403 157.81 433.002
-183.456 158.544 430.777
-183.338 159.215 430.501
-182.986 159.679 429.674
-179.988 157.821 422.634
-180.443 158.979 423.702
-180.671 159.941 424.238
-180.785 160.804 424.507
-179.988 160.852 422.634
-179.761 161.407 422.102
-179.874 162.266 422.368
-178.973 162.206 420.251
-178.973 162.959 420.251
-178.861 163.611 419.988
-178.637 164.158 419.462
-178.303 164.601 418.677
-178.191 165.249 418.416
-333.847 -58.935 787.231
-335.422 -57.7947 790.944
-333.456 -56.046 786.308
-334.633 -54.8289 789.083
-333.066 -53.1637 785.387
-332.287 -51.6345 783.552
-330.358 -49.9378 779.002
-330.358 -48.5409 779.002
-329.211 -46.9804 776.297
-328.072 -45.4306 773.611
-327.694 -43.9927 772.719
-325.444 -42.3146 767.415
-324.701 -40.845 765.663
-323.225 -39.2927 762.182
-321.762 -36.3938 758.734
-321.036 -34.9543 757.021
-320.313 -33.5211 755.316
-319.593 -32.0945 753.618
-316.042 -30.4015 745.245
-315.691 -29.0329 744.418
-315.341 -27.6674 743.593
-314.644 -26.2758 741.947
-314.644 -24.9453 741.947
-312.913 -23.485 737.866
-311.201 -22.0407 733.83
-310.522 -20.6796 732.228
-310.522 -19.3666 732.228
-309.172 -17.9751 729.044
-305.191 -16.4532 719.657
-304.864 -15.1465 718.886
-304.864 -13.8574 718.886
-303.887 -12.5281 716.582
-304.537 -11.2672 718.116
-302.272 -9.90532 712.774
-300.674 -8.58162 709.007
-300.04 -7.29484 707.511
-299.724 -6.01982 706.765
-299.408 -4.74749 706.021
-299.094 -3.47783 705.279
-298.779 -2.21084 704.538
-297.841 -0.944527 702.325
-296.908 0.313856 700.126
-295.06 1.55951 695.768
-294.449 2.80131 694.328
-292.331 4.01723 689.332
-290.836 5.22645 685.808
-290.243 6.44302 684.409
-289.947 7.66245 683.711
-289.652 8.87939 683.015
-289.063 10.0836 681.626
-288.477 11.2829 680.244
-289.652 12.5536 683.015
-288.477 13.7225 680.244
-287.893 14.912 678.867
-286.732 16.0643 676.129
-286.732 17.2767 676.129
-281.622 18.1595 664.08
-279.959 19.2361 660.158
-279.683 20.3997 659.509
-279.409 21.5611 658.861
-279.134 22.7202 658.214
-279.409 23.924 658.861
-279.409 25.1054 658.861
-278.861 26.2353 657.569
-278.043 27.334 655.641
-277.5 28.4541 654.361
-276.96 29.5697 653.087
-275.618 30.5919 649.923
-272.711 32.5755 643.068
-272.189 33.664 641.838
-271.929 34.7816 641.224
-271.41 35.8629 640
-270.378 36.8698 637.567
-269.354 37.869 635.152
-266.577 39.733 628.604
-266.328 40.8219 628.015
-266.328 41.948 628.015
-266.079 43.0338 627.428
-264.84 43.9533 624.507
-265.334 45.1573 625.672
-264.84 46.193 624.507
-264.102 47.181 622.767
-262.882 48.0746 619.889
-260.952 48.8251 615.34
-260.236 49.7915 613.651
-258.58 50.568 609.746
-258.345 51.6144 609.192
-257.177 52.4685 606.438
-256.25 53.3629 604.253
-256.482 54.4955 604.797
-255.56 55.3803 602.624
-256.02 56.5625 603.709
-255.79 57.5932 603.166
-255.33 58.5694 602.083
-254.873 59.5422 601.004
-253.059 60.1884 596.726
-249.288 61.3998 587.836
-249.07 62.3992 587.321
-248.852 63.3968 586.807
-248.635 64.3927 586.294
-248.201 65.3298 585.271
-247.984 66.3214 584.761
-247.553 67.2527 583.743
-246.908 68.1215 582.223
-246.267 68.9859 580.71
-246.054 69.9666 580.208
-245.629 70.8844 579.206
-244.363 71.5522 576.22
-243.109 74.2691 573.265
-242.902 75.2328 572.776
-242.695 77.221 572.287
-239.225 77.1284 564.105
-241.254 78.8027 568.889
-239.225 79.1515 564.105
-239.225 80.163 564.105
-239.024 81.1063 563.631
-238.823 82.048 563.157
-239.024 83.1276 563.631
-238.223 83.8564 561.742
-236.048 84.089 556.615
-235.267 84.8056 554.773
-234.685 85.588 553.4
-232.955 85.9422 549.321
-232.764 86.856 548.871
-232.764 87.8402 548.871
-232.005 88.5346 547.08
-231.816 89.4427 546.634
-231.439 90.2757 545.745
-231.439 91.2543 545.745
-231.063 92.0831 544.858
-230.688 92.9091 543.974
-230.128 93.6567 542.654
-228.281 93.8703 538.299
-227.187 94.381 535.719
-227.187 95.3416 535.719
-227.187 96.3023 535.719
-227.006 97.1853 535.292
-225.744 97.5999 532.318
-225.208 98.3203 531.053
-222.565 99.9895 524.82
-222.565 100.931 524.82
-222.565 101.872 524.82
-222.044 102.572 523.591
-221.698 103.35 522.775
-221.525 104.206 522.368
-220.837 104.816 520.746
-220.153 105.422 519.133
-219.983 106.271 518.732
-219.813 107.118 518.331
-218.967 107.632 516.336
-218.798 108.474 515.939
-218.63 109.315 515.542
-218.295 110.07 514.751
-217.294 110.485 512.391
-216.303 110.895 510.054
-215.974 111.64 509.279
-215.157 112.127 507.353
-214.832 112.866 506.586
-214.024 113.347 504.681
-213.542 113.994 503.544
-212.584 114.382 501.286
-212.267 115.109 500.538
-211.793 115.747 499.42
-211.164 116.296 497.936
-210.383 116.756 496.095
-210.072 117.472 495.362
-209.146 117.838 493.177
-208.992 118.635 492.814
-208.685 119.343 492.091
-208.838 120.314 492.453
-208.685 121.108 492.091
-208.532 121.901 491.731
-208.075 122.513 490.651
-207.923 123.303 490.293
-208.379 124.455 491.37
-208.075 125.153 490.651
-207.771 125.848 489.935
-205.816 126.405 485.326
-205.519 127.091 484.625
-205.222 127.776 483.925
-204.927 128.458 483.228
-203.752 128.584 480.459
-203.606 129.352 480.115
-202.88 129.749 478.403
-202.736 130.514 478.062
-202.447 131.184 477.381
-201.729 131.572 475.688
-200.874 131.864 473.673
-200.591 132.526 473.005
-200.308 133.186 472.338
-200.167 133.939 472.006
-199.746 134.501 471.012
-199.186 134.967 469.692
-198.908 135.619 469.035
-194.821 139.422 459.398
-194.821 140.246 459.398
-194.687 140.973 459.083
-194.288 141.506 458.142
-194.687 142.62 459.083
-194.156 143.051 457.83
-193.759 143.578 456.894
-192.709 143.615 454.418
-192.578 144.332 454.11
-192.448 145.048 453.803
-192.448 145.862 453.803
-191.799 146.181 452.273
-191.026 146.4 450.45
-190.642 146.911 449.545
-190.387 147.52 448.943
-190.132 148.126 448.343
-189.752 148.632 447.445
-189.373 149.136 446.552
-188.995 149.638 445.661
-188.619 150.138 444.775
-186.762 151.028 440.394
-186.272 151.42 439.241
-185.907 151.909 438.379
-185.907 152.695 438.379
-185.181 153.665 436.667
-184.94 154.247 436.099
-184.82 154.928 435.816
-184.7 155.609 435.533
-184.102 155.884 434.123
-183.39 156.831 432.444
-183.627 157.81 433.002
-183.745 158.689 433.282
-182.449 159.113 430.225
-182.215 159.679 429.674
-179.343 157.92 422.901
-179.91 159.941 424.238
-179.91 160.702 424.238
-179.683 162.018 423.702
-178.892 162.062 421.837
-178.555 162.511 421.042
-178.443 163.164 420.778
-178.331 163.816 420.514
-178.108 164.364 419.988
-177.441 164.499 418.416
-177.33 165.146 418.155
-335.587 -59.4936 794.692
-335.587 -58.0686 794.692
-332.436 -56.1118 787.231
-332.046 -54.636 786.308
-332.046 -53.2261 786.308
-331.269 -51.6949 784.468
-329.727 -50.0541 780.815
-328.961 -48.5409 779.002
-328.579 -47.0894 778.098
-327.062 -45.4831 774.504
-326.684 -44.0434 773.611
-326.308 -42.6071 772.719
-322.959 -40.7985 764.79
-321.128 -39.2036 760.454
-320.04 -36.3527 757.876
-320.04 -34.9937 757.876
-319.679 -33.5968 757.021
-317.885 -32.0584 752.773
-316.111 -30.5372 748.572
-314.357 -29.0329 744.418
-314.357 -27.6981 744.418
-313.66 -26.3048 742.769
-313.313 -24.9453 741.947
-311.933 -23.5109 738.679
-309.885 -22.0407 733.83
-309.209 -20.6796 732.228
-308.872 -19.3455 731.429
-306.532 -17.8973 725.888
-304.554 -16.4886 721.205
-303.901 -15.1628 719.657
-303.901 -13.8723 719.657
-303.25 -12.5549 718.116
-301.957 -11.2192 715.054
-301.957 -9.937 715.054
-299.087 -8.57255 708.258
-298.142 -7.27949 706.021
-297.829 -6.00716 705.279
-297.829 -4.7425 705.279
-297.829 -3.47783 705.279
-297.829 -2.21317 705.279
-296.892 -0.945517 703.061
-295.962 0.314184 700.857
-293.813 1.55951 695.768
-292.901 2.79842 693.609
-291.394 4.02137 690.042
-289.016 5.21578 684.409
-289.016 6.44302 684.409
-288.721 7.66245 683.711
-288.427 8.87939 683.015
-287.548 10.0734 680.934
-287.257 11.2829 680.244
-289.016 12.5792 684.409
-288.721 13.7924 683.711
-287.257 14.9422 680.244
-286.675 16.1293 678.867
-283.235 17.1384 670.72
-281.546 18.2317 666.72
-279.877 19.3121 662.767
-279.325 20.4601 661.46
-278.227 21.5611 658.861
-278.227 22.7426 658.861
-278.227 23.924 658.861
-278.227 25.1054 658.861
-279.325 26.3906 661.46
-277.682 27.4144 657.569
-277.41 28.5655 656.925
-275.789 29.5697 653.087
-275.253 30.6811 651.818
-271.298 33.6963 642.452
-271.039 34.8149 641.838
-271.039 35.9658 641.838
-270.005 36.9752 639.39
-270.005 38.1217 639.39
-269.235 39.1563 637.567
-265.202 40.8219 628.015
-264.953 41.9088 627.428
-264.459 42.9535 626.256
-264.212 44.0353 625.672
-264.706 45.2417 626.842
-265.202 46.4525 628.015
-262.741 47.1373 622.19
-261.046 47.9416 618.175
-259.611 48.7804 614.776
-259.136 49.7915 613.651
-257.956 50.6601 610.857
-257.253 51.6144 609.192
-256.09 52.4685 606.438
-255.628 53.4593 605.343
-255.628 54.5447 605.343
-254.937 55.48 603.709
-255.167 56.6135 604.253
-254.937 57.6451 603.709
-254.251 58.5694 602.083
-253.341 59.4356 599.929
-251.765 60.1349 596.196
-249.108 61.6158 589.904
-248.452 62.5086 588.351
-248.234 63.5079 587.836
-248.017 64.5055 587.321
-247.151 65.3298 585.271
-246.936 66.3214 584.761
-246.506 67.2527 583.743
-245.438 68.0035 581.214
-245.013 68.9262 580.208
-245.013 69.9666 580.208
-245.013 71.007 580.208
-243.748 71.6754 577.212
-241.668 74.1424 572.287
-241.462 75.1045 571.799
-238.414 77.1933 564.579
-239.219 78.4699 566.487
-238.213 79.1515 564.105
-238.213 80.163 564.105
-238.213 81.1745 564.105
-238.414 82.2552 564.579
-238.213 83.1975 564.105
-238.414 84.28 564.579
-235.245 84.1589 557.077
-234.661 84.9461 555.692
-233.885 85.6587 553.857
-231.97 85.9422 549.321
-231.97 86.9272 549.321
-231.97 87.9122 549.321
-231.024 88.5346 547.08
-230.648 89.3698 546.189
-230.46 90.2757 545.745
-230.648 91.3286 546.189
-229.899 92.0083 544.416
-229.155 92.6836 542.654
-226.407 93.4951 536.147
-226.226 94.381 535.719
-226.226 95.3416 535.719
-226.046 96.2254 535.292
-225.865 97.1078 534.865
-224.79 97.5999 532.318
-223.196 97.8554 528.542
-222.145 98.3382 526.055
-221.797 99.126 525.231
-221.624 99.9895 524.82
-221.797 101.01 525.231
-221.797 101.951 525.231
-220.932 102.492 523.183
-220.588 103.269 522.368
-220.588 104.206 522.368
-220.245 104.979 521.556
-219.392 105.504 519.536
-219.053 106.271 518.732
-219.053 107.201 518.732
-218.209 107.715 516.734
-217.706 108.391 515.542
-217.205 109.064 514.356
-216.541 109.65 512.783
-216.21 110.4 512
-215.388 110.895 510.054
-215.061 111.64 509.279
-214.086 112.043 506.969
-213.601 112.696 505.822
-212.639 113.091 503.544
-212.002 113.653 502.036
-211.37 114.211 500.538
-211.212 115.023 500.164
-210.897 115.747 499.42
-210.115 116.21 497.567
-209.494 116.756 496.095
-209.03 117.385 494.997
-208.568 118.011 493.903
-208.261 118.722 493.177
-207.955 119.431 492.453
-207.955 120.314 492.453
-207.803 121.108 492.091
-207.651 121.901 491.731
-207.346 122.603 491.011
-207.195 123.393 490.651
-207.651 124.546 491.731
-207.651 125.428 491.731
-207.651 126.31 491.731
-207.803 127.285 492.091
-204.798 126.314 484.975
-205.243 127.46 486.029
-205.243 128.331 486.029
-203.182 127.905 481.148
-202.6 128.4 479.771
-201.878 128.799 478.062
-201.735 129.564 477.721
-201.735 130.421 477.721
-201.448 131.091 477.042
-200.734 131.478 475.351
-200.166 131.957 474.007
-200.025 132.713 473.673
-199.602 133.28 472.671
-199.461 134.033 472.338
-199.321 134.785 472.006
-199.041 135.441 471.343
-198.483 135.904 470.021
-193.864 139.327 459.083
-193.864 140.973 459.083
-193.467 141.506 458.142
-193.731 142.522 458.769
-193.335 143.051 457.83
-192.94 143.578 456.894
-191.764 143.518 454.11
-191.764 144.332 454.11
-191.764 145.146 454.11
-190.988 145.37 452.273
-190.474 145.788 451.056
-189.963 146.203 449.846
-189.963 147.01 449.846
-189.963 147.816 449.846
-189.836 148.523 449.545
-189.582 149.13 448.943
-188.824 149.335 447.147
-188.824 150.137 447.147
-188.321 150.537 445.958
-185.728 150.83 439.817
-185.485 151.42 439.241
-185.85 152.507 440.105
-186.217 153.599 440.973
-184.638 153.865 437.236
-184.278 155.13 436.383
-183.919 155.609 435.533
-182.85 155.481 433.002
-182.028 156.328 431.054
-182.145 157.201 431.331
-182.145 157.975 431.331
-180.865 158.401 428.302
-178.585 157.92 422.901
-178.585 158.679 422.901
-178.585 159.437 422.901
-178.923 160.499 423.702
-178.81 161.157 423.435
-178.81 161.916 423.435
-178.36 162.266 422.368
-178.248 162.921 422.102
-178.135 163.574 421.837
-177.688 163.918 420.778
-177.466 164.467 420.251
-176.691 164.499 418.416
-176.471 165.043 417.894
-333.372 -59.353 792.814
-332.586 -57.7947 790.944
-332.586 -56.3765 790.944
-331.803 -54.8289 789.083
-331.024 -53.2885 787.231
-329.863 -51.6949 784.468
-327.945 -49.9959 779.907
-327.564 -48.5409 779.002
-327.184 -47.0894 778.098
-326.049 -45.5357 775.399
-325.297 -44.0434 773.611
-324.922 -42.6071 772.719
-319.041 -40.4754 758.734
-318.321 -39.0266 757.021
-317.604 -36.2299 755.316
-317.604 -34.8755 755.316
-318.321 -33.5968 757.021
-317.247 -32.1306 754.466
-316.18 -30.6742 751.929
-313.718 -29.0975 746.074
-313.37 -27.7289 745.245
-313.022 -26.3632 744.418
-312.675 -25.0006 743.593
-312.675 -23.6673 743.593
-309.246 -22.089 735.439
-307.896 -20.6796 732.228
-307.56 -19.3455 731.429
-305.892 -17.9361 727.462
-305.561 -16.6136 726.674
-303.914 -15.2281 722.759
-302.935 -13.8872 720.43
-302.286 -12.5684 718.886
-300.035 -11.1953 713.532
-299.716 -9.90532 712.774
-297.503 -8.56351 707.511
-297.189 -7.28716 706.765
-297.189 -6.01982 706.765
-297.189 -4.75249 706.765
-296.876 -3.48149 706.021
-297.189 -2.21783 706.765
-296.253 -0.947503 704.538
-295.013 0.314513 701.59
-292.565 1.55951 695.768
-291.356 2.79553 692.893
-289.859 4.01723 689.332
-287.788 5.21578 684.409
-287.495 6.43646 683.711
-286.618 7.63909 681.626
-286.327 8.85234 680.934
-285.747 10.0529 679.555
-285.747 11.2715 679.555
-286.618 12.5281 681.626
-285.747 13.7086 679.555
-285.747 14.9271 679.555
-283.165 15.9997 673.414
-281.47 17.1042 669.382
-280.072 18.2136 666.058
-278.688 19.3121 662.767
-278.413 20.4803 662.113
-278.139 21.6462 661.46
-276.774 22.7202 658.214
-277.318 23.9475 659.509
-277.591 25.1548 660.158
-277.591 26.3386 660.158
-277.591 27.5224 660.158
-277.046 28.6497 658.861
-276.774 29.8019 658.214
-270.665 33.7609 643.686
-269.888 37.1167 641.838
-264.323 39.733 628.604
-264.075 40.8219 628.015
-264.075 41.948 628.015
-263.828 43.0338 627.428
-263.582 44.1176 626.842
-260.9 47.0065 620.463
-260.178 47.9859 618.746
-259.699 49.0049 617.606
-258.508 49.8827 614.776
-258.272 50.9384 614.213
-256.393 51.6613 609.746
-255.464 52.5636 607.537
-253.855 53.3149 603.709
-254.313 54.4955 604.797
-253.399 55.3803 602.624
-253.855 56.5625 603.709
-253.399 57.5415 602.624
-252.717 58.4645 601.004
-251.59 59.2766 598.323
-251.142 60.242 597.258
-250.919 61.2584 596.726
-247.397 62.5086 588.351
-247.397 63.5636 588.351
-247.18 64.562 587.836
-246.317 65.3868 585.782
-245.887 66.3214 584.761
-245.673 67.3113 584.251
-245.033 68.1807 582.728
-243.973 68.9262 580.208
-243.973 69.9666 580.208
-243.341 70.8232 578.706
-242.088 71.4908 575.726
-240.848 72.1516 572.776
-241.466 73.3666 574.247
-240.642 74.1424 572.287
-240.437 75.1045 571.799
-239.011 75.6782 568.407
-238.203 76.4383 566.487
-238.002 77.3888 566.009
-238.203 78.4699 566.487
-237.401 79.2181 564.579
-237.401 83.2676 564.579
-237.401 84.28 564.579
-233.471 84.8758 555.232
-232.7 85.588 553.4
-231.174 86.0126 549.771
-230.985 86.9272 549.321
-230.985 87.9122 549.321
-230.043 88.5346 547.08
-229.668 89.3698 546.189
-229.295 90.2023 545.301
-229.295 91.1801 545.301
-228.182 91.7106 542.654
-227.446 92.3846 540.904
-225.626 93.5699 536.576
-225.446 94.4565 536.147
-225.266 95.3416 535.719
-225.086 96.2254 535.292
-224.906 97.1078 534.865
-223.127 97.291 530.633
-221.724 97.6246 527.296
-221.376 98.4154 526.468
-220.856 99.126 525.231
-220.166 99.7554 523.591
-220.856 101.01 525.231
-221.029 102.031 525.643
-219.994 102.492 523.183
-219.652 103.269 522.368
-219.652 104.206 522.368
-219.481 105.061 521.961
-218.8 105.668 520.342
-218.291 106.353 519.133
-217.786 107.035 517.931
-217.115 107.632 516.336
-216.948 108.474 515.939
-216.615 109.231 515.146
-215.621 109.65 512.783
-214.8 110.148 510.831
-214.473 110.895 510.054
-213.985 111.555 508.893
-212.855 111.874 506.204
-212.055 112.357 504.301
-211.736 113.091 503.544
-211.419 113.824 502.789
-210.629 114.297 500.911
-210.472 115.109 500.538
-210.158 115.834 499.792
-209.378 116.296 497.936
-209.068 117.016 497.198
-208.604 117.646 496.095
-207.989 118.185 494.632
-207.682 118.897 493.903
-207.072 119.431 492.453
-207.225 120.402 492.814
-207.072 121.197 492.453
-206.769 121.901 491.731
-206.164 122.424 490.293
-205.563 122.943 488.863
-206.769 124.546 491.731
-206.769 125.428 491.731
-203.047 124.902 482.88
-202.901 125.678 482.533
-203.047 126.634 482.88
-202.174 126.951 480.803
-201.884 127.631 480.115
-201.452 128.216 479.086
-201.021 128.799 478.062
-200.878 129.564 477.721
-200.878 130.421 477.721
-200.735 131.184 477.381
-199.881 131.478 475.351
-199.74 132.237 475.014
-199.598 132.995 474.678
-199.316 133.657 474.007
-198.895 134.222 473.005
-198.754 134.975 472.671
-198.615 135.727 472.338
-198.475 136.478 472.006
-194.371 135.314 462.247
-194.505 136.237 462.566
-194.639 137.161 462.885
-194.371 137.8 462.247
-194.104 138.439 461.611
-193.173 138.599 459.398
-193.041 139.327 459.083
-193.041 140.15 459.083
-193.041 140.973 459.083
-192.909 141.699 458.769
-193.173 142.717 459.398
-193.173 143.541 459.398
-192.12 143.578 456.894
-190.691 143.324 453.496
-190.82 144.234 453.803
-190.563 144.852 453.189
-190.305 145.468 452.578
-190.049 146.082 451.968
-189.03 146.105 449.545
-189.03 146.911 449.545
-189.157 147.816 449.846
-188.903 148.424 449.243
-188.524 148.93 448.343
-188.022 149.335 447.147
-188.022 150.137 447.147
-185.915 150.04 442.136
-185.182 150.238 440.394
-184.939 150.83 439.817
-184.939 151.619 439.817
-185.061 152.507 440.105
-185.67 153.801 441.554
-185.061 154.086 440.105
-183.854 153.865 437.236
-183.257 154.147 435.816
-181.839 153.73 432.444
-181.839 154.505 432.444
-181.957 155.381 432.723
-181.255 156.328 431.054
-181.255 157.1 431.054
-181.255 157.873 431.054
-180.097 157.633 428.302
-179.983 158.3 428.028
-178.389 158.42 424.238
-178.276 159.08 423.97
-177.939 159.538 423.167
-178.276 160.6 423.97
-178.276 161.361 423.97
-177.491 162.164 422.102
-177.491 162.921 422.102
-177.379 163.574 421.837
-177.045 164.021 421.042
-176.712 164.467 420.251
-176.381 164.91 419.462
-175.94 165.249 418.416
-335.921 -60.063 802.297
-334.321 -58.3452 798.477
-332.737 -56.6436 794.692
-332.343 -55.1533 793.752
-330 -53.3512 788.156
-329.226 -51.8161 786.308
-326.927 -50.0541 780.815
-326.546 -48.5974 779.907
-326.167 -47.1441 779.002
-324.659 -45.5357 775.399
-323.91 -44.0434 773.611
-317.681 -40.4754 758.734
-315.185 -37.4578 752.773
-314.832 -36.0674 751.929
-315.539 -34.7972 753.618
-316.964 -33.5968 757.021
-316.25 -32.1667 755.316
-315.185 -30.7086 752.773
-314.127 -29.2603 750.247
-312.38 -27.7597 746.074
-312.033 -26.3925 745.245
-311.687 -25.0284 744.418
-309.967 -23.5628 740.31
-306.249 -21.9686 731.429
-305.915 -20.6345 730.632
-305.582 -19.3034 729.837
-304.258 -17.9167 726.674
-304.258 -16.6136 726.674
-301.968 -15.1954 721.205
-301.32 -13.8723 719.657
-300.997 -12.5684 718.886
-299.392 -11.2192 715.054
-299.073 -9.92642 714.292
-298.121 -8.61806 712.017
-296.547 -7.30255 708.258
-296.234 -6.02618 707.511
-295.922 -4.75249 706.765
-295.61 -3.48149 706.021
-295.61 -2.2155 706.021
-295.61 -0.949498 706.021
-293.448 0.314184 700.857
-291.317 1.55951 695.768
-290.414 2.79842 693.609
-288.326 4.01311 688.625
-286.269 5.21046 683.711
-285.978 6.4299 683.015
-285.106 7.63133 680.934
-285.106 8.85234 680.934
-284.817 10.0631 680.244
-284.529 11.2715 679.555
-285.978 12.5536 683.015
-284.817 13.7225 680.244
-284.817 14.9422 680.244
-281.675 15.9837 672.739
-280.269 17.1042 669.382
-279.155 18.2317 666.72
-277.5 19.3121 662.767
-277.774 20.5208 663.423
-277.5 21.689 662.767
-277.226 22.8548 662.113
-277.774 24.0896 663.423
-275.323 25.0562 657.569
-271.071 26.991 647.414
-271.596 28.2064 648.666
-271.071 29.3129 647.414
-267.967 31.2724 640
-267.457 32.3583 638.781
-267.457 33.5037 638.781
-268.48 34.7816 641.224
-267.967 35.8629 640
-268.48 37.0813 641.224
-267.967 38.1581 640
-262.949 39.6958 628.015
-262.703 40.7837 627.428
-262.949 41.948 628.015
-262.703 43.0338 627.428
-262.458 44.1176 626.842
-259.547 46.963 619.889
-259.068 47.9859 618.746
-258.829 49.0501 618.175
-257.406 49.8827 614.776
-256.7 50.8453 613.09
-254.375 51.4742 607.537
-253.228 52.3266 604.797
-252.545 53.267 603.166
-252.772 54.3974 603.709
-251.865 55.2809 601.543
-252.091 56.4102 602.083
-252.091 57.4898 602.083
-251.64 58.4645 601.004
-251.414 59.4888 600.466
-250.965 60.4573 599.393
-250.294 61.3676 597.79
-246.126 62.4538 587.836
-246.126 63.5079 587.836
-245.911 64.5055 587.321
-245.052 65.3298 585.271
-244.839 66.3214 584.761
-244.412 67.2527 583.743
-243.776 68.1215 582.223
-243.143 68.9859 580.71
-242.932 69.9666 580.208
