ply
format ascii 1.0
element vertex 1920
property float x
property float y
property float z
end_header
-86.1917 152.704 555.692
-85.8361 153.066 553.4
-85.7653 153.931 552.943
-85.3432 154.16 550.222
-85.1337 154.766 548.871
-84.7868 155.116 546.634
-84.7868 156.096 546.634
-84.7177 156.948 546.189
-84.6488 157.799 545.745
-84.4427 158.391 544.416
-84.1013 158.723 542.215
-83.8303 159.181 540.468
-83.2267 158.997 536.576
-83.0274 159.576 535.292
-82.7632 160.025 533.588
-82.5661 160.598 532.318
-82.37 161.169 531.053
-82.0452 161.482 528.959
-81.7872 161.92 527.296
-81.6588 162.61 526.468
-81.5308 163.297 525.643
-81.5948 164.369 526.055
-81.5948 165.312 526.055
-81.467 165.995 525.231
-81.1493 166.286 523.183
-81.086 167.093 522.775
-80.9598 167.769 521.961
-80.8969 168.574 521.556
-80.8969 169.509 521.556
-80.646 169.916 519.938
-79.9641 169.404 515.542
-79.5362 169.417 512.783
-79.3542 169.946 511.61
-79.173 170.474 510.442
-79.0527 171.129 509.666
-78.9327 171.781 508.893
-78.9927 172.825 509.279
-78.1031 173.588 503.544
-77.4634 173.061 499.42
-77.2908 173.569 498.306
-77.2334 174.333 497.936
-77.1761 175.096 497.567
-77.1189 175.858 497.198
-76.7774 175.967 494.997
-76.6078 176.464 493.903
-76.2708 176.569 491.731
-76.1034 177.061 490.651
-75.8814 177.422 489.22
-75.7708 178.04 488.507
-75.5507 178.396 487.088
-75.5507 179.269 487.088
-75.4959 180.012 486.735
-75.4411 180.754 486.382
-75.3865 181.494 486.029
-75.4959 182.63 486.735
-74.6294 181.397 481.148
-74.5225 181.998 480.459
-74.0978 181.818 477.721
-74.0451 184.257 477.381
-73.7825 184.456 475.688
-73.7302 185.178 475.351
-73.7302 186.03 475.351
-73.5738 186.486 474.343
-73.4699 187.072 473.673
-73.3145 187.524 472.671
-108.931 -58.2875 710.509
-109.394 -57.2561 713.532
-107.563 -55.0398 701.59
-107.563 -53.7817 701.59
-106.671 -52.0878 695.768
-106.893 -50.9459 697.215
-106.782 -49.6441 696.491
-106.782 -48.3952 696.491
-106.671 -47.0973 695.768
-106.782 -45.8973 696.491
-94.2536 -35.0006 614.776
-94.2536 -33.8982 614.776
-94.2536 -32.7958 614.776
-94.2536 -31.6935 614.776
-94.1673 -30.5631 614.213
-94.0811 -29.4347 613.651
-94.1673 -28.3603 614.213
-94.2536 -27.2839 614.776
-94.1673 -26.1576 614.213
-94.2536 -25.0792 614.776
-94.7748 -24.1094 618.175
-94.6875 -22.9797 617.606
-94.7748 -21.8924 618.175
-94.7748 -20.7839 618.175
-94.8622 -19.6936 618.746
-94.8622 -18.5841 618.746
-90.8398 134.135 592.509
-90.8398 135.197 592.509
-90.8398 136.26 592.509
-90.7596 137.201 591.986
-90.8398 138.385 592.509
-90.6796 139.201 591.464
-90.2023 139.523 588.351
-89.9656 140.21 586.807
-89.5737 140.646 584.251
-89.5737 141.694 584.251
-89.4958 142.618 583.743
-89.418 143.539 583.235
-89.0309 143.959 580.71
-88.7236 144.5 578.706
-88.4184 145.037 576.716
-88.3425 145.946 576.22
-88.1154 146.601 574.739
-87.7395 147.002 572.287
-87.6647 147.902 571.799
-87.1446 148.044 568.407
-86.9972 148.811 567.445
-86.6307 149.197 565.055
-86.0508 149.205 561.272
-85.6922 149.586 558.934
-85.4785 150.212 557.54
-85.4785 151.212 557.54
-85.4075 152.085 557.077
-85.3366 152.957 556.615
-84.9138 153.192 553.857
-84.7738 153.931 552.943
-84.3566 154.16 550.222
-84.2874 155.02 549.771
-84.0807 155.623 548.422
-83.9434 156.351 547.527
-83.8749 157.204 547.08
-83.7383 157.928 546.189
-83.6702 158.778 545.745
-83.1291 158.723 542.215
-82.7944 159.052 540.033
-82.1331 158.743 535.719
-81.8064 159.068 533.588
-81.6764 159.771 532.741
-81.6116 160.598 532.318
-81.4823 161.297 531.474
-81.0967 161.482 528.959
-80.969 162.175 528.126
-80.6515 162.482 526.055
-80.5252 163.169 525.231
-80.5883 164.24 525.643
-80.5252 165.053 525.231
-80.2737 165.477 523.591
-80.0239 165.897 521.961
-79.9616 166.704 521.556
-79.7755 167.249 520.342
-79.7137 168.051 519.938
-80.0862 169.773 522.368
-80.0239 170.577 521.961
-79.1005 169.534 515.939
-78.6167 169.417 512.783
-78.3173 169.688 510.831
-78.1388 170.215 509.666
-78.0795 170.999 509.279
-77.843 171.391 507.737
-77.843 172.302 507.737
-76.6249 174.086 499.792
-76.3972 174.463 498.306
-76.2839 175.096 497.567
-76.2273 175.858 497.198
-76.002 176.227 495.728
-75.8898 176.854 494.997
-75.7779 177.48 494.267
-75.389 177.451 491.731
-75.1137 177.681 489.935
-74.9495 178.169 488.863
-74.7316 178.525 487.442
-74.6773 179.269 487.088
-74.6773 180.143 487.088
-74.6231 180.885 486.735
-74.515 181.494 486.029
-74.0321 181.184 482.88
-73.7137 181.267 480.803
-73.6609 181.998 480.459
-73.3457 182.077 478.403
-73.085 184.85 476.703
-72.9813 185.441 476.026
-72.8779 186.03 475.351
-72.5693 186.94 473.338
-107.429 -58.1643 709.007
-107.202 -56.7729 707.511
-107.202 -55.5042 707.511
-106.752 -54.0077 704.538
-105.314 -52.0338 695.047
-105.862 -51.052 698.667
-105.533 -49.6441 696.491
-105.533 -48.3952 696.491
-105.533 -47.1462 696.491
-93.4081 -35.0971 616.471
-93.6663 -34.0857 618.175
-93.4081 -32.8863 616.471
-92.9807 -31.6355 613.651
-93.0659 -30.5631 614.213
-92.9807 -29.4347 613.651
-93.0659 -28.3603 614.213
-93.1512 -27.2839 614.776
-93.1512 -26.1815 614.776
-93.3223 -25.1252 615.905
-93.5801 -24.0872 617.606
-93.5801 -22.9797 617.606
-93.5801 -21.8723 617.606
-93.5801 -20.7648 617.606
-93.6663 -19.6755 618.175
-93.6663 -18.567 618.175
-89.7773 135.197 592.509
-89.6981 136.139 591.986
-89.619 137.08 591.464
-89.7773 138.385 592.509
-89.54 139.078 590.943
-89.2256 139.646 588.868
-88.9912 140.332 587.321
-88.5261 140.646 584.251
-88.5261 141.694 584.251
-88.5261 142.742 584.251
-88.5261 143.789 584.251
-87.9896 143.959 580.71
-87.6859 144.5 578.706
-87.4595 145.162 577.212
-87.3092 145.946 576.22
-87.0848 146.601 574.739
-86.7873 147.128 572.776
-86.7133 148.028 572.287
-86.1984 148.17 568.889
-86.0525 148.937 567.926
-85.5454 149.072 564.579
-84.9732 149.08 560.803
-84.8314 149.835 559.867
-84.549 150.337 558.004
-84.549 151.338 558.004
-84.4788 152.212 557.54
-84.4086 153.084 557.077
-83.9207 153.192 553.857
-83.4384 153.3 550.674
-83.3016 154.034 549.771
-83.3016 155.02 549.771
-83.1653 155.75 548.871
-83.0973 156.606 548.422
-82.9616 157.332 547.527
-82.8264 158.056 546.634
-82.7589 158.907 546.189
-82.0904 158.595 541.777
-81.6945 158.797 539.164
-81.1725 158.743 535.719
-80.9785 159.322 534.439
-80.8496 160.025 533.588
-80.7212 160.726 532.741
-80.6571 161.553 532.318
-80.5293 162.25 531.474
-80.1482 162.431 528.959
-80.1482 163.379 528.959
-79.7708 163.554 526.468
-79.8334 164.627 526.882
-79.0879 165.897 521.961
-78.6594 165.929 519.133
-78.9037 167.379 520.746
-78.7203 167.921 519.536
-79.3968 170.304 524
-79.1495 170.71 522.368
-77.3424 168.643 510.442
-77.2836 169.429 510.054
-77.2249 170.215 509.666
-77.1077 170.869 508.893
-76.8744 171.262 507.353
-76.9326 172.302 507.737
-76.9326 173.212 507.737
-75.8984 172.68 500.911
-75.7287 174.086 499.792
-75.616 174.722 499.048
-75.5037 175.356 498.306
-75.3358 175.858 497.198
-75.1686 176.357 496.095
-74.9469 176.724 494.632
-74.7264 177.088 493.177
-74.5073 177.451 491.731
-74.0189 177.164 488.507
-73.8039 177.522 487.088
-73.6434 178.008 486.029
-73.6434 178.88 486.029
-73.6968 179.881 486.382
-73.5901 180.492 485.677
-73.219 180.448 483.228
-73.1136 181.054 482.533
-72.9038 181.397 481.148
-72.7473 181.868 480.115
-72.4362 181.948 478.062
-72.1277 184.587 476.026
-72.1277 186.294 476.026
-105.934 -58.0416 707.511
-105.711 -56.6534 706.021
-105.268 -55.1552 703.061
-105.489 -54.0077 704.538
-103.745 -51.8726 692.893
-104.61 -51.052 698.667
-104.392 -49.6957 697.215
-104.61 -48.5464 698.667
-104.61 -47.2936 698.667
-91.9645 -34.9685 614.213
-92.1333 -33.9293 615.34
-92.2179 -32.8561 615.905
-92.0488 -31.6935 614.776
-92.1333 -30.6191 615.34
-92.0488 -29.4887 614.776
-92.1333 -28.4124 615.34
-92.1333 -27.309 615.34
-92.1333 -26.2056 615.34
-92.2179 -25.1252 615.905
-92.3875 -24.065 617.038
-92.4726 -22.9797 617.606
-92.3875 -21.8521 617.038
-92.3875 -20.7457 617.038
-92.5578 -19.6755 618.175
-92.6432 -18.5841 618.746
-136.447 18.3836 911.305
-88.9506 136.622 594.084
-88.7149 137.322 592.509
-88.7933 138.507 593.033
-88.4804 139.078 590.943
-88.0923 139.523 588.351
-87.5547 139.721 584.761
-87.4023 140.524 583.743
-87.4023 141.571 583.743
-87.4023 142.618 583.743
-87.4784 143.789 584.251
-86.8731 143.835 580.208
-86.3502 144.003 576.716
-86.3502 145.037 576.716
-86.276 145.946 576.22
-85.9805 146.476 574.247
-85.6871 147.002 572.287
-85.614 147.902 571.799
-85.1783 148.17 568.889
-84.8186 148.56 566.487
-84.462 148.946 564.105
-83.9676 149.08 560.803
-83.8274 149.835 559.867
-83.618 150.462 558.468
-83.5485 151.338 558.004
-83.4097 152.085 557.077
-83.4097 153.084 557.077
-82.8591 153.066 553.4
-82.3158 153.048 549.771
-82.0468 153.531 547.974
-82.1139 154.64 548.422
-81.7795 154.989 546.189
-81.7795 155.969 546.189
-81.713 156.82 545.745
-81.6465 157.671 545.301
-81.4479 158.263 543.974
-81.1845 158.723 542.215
-80.7277 158.797 539.164
-80.3402 158.997 536.576
-80.2119 159.703 535.719
-80.0839 160.408 534.865
-79.8293 160.854 533.164
-79.7026 161.553 532.318
-79.7026 162.507 532.318
-79.2622 162.559 529.377
-79.1373 163.25 528.542
-78.8267 163.554 526.468
-78.7649 164.369 526.055
-77.7887 165.126 519.536
-77.6684 165.801 518.732
-77.6684 166.731 518.732
-77.6684 167.661 518.732
-77.7285 168.722 519.133
-76.7191 169.287 512.391
-76.4853 169.688 510.831
-76.369 170.344 510.054
-76.253 170.999 509.279
-76.1374 171.651 508.507
-76.1374 172.563 508.507
-76.1374 173.475 508.507
-75.0002 172.68 500.911
-74.8883 173.319 500.164
-74.8325 174.086 499.792
-74.5548 174.333 497.936
-74.5548 175.226 497.936
-74.4442 175.858 497.198
-74.1693 176.097 495.362
-74.1146 176.854 494.997
-73.6796 176.699 492.091
-73.5716 177.321 491.37
-73.2496 177.422 489.22
-73.1429 178.04 488.507
-72.8775 178.266 486.735
-72.8247 179.009 486.382
-72.8247 179.881 486.382
-72.7192 180.492 485.677
-72.4569 180.708 483.925
-72.3525 181.314 483.228
-72.1446 181.657 481.839
-71.8349 181.738 479.771
-71.4771 181.689 477.381
-71.3755 182.285 476.703
-71.1731 182.621 475.351
-71.1731 183.473 475.351
-104.665 -56.7729 707.511
-104.225 -55.271 704.538
-104.225 -54.0077 704.538
-103.357 -52.3048 698.667
-103.357 -51.052 698.667
-103.357 -49.7992 698.667
-103.573 -48.6477 700.126
-103.573 -47.3923 700.126
-90.9464 -35.0006 614.776
-91.1135 -33.9605 615.905
-91.1972 -32.8863 616.471
-91.2811 -31.8101 617.038
-91.2811 -30.7036 617.038
-91.1135 -29.5429 615.905
-91.1972 -28.4646 616.471
-91.1972 -27.3592 616.471
-91.1135 -26.2296 615.905
-91.2811 -25.1715 617.038
-91.4494 -24.1094 618.175
-91.4494 -23.0009 618.175
-91.5337 -21.9126 618.746
-91.4494 -20.7839 618.175
-91.5337 -19.6936 618.746
-91.4494 -18.567 618.175
-134.448 18.3338 908.835
-87.8854 136.622 594.084
-87.5751 137.201 591.986
-87.5751 138.262 591.986
-87.267 138.834 589.904
-86.961 139.401 587.836
-86.5061 139.721 584.761
-86.3556 140.524 583.743
-86.3556 141.571 583.743
-86.3556 142.618 583.743
-86.4308 143.789 584.251
-85.907 143.959 580.71
-85.463 144.251 577.709
-85.316 145.037 576.716
-85.1696 145.821 575.726
-85.0965 146.727 575.232
-84.7332 147.128 572.776
-84.5887 147.902 571.799
-84.1582 148.17 568.889
-84.0869 149.063 568.407
-83.5207 149.072 564.579
-83.0314 149.205 561.272
-82.8927 149.96 560.335
-82.8235 150.839 559.867
-82.5479 151.338 558.004
-82.4108 152.085 557.077
-82.3424 152.957 556.615
-81.7993 152.94 552.943
-81.3967 153.174 550.222
-81.1305 153.656 548.422
-80.9319 154.261 547.08
-80.8001 154.989 546.189
-80.7344 155.842 545.745
-80.5378 156.439 544.416
-80.4725 157.287 543.974
-80.3422 158.006 543.093
-80.2123 158.723 542.215
-79.7609 158.797 539.164
-79.3781 158.997 536.576
-79.2512 159.703 535.719
-79.188 160.536 535.292
-79.1249 161.367 534.865
-78.8106 161.681 532.741
-78.8106 162.636 532.741
-78.3748 162.687 529.795
-78.1896 163.25 528.542
-77.8827 163.554 526.468
-77.7606 164.24 525.643
-77.6997 165.053 525.231
-76.8571 165.126 519.536
-76.7382 165.801 518.732
-76.6197 167.403 517.931
-76.7382 168.592 518.732
-75.3971 168.387 509.666
-75.3971 169.301 509.666
-75.3971 170.215 509.666
-75.3398 170.999 509.279
-75.2256 171.651 508.507
-75.2256 172.563 508.507
-74.3797 173.327 502.789
-74.0467 173.449 500.538
-73.9915 174.216 500.164
-73.7714 174.592 498.677
-73.6619 175.226 497.936
-73.5527 175.858 497.198
-73.2811 176.097 495.362
-73.173 176.724 494.632
-72.9042 176.958 492.814
-72.7438 177.451 491.731
-72.4252 177.552 489.577
-72.3196 178.169 488.863
-72.0048 178.266 486.735
-71.9525 179.009 486.382
-71.9004 179.751 486.029
-71.9004 180.623 486.029
-71.7444 181.1 484.975
-71.5891 181.576 483.925
-71.1273 181.267 480.803
-71.0255 181.868 480.115
-70.8227 182.207 478.744
-70.6713 182.675 477.721
-70.3207 182.621 475.351
-70.2709 183.343 475.014
-103.506 -58.1029 708.258
-103.396 -56.7729 707.511
-102.962 -55.271 704.538
-103.179 -54.1214 706.021
-102.104 -52.3048 698.667
-102.317 -51.1586 700.126
-102.317 -49.9032 700.126
-102.424 -48.6986 700.857
-102.21 -47.3429 699.396
-102.317 -46.1369 700.126
-102.424 -44.9284 700.857
-90.2577 -35.1617 617.606
-90.3409 -34.0857 618.175
-90.3409 -32.9772 618.175
-90.3409 -31.8687 618.175
-90.2577 -30.7319 617.606
-90.2577 -29.6245 617.606
-90.2577 -28.517 617.606
-90.2577 -27.4095 617.606
-90.2577 -26.3021 617.606
-90.2577 -25.1946 617.606
-90.3409 -24.1094 618.175
-90.4242 -23.0221 618.746
-90.4242 -20.8031 618.746
-90.4242 -19.6936 618.746
-86.59 136.26 592.509
-86.5136 137.201 591.986
-86.5136 138.262 591.986
-86.2092 138.834 589.904
-85.907 139.401 587.836
-85.3831 139.599 584.251
-85.3831 140.646 584.251
-85.3088 141.571 583.743
-85.3088 142.618 583.743
-85.3831 143.789 584.251
-84.7923 143.835 580.208
-84.2095 143.879 576.22
-84.1372 144.788 575.726
-84.0651 145.696 575.232
-83.8493 146.35 573.756
-83.6347 147.002 572.287
-83.5634 147.902 571.799
-83.2087 148.295 569.372
-83.0677 149.063 568.407
-82.5778 149.197 565.055
-82.025 149.205 561.272
-81.9564 150.086 560.803
-81.8196 150.839 559.867
-81.6152 151.464 558.468
-81.4795 152.212 557.54
-81.4795 153.211 557.54
-81.2768 153.828 556.153
-80.6084 153.552 551.579
-80.2784 153.908 549.321
-80.1471 154.64 548.422
-79.8207 154.989 546.189
-79.6262 155.589 544.858
-79.497 156.312 543.974
-79.4326 157.16 543.534
-79.3683 158.006 543.093
-79.3041 158.851 542.654
-78.7941 158.797 539.164
-78.5415 159.251 537.436
-78.4159 159.959 536.576
-78.3532 160.792 536.147
-78.2906 161.624 535.719
-77.9172 161.81 533.164
-77.7935 162.507 532.318
-77.4249 162.687 529.795
-77.3027 163.379 528.959
-77.2418 164.198 528.542
-76.9991 164.627 526.882
-76.8783 165.312 526.055
-75.9844 165.254 519.938
-75.8081 165.801 518.732
-74.5398 168.515 510.054
-74.4832 169.301 509.666
-74.5398 170.344 510.054
-74.4266 170.999 509.279
-74.4266 171.912 509.279
-74.4832 172.956 509.666
-74.4832 173.87 509.666
-73.6438 172.814 503.922
-73.2585 172.809 501.286
-73.1491 173.449 500.538
-73.1491 174.346 500.538
-72.9857 174.852 499.42
-72.769 175.226 497.936
-72.6611 175.858 497.198
-72.4463 176.227 495.728
-72.3394 176.854 494.997
-72.0205 176.958 492.814
-71.8094 177.321 491.37
-71.4952 177.422 489.22
-71.4952 178.299 489.22
-71.1836 178.396 487.088
-71.0804 179.009 486.382
-71.0804 179.881 486.382
-71.0289 180.623 486.029
-70.8748 181.1 484.975
-70.6704 181.445 483.576
-70.3155 181.397 481.148
-70.2148 181.998 480.459
-69.9642 182.207 478.744
-69.765 182.545 477.381
-69.4684 182.621 475.351
-69.4192 183.343 475.014
-69.37 184.065 474.678
-69.37 184.916 474.678
-69.272 185.504 474.007
-69.0281 185.698 472.338
-102.236 -58.1029 708.258
-102.236 -56.8329 708.258
-101.379 -55.0974 702.325
-101.167 -53.7255 700.857
-100.851 -52.3048 698.667
-100.851 -51.052 698.667
-100.851 -49.7992 698.667
-100.851 -48.5464 698.667
-101.062 -47.3923 700.126
-101.062 -46.1369 700.126
-101.273 -44.9754 701.59
-89.3147 -34.1171 618.746
-89.3147 -33.0076 618.746
-89.1502 -31.8394 617.606
-89.1502 -30.7319 617.606
-89.2324 -29.6518 618.175
-89.2324 -28.5433 618.175
-89.2324 -27.4348 618.175
-89.2324 -26.3263 618.175
-89.2324 -25.2179 618.175
-89.3147 -24.1316 618.746
-89.2324 -23.0009 618.175
-89.3147 -20.8031 618.746
-89.3147 -19.6936 618.746
-110.019 48.1762 762.182
-110.019 49.5429 762.182
-110.019 50.9096 762.182
-109.274 51.9223 757.021
-109.274 53.2798 757.021
-109.522 54.7608 758.734
-85.3767 136.019 591.464
-85.2264 136.839 590.423
-85.0766 137.655 589.385
-85.0019 138.59 588.868
-84.8529 139.401 587.836
-84.409 139.721 584.761
-84.3355 140.646 584.251
-84.2621 141.571 583.743
-84.1888 142.494 583.235
-84.2621 143.664 583.743
-83.6072 143.586 579.206
-83.1762 143.879 576.22
-83.1049 144.788 575.726
-83.0336 145.696 575.232
-83.0336 146.727 575.232
-82.6085 147.002 572.287
-82.4678 147.776 571.312
-82.118 148.17 568.889
-82.0484 149.063 568.407
-81.4959 149.072 564.579
-81.0185 149.205 561.272
-80.9508 150.086 560.803
-80.681 150.588 558.934
-80.6138 151.464 558.468
-80.4798 152.212 557.54
-80.4129 153.084 557.077
-79.8821 153.066 553.4
-79.4234 153.174 550.222
-79.2284 153.782 548.871
-78.9699 154.261 547.08
-78.8413 154.989 546.189
-78.6492 155.589 544.858
-78.5854 156.439 544.416
-78.5216 157.287 543.974
-78.3945 158.006 543.093
-78.2677 158.723 542.215
-77.8273 158.797 539.164
-77.5779 159.251 537.436
-77.3918 159.831 536.147
-77.3918 160.792 536.147
-77.33 161.624 535.719
-76.9612 161.81 533.164
-76.839 162.507 532.318
-76.4749 162.687 529.795
-76.4145 163.508 529.377
-76.2941 164.198 528.542
-76.174 164.886 527.711
-74.9939 165.126 519.536
-74.0192 167.578 512.783
-73.6252 169.429 510.054
-73.7936 170.734 511.22
-73.5693 171.129 509.666
-73.4576 171.781 508.893
-72.631 172.555 503.166
-72.3596 172.809 501.286
-72.2516 173.449 500.538
-72.2516 174.346 500.538
-72.1977 175.113 500.164
-71.983 175.487 498.677
-71.7696 175.858 497.198
-71.5045 176.097 495.362
-71.2415 176.334 493.54
-70.9803 176.569 491.731
-70.6179 177.422 489.22
-70.3102 177.522 487.088
-70.1574 178.008 486.029
-70.1066 178.75 485.677
-70.1066 179.621 485.677
-70.0052 180.231 484.975
-69.9041 180.839 484.275
-69.8033 181.445 483.576
-69.4528 181.397 481.148
-69.3036 181.868 480.115
-69.2541 182.598 479.771
-69.0072 182.805 478.062
-68.7134 182.88 476.026
-68.616 183.473 475.351
-68.5674 184.195 475.014
-68.5674 185.047 475.014
-68.422 185.504 474.007
-68.1331 185.568 472.006
-67.4214 184.467 467.075
-67.2341 184.789 465.778
-100.647 -60.4514 706.021
-100.647 -59.1854 706.021
-100.647 -57.9194 706.021
-100.12 -56.3568 702.325
-99.9106 -54.9823 700.857
-99.9106 -53.7255 700.857
-99.3913 -52.1961 697.215
-99.5984 -51.052 698.667
-99.7023 -49.8511 699.396
-100.015 -48.7495 701.59
-100.12 -47.5412 702.325
-100.12 -46.2818 702.325
-88.2867 -34.1486 619.317
-88.2052 -33.0076 618.746
-88.2052 -31.8981 618.746
-88.1239 -30.7602 618.175
-88.2052 -29.6791 618.746
-88.2052 -28.5696 618.746
-88.2052 -27.4601 618.746
-88.2052 -26.3506 618.746
-88.2052 -25.2411 618.746
-88.2052 -24.1316 618.746
-88.1239 -23.0009 618.175
-88.2052 -20.8031 618.746
-88.2052 -19.6936 618.746
-108.161 47.9583 758.734
-108.161 49.3188 758.734
-108.161 50.6793 758.734
-108.161 52.0398 758.734
-108.161 53.4003 758.734
-108.161 54.7608 758.734
-108.653 56.3764 762.182
-108.161 57.4819 758.734
-84.4651 136.26 592.509
-84.1677 136.839 590.423
-84.0197 137.655 589.385
-84.0197 138.712 589.385
-83.8723 139.523 588.351
-83.3605 139.721 584.761
-83.3605 140.769 584.761
-83.2154 141.571 583.743
-82.9987 142.246 582.223
-82.7115 142.794 580.208
-82.2844 143.092 577.212
-82.143 143.879 576.22
-82.0725 144.788 575.726
-82.0021 145.696 575.232
-82.0021 146.727 575.232
-81.5823 147.002 572.287
-81.2357 147.399 569.856
-81.0292 148.044 568.407
-81.0292 149.063 568.407
-80.6193 149.323 565.532
-80.0121 149.205 561.272
-79.9452 150.086 560.803
-79.8117 150.839 559.867
-79.8117 151.843 559.867
-79.48 152.212 557.54
-79.3481 152.957 556.615
-78.8898 153.066 553.4
-78.3725 153.048 549.771
-78.3083 153.908 549.321
-78.0526 154.387 547.527
-77.8619 154.989 546.189
-77.6722 155.589 544.858
-77.6092 156.439 544.416
-77.4834 157.16 543.534
-77.358 157.878 542.654
-77.233 158.595 541.777
-76.9223 158.924 539.598
-76.7988 159.635 538.731
-76.7371 160.472 538.299
-76.4916 160.921 536.576
-76.3084 161.496 535.292
-75.9448 161.681 532.741
-75.8845 162.507 532.318
-75.6444 162.945 530.633
-75.4652 163.508 529.377
-75.4057 164.328 528.959
-75.3463 165.146 528.542
-74.005 164.999 519.133
-73.324 165.325 514.356
-73.2678 166.12 513.962
-73.0439 167.45 512.391
-72.9881 168.24 512
-72.7106 168.515 510.054
-72.7106 169.429 510.054
-72.766 170.474 510.442
-71.7826 171.782 503.544
-71.7288 172.555 503.166
-71.5142 172.938 501.661
-71.4074 173.578 500.911
-71.3541 174.346 500.538
-71.2477 174.983 499.792
-71.0888 175.487 498.677
-70.9833 176.119 497.936
-70.4083 175.578 493.903
-70.2015 175.945 492.453
-70.15 176.699 492.091
-70.0986 177.451 491.731
-69.7407 177.422 489.22
-69.5884 177.91 488.152
-69.2858 178.008 486.029
-69.1856 178.621 485.326
-69.2357 179.621 485.677
-69.1356 180.231 484.975
-68.9859 180.708 483.925
-68.8865 181.314 483.228
-68.6886 181.657 481.839
-68.4917 181.998 480.459
-68.4917 182.86 480.459
-68.1986 182.935 478.403
-67.8117 182.75 475.688
-67.7156 183.343 475.014
-67.6677 184.065 474.678
-67.5721 184.654 474.007
-67.4767 185.243 473.338
-67.3341 185.698 472.338
-66.5376 184.338 466.75
-66.3989 184.789 465.778
-99.4855 -61.7824 706.765
-99.4855 -60.5151 706.765
-99.3808 -59.1854 706.021
-98.9641 -57.6765 703.061
-98.8605 -56.3568 702.325
-98.7571 -55.0398 701.59
-98.6539 -53.7255 700.857
-98.2433 -52.2504 697.94
-98.4481 -51.1052 699.396
-98.6539 -49.9553 700.857
-99.068 -48.903 703.799
-99.2763 -47.7411 705.279
-99.172 -46.4277 704.538
-99.2763 -45.2118 705.279
-87.1761 -35.2591 619.317
-87.0957 -34.1171 618.746
-87.0957 -33.0076 618.746
-87.0154 -31.8687 618.175
-87.0154 -30.7602 618.175
-87.0957 -29.6791 618.746
-87.0957 -28.5696 618.746
-87.0957 -27.4601 618.746
-87.0957 -26.3506 618.746
-87.0957 -25.2411 618.746
-87.0957 -24.1316 618.746
-87.0957 -23.0221 618.746
-87.3374 -18.6357 620.463
-87.0957 -17.4746 618.746
-128.277 16.7495 911.305
-107.286 46.8095 762.182
-107.043 48.067 760.454
-107.043 49.4306 760.454
-107.043 50.7942 760.454
-106.56 51.9223 757.021
-106.801 53.4003 758.734
-106.801 54.7608 758.734
-106.801 56.1214 758.734
-106.801 57.4819 758.734
-106.801 58.8424 758.734
-83.4764 135.317 593.033
-83.4764 136.38 593.033
-83.4764 137.444 593.033
-83.329 138.262 591.986
-83.4026 139.447 592.509
-83.2555 140.262 591.464
-82.3837 139.842 585.271
-82.3119 140.769 584.761
-82.0972 141.448 583.235
-81.2494 143.092 577.212
-81.1098 143.879 576.22
-80.9706 144.664 575.232
-80.832 145.446 574.247
-80.6249 146.101 572.776
-80.4874 146.877 571.799
-80.1458 147.274 569.372
-80.01 148.044 568.407
-79.9422 148.937 567.926
-79.4712 149.072 564.579
-79.3376 149.832 563.631
-79.0718 150.337 561.742
-78.9396 151.091 560.803
-78.8737 151.97 560.335
-78.4151 152.085 557.077
-77.9618 152.199 553.857
-77.8333 152.94 552.943
-77.4502 153.174 550.222
-77.5138 154.287 550.674
-77.3233 154.893 549.321
-76.8825 154.989 546.189
-76.4468 155.085 543.093
-76.3849 155.932 542.654
-76.3849 156.905 542.654
-76.3232 157.751 542.215
-76.2615 158.595 541.777
-75.9548 158.924 539.598
-75.8937 159.763 539.164
-75.8327 160.601 538.731
-75.5899 161.05 537.006
-75.4088 161.624 535.719
-74.9895 161.681 532.741
-74.93 162.507 532.318
-74.752 163.074 531.053
-74.3986 163.25 528.542
-74.1066 163.554 526.468
-73.9904 164.24 525.643
-73.5294 164.153 522.368
-73.4722 164.961 521.961
-73.4151 165.768 521.556
-73.0741 165.929 519.133
-72.6244 165.833 515.939
-72.4017 166.247 514.356
-72.1803 167.578 512.783
-72.07 168.24 512
-71.7415 168.387 509.666
-71.7415 169.301 509.666
-71.8507 170.474 510.442
-70.4565 173.449 500.538
-70.4565 174.346 500.538
-70.3515 174.983 499.792
-70.1425 175.356 498.306
-69.3694 175.191 492.814
-69.2676 175.816 492.091
-69.1661 176.44 491.37
-68.8634 176.545 489.22
-68.8132 177.293 488.863
-68.6132 177.651 487.442
-68.4639 178.137 486.382
-68.3648 178.75 485.677
-68.3153 179.491 485.326
-68.1182 179.841 483.925
-68.069 180.578 483.576
-68.02 181.314 483.228
-67.9221 181.919 482.533
-67.6787 182.129 480.803
-67.6302 182.86 480.459
-67.3408 182.935 478.403
-67.1492 183.27 477.042
-66.9587 183.603 475.688
-66.7221 183.805 474.007
-66.4872 184.004 472.338
-66.4404 184.721 472.006
-65.7464 184.467 467.075
-65.7006 185.175 466.75
-98.2182 -63.0497 706.765
-98.2182 -61.7824 706.765
-98.0116 -60.3878 705.279
-98.1148 -59.1854 706.021
-97.8059 -57.7371 703.799
-97.7034 -56.4159 703.061
-97.499 -55.0398 701.59
-97.3971 -53.7255 700.857
-97.2955 -52.414 700.126
-97.3971 -51.2121 700.857
-97.499 -50.0076 701.59
-98.3218 -49.1609 707.511
-98.3218 -47.8922 707.511
-98.4256 -46.6728 708.258
-98.3218 -45.3549 707.511
-85.8279 -34.0543 617.606
-85.907 -32.9772 618.175
-85.6701 -31.7808 616.471
-85.8279 -30.7319 617.606
-86.0656 -29.7065 619.317
-86.0656 -28.596 619.317
-86.0656 -27.4855 619.317
-86.0656 -26.3749 619.317
-86.0656 -25.2644 619.317
-85.9862 -24.1316 618.746
-85.9862 -20.8031 618.746
-85.9862 -19.6936 618.746
-86.4648 -18.6876 622.19
-86.3847 -17.5556 621.613
-105.919 45.4428 762.182
-105.56 46.6505 759.593
-105.44 47.9583 758.734
-105.44 49.3188 758.734
-105.44 50.6793 758.734
-104.965 51.8054 755.316
-104.965 53.1598 755.316
-104.965 54.5142 755.316
-104.965 55.8686 755.316
-105.44 57.4819 758.734
-105.44 58.8424 758.734
-82.413 135.317 593.033
-82.413 136.38 593.033
-82.3402 137.322 592.509
-82.2675 138.262 591.986
-82.3402 139.447 592.509
-82.1949 140.262 591.464
-81.5477 140.21 586.807
-81.2634 140.769 584.761
-80.9809 141.325 582.728
-80.422 141.387 578.706
-80.2834 142.179 577.709
-80.0765 142.846 576.22
-80.0078 143.756 575.726
-79.8707 144.54 574.739
-79.8707 145.571 574.739
-79.6659 146.225 573.265
-79.4621 146.877 571.799
-79.0577 147.149 568.889
-78.9239 147.919 567.926
-78.9239 148.937 567.926
-78.5911 149.323 565.532
-78.3928 149.958 564.105
-77.9992 150.211 561.272
-77.8689 150.965 560.335
-77.4805 151.212 557.54
-77.3519 151.959 556.615
-76.9687 152.199 553.857
-76.9052 153.066 553.4
-76.5892 153.425 551.126
-75.9032 154.01 546.189
-75.5953 154.361 543.974
-75.4729 155.085 543.093
-75.4119 155.932 542.654
-75.4119 156.905 542.654
-75.4119 157.878 542.654
-75.3509 158.723 542.215
-75.1686 159.309 540.904
-75.1686 160.279 540.904
-74.9872 160.86 539.598
-74.9269 161.697 539.164
-74.5673 161.883 536.576
-74.152 161.938 533.588
-73.9754 162.507 532.318
-73.8582 163.203 531.474
-73.4508 163.25 528.542
-73.22 163.682 526.882
-72.9907 164.111 525.231
-72.6493 164.281 522.775
-72.5927 165.09 522.368
-72.4798 165.768 521.556
-72.0874 165.801 518.732
-71.8651 166.217 517.132
-71.7545 166.887 516.336
-71.2608 167.578 512.783
-71.2063 168.368 512.391
-70.8814 168.515 510.054
-70.8814 169.429 510.054
-69.559 171.654 500.538
-69.611 172.68 500.911
-69.559 173.449 500.538
-69.559 174.346 500.538
-69.4036 174.852 499.42
-69.1975 175.226 497.936
-68.4354 175.062 492.453
-68.3351 175.687 491.731
-67.8872 177.164 488.507
-67.6899 177.522 487.088
-67.6408 178.266 486.735
-67.4939 178.75 485.677
-67.3963 179.361 484.975
-67.299 179.97 484.275
-67.2504 180.708 483.925
-67.2019 181.445 483.576
-67.1052 182.05 482.88
-66.8165 182.129 480.803
-66.7209 182.729 480.115
-66.5779 183.197 479.086
-66.2938 183.27 477.042
-66.0589 183.473 475.351
-65.7792 183.545 473.338
-65.6402 184.004 472.338
-65.4558 184.332 471.012
-65.1356 184.271 468.707
-64.9088 184.467 467.075
-64.8186 185.047 466.426
-96.241 -63.8461 701.59
-96.6453 -62.8511 704.538
-96.9509 -61.7824 706.765
-96.8488 -60.4514 706.021
-96.8488 -59.1854 706.021
-96.747 -57.8585 705.279
-96.8488 -56.6534 706.021
-96.5439 -55.213 703.799
-96.3418 -53.838 702.325
-96.1404 -52.4688 700.857
-96.4427 -51.3731 703.061
-96.8488 -50.3234 706.021
-97.0531 -49.1609 707.511
-97.1556 -47.9428 708.258
-97.1556 -46.6728 708.258
-97.0531 -45.3549 707.511
-84.9551 -34.1486 619.317
-84.8767 -33.0076 618.746
-84.8767 -31.8981 618.746
-84.8767 -30.7886 618.746
-84.9551 -29.7065 619.317
-85.0336 -28.6224 619.889
-84.9551 -27.4855 619.317
-84.9551 -26.3749 619.317
-84.9551 -25.2644 619.317
-84.9551 -24.1539 619.317
-84.8767 -23.0221 618.746
-84.8767 -21.9126 618.746
-84.9551 -20.8223 619.317
-85.4284 -19.8216 622.767
-85.5078 -18.7223 623.346
-85.5078 -17.6045 623.346
-104.791 42.8067 763.918
-104.791 44.1765 763.918
-104.553 45.4428 762.182
-104.08 46.5977 758.734
-103.845 47.85 757.021
-103.611 49.0966 755.316
-103.146 50.2248 751.929
-103.146 51.5731 751.929
-103.146 52.9214 751.929
-103.611 54.5142 755.316
-103.146 55.618 751.929
-104.08 57.4819 758.734
-104.08 58.8424 758.734
-81.4216 135.437 593.558
-81.3496 136.38 593.033
-81.2777 137.322 592.509
-81.206 138.262 591.986
-81.2777 139.447 592.509
-81.0629 140.138 590.943
-80.4955 140.21 586.807
-80.2148 140.769 584.761
-80.0055 141.448 583.235
-79.5903 141.754 580.208
-79.4528 142.548 579.206
-79.1793 143.092 577.212
-79.0433 143.879 576.22
-78.9077 144.664 575.232
-78.9077 145.696 575.232
-78.7726 146.476 574.247
-78.4368 146.877 571.799
-78.0376 147.149 568.889
-77.9055 147.919 567.926
-77.9055 148.937 567.926
-77.8396 149.828 567.445
-77.5117 150.211 565.055
-76.9928 150.211 561.272
-76.7359 150.713 559.4
-76.6081 151.464 558.468
-76.4173 152.085 557.077
-75.9755 152.199 553.857
-75.9128 153.066 553.4
-75.601 153.425 551.126
-75.4151 154.034 549.771
-74.9848 154.135 546.634
-74.8628 154.863 545.745
-74.6199 155.336 543.974
-74.4991 156.059 543.093
-74.4991 157.032 543.093
-74.4388 157.878 542.654
-74.3786 158.723 542.215
-74.1389 159.181 540.468
-74.1987 160.279 540.904
-74.0196 160.86 539.598
-73.9601 161.697 539.164
-73.8414 162.403 538.299
-73.137 161.81 533.164
-73.0209 162.507 532.318
-72.6749 162.687 529.795
-72.446 163.122 528.126
-72.2752 163.682 526.882
-72.1053 164.24 525.643
-71.8239 164.538 523.591
-71.6561 165.09 522.368
-71.5446 165.768 521.556
-71.1573 165.801 518.732
-71.0474 166.474 517.931
-70.7741 166.759 515.939
-70.503 167.963 513.962
-70.3413 168.497 512.783
-69.9668 168.515 510.054
-70.0201 169.558 510.442
-68.7128 170.884 500.911
-68.6615 171.654 500.538
-68.7128 172.68 500.911
-68.6615 173.449 500.538
-68.6103 174.216 500.164
-68.5081 174.852 499.42
-68.254 175.096 497.567
-67.8013 174.821 494.267
-67.7015 175.449 493.54
-67.5028 175.816 492.091
-67.06 177.293 488.863
-66.8165 177.522 487.088
-66.7681 178.266 486.735
-66.623 178.75 485.677
-66.5267 179.361 484.975
-66.4306 179.97 484.275
-66.3348 180.578 483.576
-66.3348 181.445 483.576
-66.1441 181.788 482.186
-65.9544 182.129 480.803
-65.9072 182.86 480.459
-65.8129 183.459 479.771
-65.485 183.401 477.381
-65.1603 183.343 475.014
-64.8846 183.416 473.005
-64.7932 184.004 472.338
-64.5206 184.073 470.351
-64.2054 184.014 468.053
-64.0267 185.175 466.75
-95.7845 -64.3849 707.511
-95.6835 -63.0497 706.765
-95.987 -61.9783 709.007
-95.7845 -60.5789 707.511
-95.7845 -59.3102 707.511
-95.7845 -58.0416 707.511
-95.7845 -56.7729 707.511
-95.6835 -55.4458 706.765
-95.382 -54.0077 704.538
-95.0824 -52.5787 702.325
-95.2819 -51.427 703.799
-95.5828 -50.3234 706.021
-95.6835 -49.1091 706.765
-95.7845 -47.8922 707.511
-95.7845 -46.6236 707.511
-95.7845 -45.3549 707.511
-95.7845 -44.0862 707.511
-84.2335 -34.307 622.19
-84.0775 -33.1299 621.037
-83.9997 -31.9866 620.463
-83.9221 -30.8455 619.889
-84.1554 -29.8166 621.613
-84.1554 -28.702 621.613
-84.0775 -27.5618 621.037
-83.9997 -26.4237 620.463
-83.9221 -25.2878 619.889
-83.9221 -24.1762 619.889
-83.9221 -23.0647 619.889
-83.9997 -21.9734 620.463
-84.2335 -20.9189 622.19
-84.5472 -18.7572 624.507
-84.5472 -17.6373 624.507
-84.39 -16.4868 623.346
-123.375 16.7495 911.305
-102.719 45.2372 758.734
-102.256 46.3878 755.316
-102.487 47.85 757.021
-102.027 48.9863 753.618
-101.798 50.2248 751.929
-101.798 51.5731 751.929
-101.798 52.9214 751.929
-102.027 54.3917 753.618
-80.2153 135.197 592.509
-80.2153 136.26 592.509
-80.2153 137.322 592.509
-80.1445 138.262 591.986
-80.2862 139.57 593.033
-80.0738 140.262 591.464
-79.7223 140.702 588.868
-79.5825 141.509 587.836
-78.482 142.671 579.706
-78.0771 142.969 576.716
-77.9431 143.756 575.726
-77.6764 144.293 573.756
-77.6764 145.322 573.756
-77.5437 146.101 572.776
-77.4115 146.877 571.799
-77.1484 147.399 569.856
-76.9523 148.044 568.407
-76.8871 148.937 567.926
-76.6276 149.449 566.009
-76.3698 149.958 564.105
-75.9228 150.086 560.803
-75.481 150.212 557.54
-75.5438 151.338 558.004
-75.4183 152.085 557.077
-74.9205 152.074 553.4
-74.8588 152.94 552.943
-74.4903 153.174 550.222
-74.3683 153.908 549.321
-74.065 154.261 547.08
-74.0046 155.116 546.634
-73.8842 155.842 545.745
-73.7043 156.439 544.416
-73.5848 157.16 543.534
-73.5252 158.006 543.093
-73.4658 158.851 542.654
-73.1698 159.181 540.468
-73.2879 160.408 541.34
-73.1108 160.989 540.033
-72.9933 161.697 539.164
-72.9347 162.533 538.731
-72.181 161.81 533.164
-72.0664 162.507 532.318
-71.8952 163.074 531.053
-71.4427 163.94 527.711
-71.2186 164.369 526.055
-71.0514 164.924 524.82
-70.7194 165.09 522.368
-70.6094 165.768 521.556
-70.2815 165.929 519.133
-70.1729 166.602 518.331
-69.7953 166.63 515.542
-69.4218 166.658 512.783
-69.5281 167.834 513.568
-69.4749 168.626 513.176
-69.3158 169.158 512
-69.3158 170.076 512
-67.8652 171.011 501.286
-67.8145 171.782 500.911
-67.8145 172.68 500.911
-67.8145 173.578 500.911
-67.7639 174.346 500.538
-67.7134 175.113 500.164
-67.4118 175.226 497.936
-66.915 174.821 494.267
-66.8657 175.578 493.903
-66.6205 175.816 492.091
-66.2801 175.796 489.577
-66.1834 176.416 488.863
-66.1834 177.293 488.863
-66.1352 178.04 488.507
-66.039 178.655 487.797
-65.7998 178.88 486.029
-65.657 179.361 484.975
-65.5149 179.841 483.925
-65.4205 180.448 483.228
-65.4205 181.314 483.228
-65.2325 181.657 481.839
-65.0922 182.129 480.803
-64.9991 182.729 480.115
-64.8135 183.066 478.744
-64.629 183.401 477.381
-64.3541 183.473 475.351
-63.9913 183.286 472.671
-63.7666 183.487 471.012
-63.588 183.816 469.692
-63.3661 184.014 468.053
-63.2338 184.467 467.075
-63.2778 185.433 467.401
-94.5158 -65.6536 707.511
-94.5158 -64.3849 707.511
-94.5158 -63.1163 707.511
-94.5158 -61.8476 707.511
-94.4162 -60.5151 706.765
-94.4162 -59.2477 706.765
-94.4162 -57.9804 706.765
-94.4162 -56.7131 706.765
-94.2176 -55.3291 705.279
-94.2176 -54.0645 705.279
-94.1187 -52.7444 704.538
-94.3168 -51.5894 706.021
-94.4162 -50.3764 706.765
-94.5158 -49.1609 707.511
-94.6156 -47.9428 708.258
-94.6156 -46.6728 708.258
-94.6156 -45.4028 708.258
-94.6156 -44.1328 708.258
-83.195 -34.3389 622.767
-82.9639 -33.1299 621.037
-83.1178 -32.0757 622.19
-83.1178 -30.96 622.19
-83.195 -29.872 622.767
-83.195 -28.7553 622.767
-83.1178 -27.613 622.19
-83.0408 -26.4727 621.613
-82.8871 -25.3112 620.463
-82.9639 -24.221 621.037
-83.0408 -23.1288 621.613
-83.0408 -22.0142 621.613
-83.195 -20.9383 622.767
-83.3497 -19.8585 623.926
-83.3497 -18.7397 623.926
-83.4274 -17.6373 624.507
-83.5051 -16.5329 625.089
-101.244 42.4681 757.876
-101.244 43.8271 757.876
-100.902 45.0334 755.316
-100.675 46.2836 753.618
-100.902 47.7422 755.316
-100.45 48.8764 751.929
-100.225 50.1124 750.247
-100.337 51.5153 751.087
-100.45 52.9214 751.929
-100.45 54.2697 751.929
-100.45 55.618 751.929
-100.45 56.9663 751.929
-79.504 135.797 595.138
-79.2929 136.501 593.558
-79.2228 137.444 593.033
-79.2228 138.507 593.033
-79.2228 139.57 593.033
-79.1528 140.51 592.509
-79.0829 141.447 591.986
-78.9436 142.257 590.943
-77.7112 142.123 581.718
-77.4425 142.671 579.706
-77.1093 143.092 577.212
-76.9768 143.879 576.22
-76.9107 144.788 575.726
-76.9107 145.821 575.726
-76.6475 146.35 573.756
-76.4513 147.002 572.287
-76.2561 147.65 570.826
-75.933 148.044 568.407
-75.8687 148.937 567.926
-75.4217 149.072 564.579
-74.9172 149.08 560.803
-74.7921 149.835 559.867
-74.5432 150.337 558.004
-74.5432 151.338 558.004
-74.4194 152.085 557.077
-73.9282 152.074 553.4
-73.685 152.563 551.579
-73.3833 152.923 549.321
-73.3232 153.782 548.871
-73.084 154.261 547.08
-72.965 154.989 546.189
-72.965 155.969 546.189
-72.9056 156.82 545.745
-72.6691 157.287 543.974
-72.4341 157.751 542.215
-72.1425 158.084 540.033
-72.0845 158.924 539.598
-72.1425 160.021 540.033
-72.0845 160.86 539.598
-71.9687 161.567 538.731
-71.4521 161.367 534.865
-71.1119 161.553 532.318
-71.1119 162.507 532.318
-70.9992 163.203 531.474
-69.7284 164.961 521.961
-69.4043 165.126 519.536
-69.297 165.801 518.732
-69.2434 166.602 518.331
-68.9769 166.887 516.336
-68.9238 167.684 515.939
-68.6072 167.834 513.568
-68.5547 168.626 513.176
-68.4499 169.287 512.391
-68.5023 170.336 512.783
-68.4499 171.125 512.391
-67.1671 171.524 502.789
-67.1671 172.426 502.789
-67.1671 173.327 502.789
-66.9663 173.708 501.286
-66.9163 174.476 500.911
-66.8664 175.244 500.538
-66.5683 175.356 498.306
-66.0287 174.821 494.267
-66.0287 175.707 494.267
-65.7863 175.945 492.453
-65.6899 176.569 491.731
-65.6899 177.451 491.731
-65.5937 178.071 491.011
-65.4022 178.429 489.577
-65.3068 179.046 488.863
-64.9282 178.88 486.029
-64.7874 179.361 484.975
-64.6006 179.711 483.576
-64.554 180.448 483.228
-64.554 181.314 483.228
-64.4148 181.788 482.186
-64.1841 181.998 480.459
-64.1381 182.729 480.115
-64.0923 183.459 479.771
-63.8184 183.531 477.721
-63.0993 183.157 472.338
-62.7019 182.845 469.363
-62.5268 183.174 468.053
-62.3962 183.629 467.075
-62.3528 184.338 466.75
-62.3962 185.304 467.075
-94.0407 -68.7713 713.532
-93.2471 -65.6536 707.511
-93.1489 -64.3171 706.765
-93.1489 -63.0497 706.765
-93.1489 -61.7824 706.765
-93.1489 -60.5151 706.765
-93.0508 -59.1854 706.021
-93.0508 -57.9194 706.021
-93.0508 -56.6534 706.021
-92.8553 -55.271 704.538
-92.7579 -53.951 703.799
-92.8553 -52.7444 704.538
-92.953 -51.5351 705.279
-93.1489 -50.3764 706.765
-93.2471 -49.1609 707.511
-93.3456 -47.9428 708.258
-93.3456 -46.6728 708.258
-93.3456 -44.1328 708.258
-82.0021 -34.307 622.19
-81.9261 -33.1606 621.613
-81.8503 -32.0163 621.037
-81.8503 -30.9026 621.037
-81.9261 -29.8166 621.613
-81.9261 -28.702 621.613
-82.0021 -27.613 622.19
-81.9261 -26.4727 621.613
-81.8503 -25.3346 621.037
-82.1545 -24.311 623.346
-82.0783 -23.1718 622.767
-82.0783 -22.055 622.767
-82.1545 -20.9578 623.346
-82.5381 -19.9327 626.256
-82.3075 -18.7572 624.507
-82.231 -17.6209 623.926
-82.7699 -16.6103 628.015
-100.225 42.6126 760.454
-99.9981 43.8767 758.734
-98.9902 44.7813 751.087
-98.9902 46.1281 751.087
-98.9902 47.4749 751.087
-98.6588 48.6582 748.572
-98.4391 49.8892 746.905
-98.8795 51.4577 750.247
-98.9902 52.8621 751.087
-99.1012 54.2697 751.929
-99.1012 55.618 751.929
-99.1012 56.9663 751.929
-99.1012 58.3147 751.929
-87.3501 82.2992 662.767
-87.1778 83.323 661.46
-87.0062 84.3427 660.158
-87.0062 85.5265 660.158
-87.0062 86.7102 660.158
-87.0062 87.894 660.158
-78.3673 135.677 594.61
-78.1594 136.38 593.033
-78.0903 137.322 592.509
-78.0903 138.385 592.509
-78.0903 139.447 592.509
-78.0903 140.51 592.509
-78.0903 141.572 592.509
-78.0903 142.634 592.509
-76.7346 142.246 582.223
-76.403 142.671 579.706
-76.1398 143.215 577.709
-75.9435 143.879 576.22
-75.8784 144.788 575.726
-75.7483 145.571 574.739
-75.1686 145.479 570.34
-74.9138 146.005 568.407
-74.8504 146.9 567.926
-74.5348 147.295 565.532
-74.4093 148.059 564.579
-74.2843 148.821 563.631
-73.9116 149.08 560.803
-73.7882 149.835 559.867
-73.5427 150.337 558.004
-73.5427 151.338 558.004
-73.4205 152.085 557.077
-72.8757 151.948 552.943
-72.4576 152.062 549.771
-72.3983 152.923 549.321
-72.339 153.782 548.871
-72.0442 154.135 546.634
-71.9856 154.989 546.189
-71.927 155.842 545.745
-71.6937 156.312 543.974
-71.5776 157.032 543.093
-71.4618 157.751 542.215
-71.2889 158.339 540.904
-71.1169 158.924 539.598
-71.1741 160.021 540.033
-71.0597 160.73 539.164
-70.832 161.179 537.436
-70.5493 161.496 535.292
-70.1574 161.553 532.318
-70.1017 162.378 531.896
-69.9907 163.074 531.053
-69.8801 163.767 530.214
-69.0612 164.666 524
-68.7924 164.961 521.961
-68.579 165.383 520.342
-68.3668 165.801 518.732
-68.3668 166.731 518.732
-68.051 166.887 516.336
-67.9987 167.684 515.939
-67.7382 167.963 513.962
-67.6863 168.755 513.568
-67.5312 169.287 512.391
-67.5312 170.206 512.391
-67.4281 170.864 511.61
-67.223 171.259 510.054
-67.1209 171.912 509.279
-66.9177 172.302 507.737
-66.3153 171.653 503.166
-66.3153 172.555 503.166
-66.3153 173.457 503.166
-66.1169 173.838 501.661
-65.9689 174.346 500.538
-65.8215 174.852 499.42
-65.5774 175.096 497.567
-65.2386 175.079 494.997
-65.1424 175.707 494.267
-65.0466 176.334 493.54
-64.9033 176.828 492.453
-64.8557 177.581 492.091
-64.7606 178.202 491.37
-64.5243 178.429 489.577
-64.3833 178.916 488.507
-64.1497 179.139 486.735
-64.0567 179.751 486.029
-64.0103 180.492 485.677
-63.7334 180.578 483.576
-63.6875 181.314 483.228
-63.5959 181.919 482.533
-63.3679 182.129 480.803
-63.3225 182.86 480.459
-63.3225 183.722 480.459
-62.605 182.491 475.014
-62.5607 183.214 474.678
-62.1648 182.9 471.674
-61.8602 182.845 469.363
-61.6876 183.174 468.053
-61.6016 183.757 467.401
-61.5587 184.467 467.075
-61.5587 185.304 467.075
-92.7613 -70.0507 713.532
-92.7613 -68.7713 713.532
-92.7613 -67.4918 713.532
-92.7613 -66.2123 713.532
-91.9785 -64.3849 707.511
-92.0756 -63.1829 708.258
-91.9785 -61.8476 707.511
-91.8815 -60.5151 706.765
-91.8815 -59.2477 706.765
-91.8815 -57.9804 706.765
-91.7848 -56.6534 706.021
-91.6883 -55.3291 705.279
-91.6883 -54.0645 705.279
-91.592 -52.7444 704.538
-91.7848 -51.5894 706.021
-91.7848 -50.3234 706.021
-91.9785 -49.1609 707.511
-92.1729 -47.9935 709.007
-92.0756 -46.6728 708.258
-92.0756 -45.4028 708.258
-92.0756 -44.1328 708.258
-80.8864 -34.307 622.19
-80.8864 -33.1913 622.19
-80.8115 -32.0459 621.613
-80.8864 -30.96 622.19
-80.8115 -29.8166 621.613
-80.8864 -28.7286 622.19
-80.9615 -27.6386 622.767
-80.8864 -26.4973 622.19
-80.8864 -25.3816 622.19
-80.9615 -24.2885 622.767
-81.0368 -23.1933 623.346
-80.9615 -22.055 622.767
-81.6438 -19.9887 628.015
-81.4912 -18.8273 626.842
-81.1877 -17.6373 624.507
-81.4151 -16.5638 626.256
-81.3392 -15.4264 625.672
-99.0859 37.2426 762.182
-98.8612 38.5218 760.454
-98.6375 39.7951 758.734
-98.6375 41.1557 758.734
-98.8612 42.6126 760.454
-98.4149 43.7777 757.021
-97.8626 44.8818 752.773
-97.8626 46.2316 752.773
-97.8626 47.5815 752.773
-97.7529 48.8764 751.929
-97.3165 50.0005 748.572
-97.5342 51.4577 750.247
-97.5342 52.803 750.247
-97.3165 54.0274 748.572
-97.0998 55.2464 746.905
-97.3165 56.712 748.572
-97.3165 58.0543 748.572
-86.8482 80.5592 668.048
-86.6755 81.5945 666.72
-86.1617 82.2992 662.767
-86.0766 83.4053 662.113
-86.0766 84.5925 662.113
-85.9917 85.6952 661.46
-86.0766 86.967 662.113
-85.8224 87.894 660.158
-76.892 137.08 591.464
-77.0279 138.385 592.509
-77.0279 139.447 592.509
-77.096 140.634 593.033
-77.2326 141.948 594.084
-77.1642 142.887 593.558
-75.9543 141.694 584.251
-75.6906 142.246 582.223
-75.4287 142.794 580.208
-75.3635 143.71 579.706
-74.9747 144.003 576.716
-74.9103 144.913 576.22
-74.5261 145.197 573.265
-74.02 145.232 569.372
-73.9572 146.129 568.889
-73.832 146.9 567.926
-73.5207 147.295 565.532
-73.3969 148.059 564.579
-73.0281 148.323 561.742
-72.906 149.08 560.803
-72.8451 149.96 560.335
-72.663 150.588 558.934
-72.4818 151.212 557.54
-72.3615 151.959 556.615
-71.5304 151.201 550.222
-71.3548 151.814 548.871
-71.3548 152.798 548.871
-71.122 153.28 547.08
-71.064 154.135 546.634
-71.0062 154.989 546.189
-70.9484 155.842 545.745
-70.8331 156.566 544.858
-70.7182 157.287 543.974
-70.6037 158.006 543.093
-70.4896 158.723 542.215
-70.2058 159.052 540.033
-70.2624 160.15 540.468
-70.1493 160.86 539.598
-69.8123 161.05 537.006
-69.534 161.367 534.865
-69.3129 161.81 533.164
-69.2578 162.636 532.741
-69.148 163.332 531.896
-68.8205 163.508 529.377
-67.9623 164.281 522.775
-67.751 164.705 521.15
-67.5935 165.254 519.938
-67.5411 166.058 519.536
-67.4888 166.86 519.133
-67.3325 167.403 517.931
-67.1252 167.813 516.336
-66.7143 167.706 513.176
-66.6633 168.497 512.783
-66.5615 169.158 512
-66.6124 170.206 512.391
-66.46 170.734 511.22
-66.3084 171.259 510.054
-66.258 172.042 509.666
-65.4622 170.879 503.544
-65.4622 171.782 503.544
-65.315 172.297 502.412
-65.2662 173.068 502.036
-65.1199 173.578 500.911
-65.0228 174.216 500.164
-64.926 174.852 499.42
-64.7332 175.226 497.936
-64.5893 175.727 496.83
-64.351 175.967 494.997
-64.2561 176.594 494.267
-64.1616 177.219 493.54
-64.0673 177.842 492.814
-63.9264 178.333 491.731
-63.6929 178.56 489.935
-63.4611 178.785 488.152
-63.231 179.009 486.382
-63.1852 179.751 486.029
-63.1395 180.492 485.677
-62.9571 180.839 484.275
-62.8663 181.445 483.576
-62.7758 182.05 482.88
-62.461 181.998 480.459
-62.1937 182.077 478.403
-61.7532 182.491 475.014
-61.7532 183.343 475.014
-61.3621 183.028 472.006
-61.0186 182.845 469.363
-60.9333 183.43 468.707
-60.8058 183.885 467.727
-60.7635 184.595 467.401
-60.7212 185.304 467.075
-92.1681 -77.0216 718.886
-92.0695 -75.6515 718.116
-91.971 -74.2843 717.348
-91.8727 -72.92 716.582
-91.8727 -71.635 716.582
-91.8727 -70.3501 716.582
-91.8727 -69.0652 716.582
-91.8727 -67.7802 716.582
-91.0942 -65.9318 710.509
-91.0942 -64.6577 710.509
-90.7098 -63.1163 707.511
-90.7098 -61.8476 707.511
-90.6142 -60.5151 706.765
-90.6142 -59.2477 706.765
-90.7098 -58.0416 707.511
-90.7098 -56.7729 707.511
-90.6142 -55.4458 706.765
-90.5188 -54.1214 706.021
-90.6142 -52.9111 706.765
-90.7098 -51.6982 707.511
-90.6142 -50.3764 706.765
-90.7098 -49.1609 707.511
-90.9016 -47.9935 709.007
-90.8056 -46.6728 708.258
-90.8056 -45.4028 708.258
-90.8056 -44.1328 708.258
-90.7098 -42.8176 707.511
-79.919 -34.3708 623.346
-79.8448 -33.2221 622.767
-79.8448 -32.1054 622.767
-79.8448 -30.9887 622.767
-79.8448 -29.872 622.767
-79.8448 -28.7553 622.767
-79.8448 -27.6386 622.767
-79.8448 -26.5219 622.767
-79.8448 -25.4052 622.767
-79.919 -24.311 623.346
-79.9934 -23.2149 623.926
-79.919 -22.0755 623.346
-79.919 -20.9578 623.346
-80.3672 -19.9513 626.842
-80.3672 -18.8273 626.842
-80.2172 -17.6702 625.672
-80.3672 -16.5792 626.842
-80.2172 -15.4264 625.672
-97.4976 35.7946 760.454
-97.7192 37.2426 762.182
-97.4976 38.5218 760.454
-97.4976 39.8854 760.454
-97.277 42.5162 758.734
-96.4046 43.4832 751.929
-96.2966 44.7813 751.087
-96.2966 46.1281 751.087
-96.4046 47.5281 751.929
-96.2966 48.8217 751.087
-96.0814 50.0564 749.408
-96.1889 51.4577 750.247
-96.1889 52.803 750.247
-95.9742 54.0274 748.572
-95.7605 55.2464 746.905
-95.9742 56.712 748.572
-95.9742 58.0543 748.572
-85.3104 81.4326 665.397
-84.9732 82.2992 662.767
-84.9732 83.4877 662.767
-84.8893 84.5925 662.113
-84.8893 85.7798 662.113
-84.8056 86.8813 661.46
-84.6387 87.894 660.158
-75.4324 136.358 588.351
-75.4324 137.413 588.351
-75.5649 138.712 589.385
-75.8984 140.385 591.986
-75.9654 141.572 592.509
-75.9654 142.634 592.509
-75.698 143.191 590.423
-74.8415 142.618 583.743
-74.3883 142.794 580.208
-74.2598 143.586 579.206
-73.624 143.387 574.247
-73.4354 144.046 572.776
-73.3728 144.95 572.287
-73.0611 145.356 569.856
-72.9371 146.129 568.889
-72.8136 146.9 567.926
-72.5067 147.295 565.532
-72.2629 147.811 563.631
-71.8403 147.951 560.335
-71.7804 148.831 559.867
-71.5415 149.337 558.004
-71.482 150.212 557.54
-71.4227 151.086 557.077
-71.1273 151.456 554.773
-70.5438 151.201 550.222
-70.4283 151.938 549.321
-70.2556 152.548 547.974
-70.0268 153.031 546.189
-69.9698 153.885 545.745
-69.9129 154.737 545.301
-69.7428 155.336 543.974
-69.6863 156.185 543.534
-69.6299 157.032 543.093
-69.5173 157.751 542.215
-69.1261 157.83 539.164
-69.0706 158.669 538.731
-69.1261 159.763 539.164
-68.8494 160.087 537.006
-68.6844 160.664 535.719
-68.3568 160.854 533.164
-68.2483 161.553 532.318
-68.2483 162.507 532.318
-68.1402 163.203 531.474
-67.8713 163.508 529.377
-67.0771 164.409 523.183
-66.7647 164.577 520.746
-66.6095 165.126 519.536
-66.6095 166.058 519.536
-66.558 166.86 519.133
-66.2503 167.016 516.734
-66.1993 167.813 516.336
-65.8445 167.834 513.568
-65.7438 168.497 512.783
-65.6936 169.287 512.391
-65.6936 170.206 512.391
-65.6434 170.994 512
-65.3938 171.259 510.054
-65.3441 172.042 509.666
-65.3441 172.956 509.666
-64.5592 171.782 503.544
-64.5108 172.555 503.166
-64.2697 172.809 501.286
-64.1738 173.449 500.538
