ply
format ascii 1.0
element vertex 2016
property float x
property float y
property float z
end_header
50.1124 158.689 532.318
50.0727 159.517 531.896
49.8355 159.711 529.377
49.757 161.355 528.542
49.484 161.412 525.643
49.2524 161.595 523.183
49.2141 162.406 522.775
49.1757 163.217 522.368
49.1375 164.025 521.961
49.023 164.577 520.746
48.8712 164.999 519.133
48.8334 165.801 518.732
48.5705 165.833 515.939
48.5331 166.63 515.542
48.5705 167.684 515.939
48.5705 168.609 515.939
47.9435 170.085 509.279
47.9435 170.999 509.279
47.7622 171.262 507.353
47.5106 171.265 504.681
47.6541 172.689 506.204
47.4749 172.944 504.301
47.4392 173.718 503.922
47.2617 173.968 502.036
46.9804 173.827 499.048
46.841 175.096 497.567
46.8062 175.858 497.198
46.841 176.88 497.567
46.8062 177.641 497.198
46.599 177.742 494.997
46.3936 177.842 492.814
45.7548 177.136 486.029
45.7217 177.879 485.677
45.6886 178.621 485.326
45.6556 179.361 484.975
44.9727 178.392 477.721
44.6546 177.981 474.343
44.7179 179.084 475.014
44.7496 180.064 475.351
44.9087 181.559 477.042
44.9407 182.545 477.381
44.9727 183.531 477.721
45.0368 187.225 478.403
64.5379 -133.6 672.739
64.4087 -132.128 671.392
64.3443 -130.793 670.72
64.28 -129.461 670.05
64.3443 -128.388 670.72
64.4087 -127.313 671.392
64.5379 -126.362 672.739
64.5379 -125.155 672.739
64.6677 -124.198 674.091
64.8632 -123.361 676.129
64.9943 -122.396 677.495
65.1258 -121.426 678.867
65.2579 -120.453 680.244
65.4571 -119.597 682.32
65.5238 -118.494 683.015
65.5905 -117.389 683.711
65.6575 -116.281 684.409
65.6575 -115.054 684.409
65.6575 -113.827 684.409
65.7245 -112.715 685.108
65.8591 -111.714 686.51
65.9266 -110.596 687.214
66.1979 -109.814 690.042
66.266 -108.689 690.752
66.266 -107.45 690.752
66.1979 -106.102 690.042
66.1979 -104.865 690.042
66.266 -103.734 690.752
66.266 -102.496 690.752
66.266 -101.257 690.752
66.266 -100.018 690.752
66.266 -98.7798 690.752
66.4714 -97.8434 692.893
87.3057 11.8312 910.068
87.1874 13.4448 908.835
87.3057 15.0949 910.068
87.0695 16.6815 907.605
85.5643 17.9925 891.915
85.1115 19.4882 887.196
60.1911 120.664 627.428
60.0227 121.448 625.672
60.0227 122.57 625.672
59.9668 123.576 625.089
59.1944 123.091 617.038
59.14 124.083 616.471
58.9234 124.73 614.213
58.9234 125.832 614.213
58.8695 126.817 613.651
58.6548 127.451 611.413
58.4948 128.197 609.746
58.3887 129.055 608.639
58.0725 129.442 605.343
57.9679 130.292 604.253
57.7597 130.904 602.083
57.7079 131.865 601.543
57.7079 132.944 601.543
57.6562 133.902 601.004
57.5016 134.618 599.393
57.2968 135.21 597.258
57.2458 136.16 596.726
56.741 136.019 591.464
56.7911 137.201 591.986
56.4919 137.534 588.868
56.3435 138.226 587.321
56.4919 139.646 588.868
56.4919 140.702 588.868
56.3435 141.385 587.321
54.4829 142.827 567.926
54.299 143.36 566.009
54.2075 144.131 565.055
54.2075 145.144 565.055
54.0709 145.789 563.631
53.8446 146.186 561.272
53.7547 146.946 560.335
53.665 147.704 559.4
53.6203 148.583 558.934
53.531 149.337 558.004
53.4421 150.087 557.077
53.0894 150.089 553.4
52.9583 150.708 552.033
52.6981 151.938 549.321
52.526 152.424 547.527
52.4404 153.155 546.634
52.3125 153.76 545.301
52.1007 154.111 543.093
52.0164 154.834 542.215
51.9325 155.555 541.34
51.807 156.147 540.033
51.807 157.116 540.033
51.7237 157.83 539.164
51.5167 158.161 537.006
51.3932 158.743 535.719
51.1075 158.815 532.741
51.0669 159.644 532.318
50.7848 159.711 529.377
50.7447 160.534 528.959
50.6648 161.228 528.126
50.3871 161.286 525.231
50.1906 161.595 523.183
50.1515 162.406 522.775
50.1124 164.153 522.368
50.0345 164.833 521.556
49.8407 165.126 519.536
49.8407 166.058 519.536
49.5719 166.089 516.734
49.4956 166.759 515.939
49.4576 167.555 515.542
49.4576 168.479 515.542
48.8197 170.869 508.893
48.5984 171.003 506.586
48.3792 171.136 504.301
48.4886 172.429 505.441
48.3428 172.814 503.922
48.3428 173.718 503.922
47.8041 173.569 498.306
47.7332 174.204 497.567
47.6978 174.966 497.198
47.7332 175.988 497.567
47.7332 176.88 497.567
47.7332 177.773 497.567
47.4516 177.611 494.632
47.0353 176.932 490.293
46.694 177.394 486.735
46.5926 177.879 485.677
46.5926 178.75 485.677
46.5252 179.361 484.975
45.7967 178.265 477.381
45.5696 178.233 475.014
45.6019 179.211 475.351
45.6019 180.064 475.351
45.6343 181.044 475.688
45.7316 182.285 476.703
45.8293 183.531 477.721
65.547 -133.199 670.72
65.4815 -131.864 670.05
65.4162 -130.532 669.382
65.4815 -129.461 670.05
65.6784 -128.645 672.065
65.7443 -127.568 672.739
65.8764 -126.616 674.091
65.8764 -125.407 674.091
66.0091 -124.448 675.449
66.1423 -123.486 676.812
66.2761 -122.52 678.18
66.4104 -121.549 679.555
66.5452 -120.575 680.934
66.7485 -119.719 683.015
66.8165 -118.615 683.711
66.8165 -117.389 683.711
66.8847 -116.281 684.409
66.8847 -115.054 684.409
66.8847 -113.827 684.409
67.0215 -112.83 685.808
67.0901 -111.714 686.51
67.4352 -108.577 690.042
67.5047 -107.45 690.752
67.4352 -106.102 690.042
67.4352 -104.865 690.042
67.5047 -103.734 690.752
88.9376 11.8312 910.068
88.6969 13.4266 907.605
88.5771 15.0337 906.379
88.5771 16.659 906.379
87.396 18.0405 894.294
86.8172 19.514 888.371
61.3162 120.664 627.428
61.0307 123.461 624.507
60.3564 123.205 617.606
60.0247 123.629 614.213
59.915 124.502 613.09
59.9698 125.717 613.651
59.9698 126.817 613.651
59.9698 127.917 613.651
59.6967 128.43 610.857
59.6424 129.408 610.301
59.2114 129.559 605.89
59.1046 130.41 604.797
58.8922 131.022 602.624
58.7866 131.865 601.543
58.7339 132.825 601.004
58.5764 133.544 599.393
58.264 133.9 596.196
58.264 134.969 596.196
57.9037 135.197 592.509
57.5984 135.541 589.385
57.5984 136.598 589.385
57.4974 137.413 588.351
57.4974 138.468 588.351
57.5479 139.646 588.868
57.4974 140.578 588.351
57.447 141.509 587.836
57.2963 142.19 586.294
57.4974 143.743 588.351
55.5483 142.948 568.407
55.4543 143.723 567.445
55.3139 144.374 566.009
55.2673 145.267 565.532
55.1279 145.912 564.105
54.897 146.308 561.742
54.7594 146.946 560.335
54.6225 147.581 558.934
54.4863 148.213 557.54
54.3959 148.965 556.615
54.3057 149.714 555.692
53.9482 149.719 552.033
53.7711 150.214 550.222
53.7271 151.077 549.771
53.5078 151.442 547.527
53.4206 152.175 546.634
53.3771 153.031 546.189
53.1606 153.385 543.974
53.0316 153.986 542.654
52.9887 154.834 542.215
52.9032 155.555 541.34
52.7754 156.147 540.033
52.7754 157.116 540.033
52.6905 157.83 539.164
52.606 158.542 538.299
52.3957 158.87 536.147
51.9802 159.517 531.896
51.8568 160.09 530.633
51.6932 160.534 528.959
51.5712 161.101 527.711
51.3289 161.286 525.231
51.2487 161.974 524.41
51.2086 162.787 524
51.0889 163.344 522.775
51.1287 164.409 523.183
51.0889 165.219 522.775
51.0094 165.897 521.961
50.8116 166.187 519.938
50.382 165.706 515.542
50.382 166.63 515.542
50.382 167.555 515.542
50.4208 168.609 515.939
50.2276 168.885 513.962
49.7699 170.085 509.279
49.6945 170.739 508.507
49.5442 171.132 506.969
49.3949 171.523 505.441
49.5068 172.82 506.586
49.4321 173.466 505.822
49.5442 174.768 506.969
48.5533 173.946 496.83
48.4815 174.578 496.095
48.6254 175.988 497.567
48.6254 176.88 497.567
48.4815 177.247 496.095
47.7748 176.416 488.863
47.5668 177.394 486.735
47.4978 178.008 486.029
47.4634 178.75 485.677
47.4978 179.751 486.029
46.5202 177.759 476.026
46.4543 178.359 475.351
46.4872 179.338 475.688
46.4872 180.191 475.688
46.5864 181.43 476.703
46.5864 182.285 476.703
46.6527 183.401 477.381
46.7192 184.519 478.062
46.7192 185.377 478.062
66.5501 -132.8 668.714
66.6165 -131.733 669.382
66.6165 -130.532 669.382
66.7497 -129.591 670.72
66.8835 -128.645 672.065
66.9506 -127.568 672.739
67.1526 -126.743 674.769
67.288 -125.786 676.129
67.424 -124.825 677.495
67.4921 -123.736 678.18
67.5604 -122.644 678.867
67.6289 -121.549 679.555
67.9041 -120.82 682.32
67.9732 -119.719 683.015
68.112 -118.736 684.409
68.112 -117.508 684.409
68.112 -116.281 684.409
68.112 -115.054 684.409
68.1815 -113.943 685.108
68.2512 -112.83 685.808
90.6926 11.8472 911.305
90.3244 13.4266 907.605
90.2023 15.0337 906.379
90.2023 16.659 906.379
89.1184 18.0646 895.488
88.5275 19.5398 889.55
88.2933 21.079 887.196
62.0928 123.346 623.926
60.9587 124.389 612.53
61.0702 125.717 613.651
61.0144 126.701 613.09
60.903 127.567 611.971
60.7368 128.313 610.301
60.6816 129.29 609.746
60.2979 129.559 605.89
60.2434 130.527 605.343
60.0808 131.258 603.709
59.8116 131.747 601.004
59.7046 132.587 599.929
59.4917 133.186 597.79
59.3331 133.9 596.196
59.2804 134.85 595.666
58.9662 135.197 592.509
58.6038 135.422 588.868
58.6553 136.598 589.385
58.6038 137.534 588.868
58.7069 138.834 589.904
58.7586 140.015 590.423
58.6553 140.826 589.385
58.2458 140.892 585.271
58.195 141.818 584.761
58.0938 142.618 583.743
57.792 142.918 580.71
56.5197 143.845 567.926
56.4241 144.619 566.966
56.2814 145.267 565.532
56.1394 145.912 564.105
55.9981 146.554 562.685
55.8108 147.069 560.803
55.6248 147.581 558.934
55.4861 148.213 557.54
54.9833 149.842 552.488
54.7578 150.214 550.222
54.6681 150.953 549.321
54.4896 151.442 547.527
54.3564 152.051 546.189
54.3564 153.031 546.189
54.2681 153.76 545.301
54.0922 154.236 543.534
54.0046 154.959 542.654
53.787 155.304 540.468
53.7005 156.022 539.598
53.6573 156.863 539.164
53.5712 157.577 538.299
53.3998 158.034 536.576
53.3145 158.743 535.719
53.018 158.815 532.741
53.018 159.771 532.741
52.934 160.471 531.896
52.6417 160.534 528.959
52.6003 161.355 528.542
52.3527 161.539 526.055
52.2707 162.228 525.231
52.2298 163.042 524.82
52.1075 163.599 523.591
52.189 164.795 524.41
52.0669 165.347 523.183
51.9858 166.027 522.368
51.1492 165.198 513.962
51.2671 166.502 515.146
51.3065 167.555 515.542
51.2671 169.274 515.146
50.6447 170.869 508.893
50.4152 171.003 506.586
50.3392 171.652 505.822
50.4152 172.82 506.586
49.4442 173.055 496.83
49.4809 174.075 497.198
49.4442 174.837 496.83
49.4809 175.858 497.198
49.5176 176.88 497.567
49.2982 176.985 495.362
48.616 176.288 488.507
48.616 177.164 488.507
48.4747 177.522 487.088
48.4044 178.137 486.382
48.3694 178.88 486.029
47.4075 177.885 476.364
47.3402 178.485 475.688
47.4075 179.593 476.364
47.4075 180.447 476.364
47.4749 181.559 477.042
47.3738 182.026 476.026
47.5087 183.401 477.381
47.4749 184.126 477.042
47.3402 184.456 475.688
67.6817 -132.668 668.048
67.6817 -131.47 668.048
67.7492 -130.402 668.714
67.8168 -129.332 669.382
68.0886 -128.645 672.065
68.0886 -127.44 672.065
68.2939 -126.616 674.091
69.0573 -121.92 681.626
69.3392 -121.19 684.409
69.3392 -119.963 684.409
69.3392 -117.508 684.409
69.3392 -115.054 684.409
92.2014 11.8312 910.068
91.9519 13.4266 907.605
91.8276 15.0337 906.379
91.7037 16.6365 905.156
90.8455 18.0887 896.685
90.3623 19.5918 891.915
89.4111 20.9681 882.527
63.2704 123.461 624.507
62.2275 123.629 614.213
62.1706 124.616 613.651
62.1706 125.717 613.651
62.057 126.585 612.53
62.057 127.684 612.53
61.8311 128.313 610.301
61.7749 129.29 609.746
61.5511 129.911 607.537
61.3289 130.527 605.343
61.0534 131.022 602.624
60.8893 131.747 601.004
60.6177 132.232 598.323
60.4559 132.949 596.726
60.295 133.663 595.138
60.0817 134.253 593.033
59.8173 134.721 590.423
59.6074 135.303 588.351
59.6597 136.478 588.868
59.7647 137.776 589.904
59.87 139.078 590.943
59.87 140.138 590.943
59.7647 140.949 589.904
59.399 141.138 586.294
59.2436 141.818 584.761
59.1405 142.618 583.743
58.8333 142.918 580.71
57.9305 141.75 571.799
57.7336 142.29 569.856
57.6356 143.069 568.889
57.5868 143.967 568.407
57.538 144.863 567.926
57.4408 145.635 566.966
57.199 146.035 564.579
57.1509 146.923 564.105
56.9593 147.439 562.213
56.8164 148.075 560.803
56.7689 148.956 560.335
56.5799 149.461 558.468
56.0201 148.974 552.943
56.0201 149.965 552.943
55.7444 150.214 550.222
55.6987 151.077 549.771
55.4261 151.318 547.08
55.3809 152.175 546.634
55.3358 153.031 546.189
55.2908 153.885 545.745
55.0668 154.236 543.534
54.9332 154.834 542.215
54.7562 155.304 540.468
54.6241 155.896 539.164
54.6241 156.863 539.164
54.5364 157.577 538.299
54.3185 157.908 536.147
54.2318 158.616 535.292
53.8024 160.217 531.053
53.6325 160.66 529.377
53.5902 161.482 528.959
53.4217 162.865 527.296
53.2125 163.169 525.231
53.0464 163.599 523.591
53.005 164.409 523.183
52.8813 164.961 521.961
51.793 163.4 511.22
51.9117 164.693 512.391
52.0309 165.993 513.568
52.0309 166.913 513.568
52.2309 168.479 515.542
52.1908 169.274 515.146
52.1908 170.197 515.146
51.5964 170.085 509.279
51.5964 170.999 509.279
51.3624 171.132 506.969
51.2848 171.782 506.204
51.2462 172.559 505.822
51.1305 173.074 504.681
50.1864 171.655 495.362
50.1494 172.416 494.997
50.2235 173.56 495.728
50.2607 174.578 496.095
50.4098 175.988 497.567
50.4847 177.143 498.306
50.1864 176.985 495.362
49.4919 176.288 488.507
49.4559 177.035 488.152
49.384 177.651 487.442
49.4559 178.785 488.152
49.2409 178.88 486.029
49.2052 179.621 485.677
48.1932 178.485 475.688
48.2617 179.593 476.364
48.2617 180.447 476.364
48.3303 181.559 477.042
48.2274 182.026 476.026
48.3647 183.401 477.381
48.3647 184.257 477.381
48.3303 184.981 477.042
68.8111 -133.733 667.384
68.9483 -132.8 668.714
68.9483 -131.601 668.714
68.9483 -130.402 668.714
68.8796 -129.074 668.048
68.9483 -128.004 668.714
69.1551 -127.185 670.72
69.4329 -126.489 673.414
70.4227 -122.168 683.015
70.2796 -120.698 681.626
70.3511 -119.597 682.32
93.8333 11.8312 910.068
93.4529 13.4085 906.379
93.3267 15.0134 905.156
92.9504 16.5694 901.506
92.2068 18.0405 894.294
91.7177 19.5398 889.55
91.2337 21.0234 884.855
90.6358 22.4619 879.057
65.1178 116.929 631.564
64.8735 117.618 629.194
65.1178 119.194 631.564
64.8735 119.875 629.194
64.9954 121.231 630.376
64.752 121.903 628.015
64.5104 122.57 625.672
63.3289 124.73 614.213
63.2131 125.602 613.09
63.1554 126.585 612.53
63.2131 127.8 613.09
62.9828 128.43 610.857
62.9255 129.408 610.301
62.8683 130.383 609.746
62.4144 130.527 605.343
62.134 131.022 602.624
61.9115 131.629 600.466
61.6906 132.232 598.323
61.5259 132.949 596.726
61.4166 133.781 595.666
61.1992 134.372 593.558
61.0911 135.197 592.509
60.7156 135.422 588.868
60.769 136.598 589.385
60.769 137.655 589.385
60.769 139.769 589.385
60.2396 139.599 584.251
60.2922 140.769 584.761
60.2922 141.818 584.761
59.7711 142.671 579.706
58.9558 141.75 571.799
58.8554 142.532 570.826
58.7055 143.19 569.372
58.6557 144.089 568.889
58.606 144.986 568.407
58.5069 145.758 567.445
58.2604 146.158 565.055
58.2114 147.047 564.579
58.0647 147.686 563.157
57.8704 148.199 561.272
57.7737 148.956 560.335
57.7737 149.96 560.335
57.0587 150.089 553.4
56.8243 150.461 551.126
56.6845 151.077 549.771
56.4071 151.318 547.08
56.2694 151.927 545.745
56.2694 152.906 545.745
56.178 153.635 544.858
55.996 154.111 543.093
55.9055 154.834 542.215
55.6357 155.054 539.598
55.5909 155.896 539.164
55.5909 156.863 539.164
55.4128 157.324 537.436
55.2357 157.782 535.719
54.9723 157.986 533.164
54.7113 158.187 530.633
54.798 159.391 531.474
54.885 160.598 532.318
54.7546 161.169 531.053
54.6681 161.865 530.214
54.2819 162.61 526.468
54.1968 163.297 525.643
53.9431 163.471 523.183
53.9011 164.281 522.775
53.7754 164.833 521.556
52.7902 164.568 512
52.8709 165.739 512.783
52.8709 166.658 512.783
52.9113 167.706 513.176
52.9519 168.755 513.568
52.8709 169.417 512.783
52.5096 170.085 509.279
52.3506 170.481 507.737
52.1139 171.523 505.441
51.9963 172.04 504.301
51.0747 170.767 495.362
51.0747 171.655 495.362
51.037 172.416 494.997
51.0747 173.432 495.362
51.1124 174.449 495.728
51.264 175.858 497.198
50.3679 175.412 488.507
50.3312 176.159 488.152
50.3312 177.035 488.152
50.3312 177.91 488.152
50.4414 179.177 489.22
50.4414 180.054 489.22
50.4414 180.931 489.22
49.1508 178.866 476.703
49.2207 179.977 477.381
49.2207 180.833 477.381
49.2558 181.818 477.721
49.2558 182.675 477.721
49.2909 183.662 478.062
49.2909 184.519 478.062
70.2174 -132.933 669.382
70.3578 -131.996 670.72
70.2174 -130.532 669.382
70.2174 -129.332 669.382
70.2174 -128.132 669.382
70.2174 -126.931 669.382
70.2174 -125.731 669.382
95.5949 8.57903 911.305
95.2068 11.7991 907.605
95.0781 13.4085 906.379
94.9498 15.0134 905.156
94.567 16.5694 901.506
93.9357 18.0646 895.488
93.3127 19.5398 889.55
92.8203 21.0234 884.855
92.0914 24.0067 877.906
66.3753 117.15 632.755
66.1258 117.84 630.376
66.3127 119.306 632.159
66.1258 120.1 630.376
66.1258 121.231 630.376
66.0017 122.131 629.194
65.5711 122.455 625.089
64.7862 123.205 617.606
64.5485 123.856 615.34
64.4302 124.73 614.213
64.3713 125.717 613.651
64.0782 126.239 610.857
64.1951 127.567 611.971
63.9617 128.197 609.746
64.0199 129.408 610.301
63.6722 129.793 606.987
63.4426 130.41 604.797
63.2146 131.022 602.624
63.0446 131.747 601.004
62.9882 132.706 600.466
62.5959 132.949 596.726
62.4847 133.781 595.666
62.2085 134.253 593.033
61.7174 134.248 588.351
61.6633 135.185 587.836
61.6633 136.239 587.836
61.6633 137.293 587.836
61.6633 138.347 587.836
61.6093 139.279 587.321
61.1275 139.235 582.728
61.1807 140.402 583.235
60.9686 140.957 581.214
60.9159 141.877 580.71
60.8106 142.671 579.706
59.9811 141.75 571.799
59.7265 143.19 569.372
59.6253 143.967 568.407
59.5748 144.863 567.926
59.4741 145.635 566.966
59.2237 146.035 564.579
59.2237 147.047 564.579
59.1739 147.935 564.105
59.025 148.572 562.685
58.8276 149.08 560.803
58.7785 149.96 560.335
58.051 149.097 553.4
58.051 150.089 553.4
57.9554 150.833 552.488
57.7176 151.201 550.222
57.6703 152.062 549.771
57.3413 152.175 546.634
57.2946 153.031 546.189
57.155 153.635 544.858
56.9699 154.111 543.093
56.8778 154.834 542.215
56.6488 155.179 540.033
56.5123 156.737 538.731
56.4669 157.577 538.299
56.2413 157.908 536.147
55.8839 157.86 532.741
55.7952 158.563 531.896
55.8395 159.644 532.318
55.8395 160.598 532.318
55.5749 160.787 529.795
55.531 161.61 529.377
55.1826 162.482 526.055
55.0962 163.169 525.231
54.8813 163.471 523.183
54.8385 164.281 522.775
54.7958 165.09 522.368
53.7904 165.739 512.783
53.8315 168.626 513.176
51.9629 171.655 495.362
51.9246 172.416 494.997
51.8863 173.176 494.632
52.0783 174.707 496.462
51.9629 175.208 495.362
51.8099 175.578 493.903
51.6577 175.945 492.453
51.2439 175.412 488.507
51.2439 176.288 488.507
51.2812 177.293 488.863
51.2812 178.169 488.863
51.4688 179.701 490.651
51.5065 180.713 491.011
51.3561 181.063 489.577
50.0767 179.121 477.381
50.1124 180.105 477.721
50.0767 180.833 477.381
50.1481 181.948 478.062
50.1481 182.805 478.062
50.2197 183.924 478.744
50.2197 184.783 478.744
71.5605 -128.388 670.72
96.9655 8.55578 908.835
97.097 10.1993 910.068
96.8343 11.7991 907.605
96.5729 13.3904 905.156
96.3129 14.973 902.719
95.9256 16.525 899.089
95.5414 18.0646 895.488
95.1603 19.5918 891.915
94.6568 21.079 887.196
93.7883 22.4619 879.057
93.7883 24.0382 879.057
93.6656 25.5809 877.906
68.0233 116.897 637.567
67.9587 117.928 636.961
67.7656 118.732 635.152
67.7656 119.871 635.152
67.7656 121.01 635.152
67.6375 121.918 633.951
67.2561 122.361 630.376
67.0042 123.029 628.015
66.0152 123.432 618.746
65.9544 124.427 618.175
65.5917 124.845 614.776
65.4716 125.717 613.651
65.1142 126.125 610.301
65.2329 127.451 611.413
65.055 128.197 609.746
65.1142 129.408 610.301
64.8781 130.029 608.087
64.5853 130.527 605.343
64.2374 130.904 602.083
64.0649 131.629 600.466
63.7794 132.115 597.79
63.6659 132.949 596.726
63.6093 133.9 596.196
63.216 134.135 592.509
62.7174 134.131 587.836
62.7174 135.185 587.836
62.7174 136.239 587.836
62.6624 137.173 587.321
62.6076 138.105 586.807
62.4437 138.793 585.271
62.2265 139.356 583.235
62.1185 140.158 582.223
61.9572 140.835 580.71
61.85 141.631 579.706
61.0585 141.871 572.287
61.0585 142.897 572.287
60.7475 143.19 569.372
60.6445 143.967 568.407
60.5931 144.863 567.926
60.4907 145.635 566.966
60.2869 146.158 565.055
60.2361 147.047 564.579
60.1349 147.811 563.631
59.9334 148.323 561.742
59.8332 149.08 560.803
59.4356 149.089 557.077
59.3371 149.839 556.153
59.1409 150.337 554.314
59.0921 151.206 553.857
58.9947 151.948 552.943
58.7043 152.187 550.222
58.4167 152.424 547.527
58.3215 153.155 546.634
58.2266 153.885 545.745
57.9907 154.236 543.534
57.8969 154.959 542.654
57.6636 155.304 540.468
57.6172 156.147 540.033
57.5245 156.863 539.164
57.157 157.782 535.719
56.8392 157.86 532.741
56.7941 158.689 532.318
56.7941 159.644 532.318
56.7941 160.598 532.318
56.704 161.297 531.474
56.3469 163.122 528.126
56.1699 163.554 526.468
56.038 164.111 525.231
55.863 164.538 523.591
54.7099 165.739 512.783
54.5431 166.15 511.22
54.6263 167.322 512
54.7099 168.497 512.783
52.7344 175.707 494.267
52.1198 174.536 488.507
52.1198 175.412 488.507
52.1198 176.288 488.507
52.1578 177.293 488.863
52.1578 178.169 488.863
52.3869 179.832 491.011
52.4253 180.845 491.37
52.3103 181.328 490.293
50.9328 179.121 477.381
51.0417 180.362 478.403
50.969 180.961 477.721
51.0782 182.207 478.744
51.2611 183.722 480.459
51.2244 184.451 480.115
51.2611 185.445 480.459
98.4617 11.7991 907.605
98.3287 13.4085 906.379
98.0636 14.9932 903.936
97.6687 16.5472 900.296
97.277 18.0887 896.685
97.0176 19.6441 894.294
96.2476 21.079 887.196
95.7411 22.5506 882.527
95.3646 24.0382 879.057
95.2398 25.5809 877.906
95.2398 27.1551 877.906
95.1153 28.6918 876.759
69.1665 118.04 637.567
68.6445 118.284 632.755
68.6445 119.419 632.755
68.6445 120.553 632.755
68.7094 121.803 633.353
68.2582 122.131 629.194
68.003 122.799 626.842
67.4983 123.003 622.19
67.1867 123.546 619.317
67.0629 124.427 618.175
66.6941 124.845 614.776
66.572 125.717 613.651
66.2689 126.239 610.857
66.4504 127.684 612.53
66.2086 128.313 610.301
66.2689 129.525 610.857
66.0883 130.265 609.192
65.7895 130.763 606.438
65.4934 131.258 603.709
65.1416 131.629 600.466
64.8513 132.115 597.79
64.736 132.949 596.726
64.621 133.781 595.666
63.7714 133.077 587.836
63.7714 134.131 587.836
63.7714 135.185 587.836
63.7714 136.239 587.836
63.5487 136.813 585.782
63.4932 137.744 585.271
63.3826 138.551 584.251
63.2724 139.356 583.235
63.053 139.915 581.214
62.944 140.714 580.208
62.7269 141.265 578.207
62.0847 141.871 572.287
62.0847 142.897 572.287
61.8209 143.312 569.856
61.7684 144.211 569.372
61.6637 144.986 568.407
61.5594 145.758 567.445
61.3518 146.281 565.532
61.3001 147.171 565.055
61.2485 148.059 564.579
61.1456 148.821 563.631
60.8897 149.205 561.272
60.4346 149.089 557.077
60.3844 149.963 556.615
60.3343 150.836 556.153
60.2843 151.707 555.692
60.0852 152.199 553.857
59.8382 152.563 551.579
59.4957 152.673 548.422
59.3017 153.155 546.634
59.2534 154.01 546.189
59.1571 154.737 545.301
58.8699 154.959 542.654
58.5855 155.179 540.033
58.5384 156.022 539.598
58.164 155.985 536.147
58.1176 156.821 535.719
58.1176 157.782 535.719
57.7486 157.735 532.318
57.7486 159.644 532.318
57.8404 160.854 533.164
57.3842 160.534 528.959
57.2939 162.175 528.126
57.2038 162.865 527.296
57.0692 163.425 526.055
57.0245 164.24 525.643
57.0245 165.182 525.643
55.6719 165.866 513.176
55.6719 166.786 513.176
55.6719 167.706 513.176
55.7146 168.755 513.568
55.6719 169.546 513.176
53.1118 175.796 489.577
53.0731 176.545 489.22
53.0731 177.422 489.22
53.0731 178.299 489.22
53.3064 179.964 491.37
53.3846 181.111 492.091
53.3455 181.86 491.731
51.9737 179.76 479.086
51.9737 180.619 479.086
51.8626 181.09 478.062
51.9737 182.338 479.086
51.9737 183.197 479.086
100.225 11.8151 908.835
99.819 13.3904 905.156
99.6845 14.9932 903.936
98.8849 18.0887 896.685
98.3589 19.5918 891.915
97.8385 21.079 887.196
97.5804 22.6101 884.855
97.3236 24.1331 882.527
96.9409 25.6145 879.057
96.814 27.1551 877.906
96.814 28.7294 877.906
96.3098 30.1457 873.334
70.0435 117.593 635.152
69.7792 118.284 632.755
69.7792 119.419 632.755
69.7134 120.44 632.159
69.5168 121.231 630.376
69.2565 121.903 628.015
69.1917 122.914 627.428
68.614 123.003 622.19
68.3604 123.66 619.889
68.2342 124.541 618.746
67.9209 125.074 615.905
67.7343 125.832 614.213
67.3642 126.239 610.857
67.4871 127.567 611.971
67.3029 128.313 610.301
67.2417 129.29 609.746
67.0588 130.029 608.087
66.7562 130.527 605.343
66.3967 130.904 602.083
66.2777 131.747 601.004
66.1 132.469 599.393
65.8646 133.068 597.258
65.6891 133.781 595.666
64.8255 133.077 587.836
64.8255 134.131 587.836
64.8824 135.303 588.351
64.8255 136.239 587.836
64.7121 137.053 586.807
64.4864 137.623 584.761
64.4302 138.551 584.251
64.3742 139.477 583.743
64.1508 140.037 581.718
64.0952 140.957 581.214
63.9844 141.754 580.208
62.683 146.005 568.407
62.4712 146.528 566.487
62.3659 147.295 565.532
62.3133 148.184 565.055
62.104 148.696 563.157
61.8444 149.08 560.803
61.4845 149.212 557.54
61.4335 150.087 557.077
61.3825 150.961 556.615
61.3825 151.959 556.615
61.23 152.577 555.232
60.8773 152.688 552.033
60.5781 152.923 549.321
60.3311 153.28 547.08
60.2819 154.135 546.634
60.2328 154.989 546.189
60.1349 155.715 545.301
59.4104 154.805 538.731
59.4104 155.771 538.731
59.2676 156.36 537.436
59.1727 157.072 536.576
58.7031 158.689 532.318
58.7497 159.771 532.741
58.2868 159.459 528.542
58.2868 160.407 528.542
58.3327 161.482 528.959
58.2409 162.175 528.126
58.058 162.61 526.468
56.6355 165.072 513.568
56.6789 166.12 513.962
56.8531 167.555 515.542
56.8531 168.479 515.542
56.8095 169.274 515.146
56.6355 169.676 513.568
54.5471 175.837 494.632
54.5069 176.594 494.267
54.1478 176.311 491.011
53.9897 176.674 489.577
53.911 177.293 488.863
53.911 178.169 488.863
54.1478 179.832 491.011
54.2272 180.978 491.731
54.2272 181.86 491.731
54.2272 182.741 491.731
52.9842 181.137 480.459
52.8328 181.478 479.086
52.9842 182.86 480.459
52.9842 183.722 480.459
52.9842 184.583 480.459
52.9842 185.445 480.459
102.131 10.2131 911.305
101.854 11.8151 908.835
101.717 13.4266 907.605
101.579 15.0337 906.379
100.225 18.0405 894.294
99.9582 19.5918 891.915
99.298 21.0512 886.024
98.9061 22.5506 882.527
98.6465 24.0697 880.211
98.3882 25.5809 877.906
98.1313 27.0842 875.614
97.3687 29.9895 868.809
70.9138 117.15 632.755
70.8469 118.173 632.159
70.7802 119.194 631.564
70.5808 119.987 629.784
70.4485 120.89 628.604
70.3826 121.903 628.015
70.3167 122.914 627.428
69.6651 122.889 621.613
69.4719 123.66 619.889
69.3437 124.541 618.746
69.216 125.419 617.606
68.8357 125.832 614.213
68.5845 126.47 611.971
68.7099 127.8 613.09
68.4596 128.43 610.857
68.4596 129.525 610.857
68.1492 130.029 608.087
67.8417 130.527 605.343
67.4763 130.904 602.083
67.4158 131.865 601.543
67.3554 132.825 601.004
67.055 133.305 598.323
66.5798 133.426 594.084
65.9374 133.193 588.351
65.9374 134.248 588.351
65.9374 135.303 588.351
65.9374 136.358 588.351
65.7643 137.053 586.807
65.535 137.623 584.761
65.4779 138.551 584.251
65.4209 139.477 583.743
65.2505 140.158 582.223
65.1939 141.08 581.718
65.0247 141.754 580.208
64.9685 142.671 579.706
65.081 143.959 580.71
65.081 145.001 580.71
64.5224 144.788 575.726
64.3567 145.446 574.247
64.3567 146.476 574.247
63.7022 147.025 568.407
63.6483 147.919 567.926
63.5407 148.685 566.966
63.1669 148.821 563.631
62.9026 149.205 561.272
62.7451 149.835 559.867
62.4843 150.212 557.54
62.4324 151.086 557.077
62.4324 152.085 557.077
62.0715 152.199 553.857
61.6136 153.048 549.771
61.4625 153.656 548.422
61.3121 154.261 547.08
61.2122 154.989 546.189
61.063 155.589 544.858
60.816 155.932 542.654
60.816 156.905 542.654
59.7525 158.942 533.164
59.7525 159.898 533.164
59.8476 161.11 534.013
59.9431 162.326 534.865
59.8953 163.155 534.439
59.2345 162.303 528.542
57.6446 165.325 514.356
57.6889 166.375 514.751
57.7776 167.555 515.542
57.7776 168.479 515.542
57.7776 169.404 515.542
57.4244 169.287 512.391
58.0453 172.046 517.931
55.3524 176.464 493.903
55.0686 176.44 491.37
54.9478 176.932 490.293
54.7876 177.293 488.863
54.8276 178.299 489.22
54.9478 179.569 490.293
55.0686 180.845 491.37
55.0283 181.593 491.011
53.8457 181.137 480.459
53.8457 181.998 480.459
53.8843 182.991 480.803
53.8843 183.853 480.803
53.8843 184.715 480.803
53.8843 185.578 480.803
103.484 10.1854 908.835
103.204 13.4085 906.379
102.926 14.9932 903.936
102.101 16.4808 896.685
101.558 17.9925 891.915
101.154 19.514 888.371
100.754 21.0234 884.855
100.225 22.4914 880.211
99.9624 24.0067 877.906
98.9266 25.3159 868.809
98.6709 26.8043 866.564
98.6709 28.3582 866.564
98.6709 29.9121 866.564
72.7346 114.829 638.781
72.8734 116.196 640
72.5963 116.897 637.567
72.2529 117.482 634.551
72.0484 118.284 632.755
71.9805 119.306 632.159
71.7101 119.987 629.784
71.5757 120.89 628.604
71.5087 121.903 628.015
71.1755 122.455 625.089
70.9111 123.117 622.767
70.7797 124.004 621.613
70.5183 124.656 619.317
70.3883 125.535 618.175
70.0012 125.947 614.776
69.8092 126.701 613.09
69.8731 127.917 613.651
69.5549 128.43 610.857
69.4916 129.408 610.301
69.2396 130.029 608.087
68.9272 130.527 605.343
68.6792 131.139 603.166
68.4331 131.747 601.004
68.3718 132.706 600.466
67.946 132.949 596.726
67.5852 133.308 593.558
67.3468 133.898 591.464
67.2875 134.84 590.943
67.2283 135.78 590.423
67.1101 136.598 589.385
66.5255 138.551 584.251
66.4098 139.356 583.235
66.237 140.037 581.718
66.237 141.08 581.718
65.724 141.022 577.212
65.6675 141.935 576.716
65.951 143.586 579.206
66.1223 145.001 580.71
65.5548 144.788 575.726
64.6666 146.9 567.926
64.2315 148.946 564.105
64.0162 149.455 562.213
63.8023 149.96 560.335
63.5898 150.462 558.468
63.4313 151.086 557.077
63.4313 152.085 557.077
62.5482 152.923 549.321
62.3949 153.531 547.974
62.1916 154.01 546.189
62.141 154.863 545.745
61.7891 154.959 542.654
61.7891 155.932 542.654
60.8536 159.322 534.439
60.8052 160.152 534.013
60.8536 161.238 534.439
60.9508 162.455 535.292
60.9508 163.415 535.292
60.8052 163.982 534.013
58.7472 167.684 515.939
58.7472 168.609 515.939
58.702 169.404 515.542
58.7472 170.459 515.939
58.883 171.781 517.132
58.7472 172.31 515.939
56.321 176.724 494.632
55.9497 176.44 491.37
55.827 176.932 490.293
55.827 177.811 490.293
55.7048 178.299 489.22
55.827 179.569 490.293
55.827 180.449 490.293
55.6642 180.799 488.863
54.7465 181.267 480.803
54.7857 182.26 481.148
54.8251 183.254 481.493
54.7857 183.985 481.148
54.8251 184.981 481.493
54.8251 185.844 481.493
105.399 10.2131 911.305
105.114 11.8151 908.835
104.83 13.4085 906.379
104.547 14.9932 903.936
103.709 16.4808 896.685
103.432 18.0405 894.294
102.883 19.5398 889.55
102.747 21.1069 888.371
102.34 22.6101 884.855
101.404 23.9753 876.759
100.354 25.2831 867.685
100.354 26.839 867.685
100.225 28.3582 866.564
100.225 29.9121 866.564
74.2335 114.228 641.838
74.2335 115.378 641.838
74.2335 116.529 641.838
73.8097 117.008 638.174
73.5996 117.816 636.357
73.2521 118.396 633.353
73.114 119.306 632.159
72.9765 120.213 630.969
72.7711 121.003 629.194
72.6348 121.903 628.015
72.5669 122.914 627.428
72.0279 123.117 622.767
71.961 124.119 622.19
71.6288 124.656 619.317
71.2342 125.074 615.905
71.0385 125.832 614.213
70.9735 126.817 613.651
70.9735 127.917 613.651
70.6503 128.43 610.857
70.6503 129.525 610.857
70.33 130.029 608.087
70.0126 130.527 605.343
69.5731 130.787 601.543
69.5108 131.747 601.004
69.4485 132.706 600.466
69.0775 133.068 597.258
68.6496 133.308 593.558
68.0474 133.193 588.351
68.2269 134.603 589.904
68.1071 135.422 588.868
68.1071 136.478 588.868
67.9282 137.173 587.321
67.6911 137.744 585.271
67.5732 138.551 584.251
67.5144 139.477 583.743
67.4557 140.402 583.235
67.3385 141.202 582.223
66.8165 141.143 577.709
66.9896 143.586 579.206
67.1055 144.875 580.208
66.6443 144.913 576.22
65.685 146.9 567.926
65.298 149.072 564.579
65.1882 149.832 563.631
64.807 149.96 560.335
64.5374 150.337 558.004
64.4302 151.086 557.077
64.4302 152.085 557.077
63.9522 151.948 552.943
63.5853 152.062 549.771
63.4293 152.673 548.422
63.2225 153.155 546.634
63.171 154.01 546.189
62.9659 154.486 544.416
62.813 155.085 543.093
62.7621 155.932 542.654
62.3585 156.863 539.164
62.3585 157.83 539.164
61.9601 157.782 535.719
61.9601 158.743 535.719
61.9601 159.703 535.719
62.0096 160.792 536.147
62.0096 161.754 536.147
62.0592 162.845 536.576
62.0592 163.807 536.576
62.0592 164.77 536.576
59.6723 168.609 515.939
59.6264 169.404 515.542
59.4893 169.936 514.356
57.2502 176.854 494.997
56.7892 176.311 491.011
56.6647 176.803 489.935
56.5821 177.422 489.22
56.5821 178.299 489.22
56.5408 179.046 488.863
56.4585 180.536 488.152
55.529 181.007 480.115
55.5688 181.998 480.459
55.6485 183.122 481.148
55.6086 183.853 480.803
55.5688 184.583 480.459
107.034 10.2131 911.305
106.743 11.8151 908.835
106.455 13.4085 906.379
106.168 14.9932 903.936
105.176 16.4588 895.488
105.176 18.0646 895.488
105.316 19.6966 896.685
105.036 21.2477 894.294
103.927 22.6101 884.855
103.111 24.0067 877.906
101.91 25.2831 867.685
101.516 26.7352 864.33
101.516 28.2851 864.33
101.255 29.7583 862.109
100.48 31.0646 855.511
75.7468 113.62 644.923
75.7468 114.777 644.923
75.4566 115.489 642.452
75.4566 116.641 642.452
75.2404 117.455 640.612
74.8117 117.928 636.961
74.5286 118.62 634.551
74.3176 119.419 632.755
74.2476 120.44 632.159
74.1079 121.345 630.969
74.0383 122.361 630.376
74.0383 123.491 630.376
72.8066 122.548 619.889
72.9414 123.889 621.037
72.7393 124.656 619.317
72.3386 125.074 615.905
72.206 125.947 614.776
72.0079 126.701 613.09
71.9422 127.684 612.53
71.6803 128.313 610.301
71.6152 129.29 609.746
71.2911 129.793 606.987
71.0981 130.527 605.343
70.4622 130.436 599.929
70.086 130.809 596.726
70.1484 131.997 597.258
70.0237 132.831 596.196
69.6523 133.19 593.033
69.1024 133.193 588.351
69.468 134.959 591.464
69.3457 135.78 590.423
69.2238 136.598 589.385
69.1024 137.413 588.351
68.8006 137.864 585.782
68.6208 138.551 584.251
68.6208 139.599 584.251
68.6208 140.646 584.251
68.5611 141.571 583.743
67.8524 142.179 577.709
68.0282 143.586 579.206
68.0282 144.625 579.206
67.5615 144.664 575.232
66.8165 145.109 568.889
66.7599 146.005 568.407
66.7034 146.9 567.926
66.7034 147.919 567.926
66.4222 148.309 565.532
65.9219 148.199 561.272
65.702 148.707 559.4
65.538 149.337 558.004
65.4835 150.212 557.54
65.4291 151.086 557.077
65.3206 151.833 556.153
64.9973 152.074 553.4
64.7835 152.563 551.579
64.4654 152.798 548.871
64.2027 153.155 546.634
64.1504 154.01 546.189
64.0982 154.863 545.745
63.7352 154.959 542.654
63.6322 155.68 541.777
63.3763 156.989 539.598
63.3253 157.83 539.164
62.9207 158.743 535.719
62.9207 159.703 535.719
62.9207 161.624 535.719
62.971 162.715 536.147
58.1378 176.854 494.997
57.7119 176.44 491.37
57.6696 177.191 491.011
57.6274 177.941 490.651
57.6274 178.821 490.651
57.4593 179.177 489.22
57.4174 179.923 488.863
57.3756 180.667 488.507
56.4303 181.137 480.459
56.4708 182.129 480.803
56.5925 183.385 481.839
108.373 13.4448 908.835
107.934 15.0134 905.156
106.924 16.4808 896.685
106.924 18.0887 896.685
106.924 19.6966 896.685
106.356 21.1911 891.915
104.96 22.4914 880.211
103.6 23.758 868.809
103.066 25.1854 864.33
102.538 26.5981 859.898
102.538 28.14 859.898
102.015 29.5305 855.511
102.015 31.0646 855.511
101.755 32.5157 853.334
76.7557 115.711 643.686
76.9033 117.09 644.923
76.5353 117.68 641.838
76.0984 118.153 638.174
75.9538 119.07 636.961
74.817 119.538 627.428
74.7471 120.551 626.842
74.7471 121.675 626.842
74.6076 122.57 625.672
74.055 122.775 621.037
74.2613 124.234 622.767
74.1236 125.118 621.613
73.7817 125.651 618.746
73.3756 126.063 615.34
73.2412 126.933 614.213
73.2412 128.034 614.213
72.9074 128.547 611.413
72.7085 129.29 609.746
72.3141 129.676 606.438
72.1836 130.527 605.343
71.6661 130.669 601.004
71.4102 131.277 598.858
71.1561 131.879 596.726
70.7156 132.127 593.033
70.5286 132.838 591.464
70.219 133.31 588.868
70.5286 134.959 591.464
70.5286 136.019 591.464
70.3425 136.718 589.904
70.1574 137.413 588.351
70.0345 138.226 587.321
69.79 138.793 585.271
69.6685 139.599 584.251
69.6078 141.571 583.743
69.1863 141.754 580.208
69.1265 142.671 579.706
69.0668 143.586 579.206
69.0668 144.625 579.206
68.7108 144.913 576.22
68.4755 145.446 574.247
67.8366 145.109 568.889
67.3227 145.022 564.579
67.5502 146.528 566.487
67.5502 147.544 566.487
67.3794 148.184 565.055
67.0968 148.572 562.685
66.8165 148.956 560.335
66.5386 149.337 558.004
66.4833 150.212 557.54
66.4281 151.086 557.077
66.2081 151.582 555.232
65.8809 151.823 552.488
65.5569 152.062 549.771
65.4496 152.798 548.871
65.1298 153.031 546.189
65.0768 153.885 545.745
64.9711 154.612 544.858
64.7083 154.959 542.654
64.6559 155.806 542.215
64.6559 156.779 542.215
64.3438 156.989 539.598
64.2921 157.83 539.164
63.8303 159.576 535.292
63.8813 162.585 535.719
59.069 176.097 495.362
58.9819 176.724 494.632
58.6359 176.569 491.731
58.593 177.321 491.37
58.5501 178.071 491.011
58.593 179.083 491.37
58.4218 179.438 489.935
58.4645 180.449 490.293
58.3791 181.063 489.577
110.302 13.4813 911.305
109.41 14.9932 903.936
108.532 16.4808 896.685
108.532 18.0887 896.685
108.532 19.6966 896.685
107.384 21.079 887.196
106.259 22.4325 877.906
105.022 23.7272 867.685
104.616 25.1854 864.33
104.213 26.6323 861.002
104.08 28.14 859.898
104.08 29.682 859.898
103.023 30.9069 851.168
77.6862 117.68 641.838
77.096 117.928 636.961
76.877 118.732 635.152
76.0844 119.763 628.604
76.0132 120.777 628.015
76.0132 121.903 628.015
75.9421 122.914 627.428
74.9604 122.435 619.317
75.448 124.35 623.346
75.1686 125.003 621.037
74.8912 125.651 618.746
74.7533 126.527 617.606
74.8222 127.752 618.175
74.5474 128.387 615.905
74.4107 129.254 614.776
73.7349 129.173 609.192
73.269 129.442 605.343
73.203 130.41 604.797
72.9399 131.022 602.624
72.7438 131.747 601.004
72.2261 131.879 596.726
71.6523 131.893 591.986
71.6523 132.955 591.986
71.4003 133.545 589.904
71.7156 135.197 592.509
71.7156 136.26 592.509
71.4631 136.839 590.423
71.2124 137.413 588.351
71.0876 138.226 587.321
70.7161 138.551 584.251
70.7161 139.599 584.251
70.6546 140.524 583.743
70.5931 141.448 583.235
70.2267 141.754 580.208
70.166 142.671 579.706
69.8641 143.092 577.212
69.7441 143.879 576.22
69.5648 144.54 574.739
68.7401 144.863 567.926
68.4503 145.267 565.532
68.4503 146.281 565.532
68.4503 147.295 565.532
68.2776 147.935 564.105
67.878 148.075 560.803
67.5954 148.46 558.468
67.371 148.965 556.615
67.0926 149.343 554.314
67.0372 150.213 553.857
66.9819 151.081 553.4
66.8716 151.823 552.488
66.5973 152.187 550.222
66.5427 153.048 549.771
66.1092 153.031 546.189
66.1092 154.01 546.189
65.7878 154.236 543.534
65.6282 154.834 542.215
65.6282 155.806 542.215
65.6282 156.779 542.215
65.364 157.116 540.033
65.3114 157.957 539.598
65.2589 158.797 539.164
64.7902 158.616 535.292
64.7902 159.576 535.292
64.7902 160.536 535.292
60.1795 175.858 497.198
59.9572 176.097 495.362
59.913 176.854 494.997
59.8688 177.611 494.632
59.913 178.629 494.997
59.4305 178.071 491.011
59.387 178.821 490.651
59.257 179.307 489.577
59.1706 179.923 488.863
111.936 13.4813 911.305
111.331 15.0337 906.379
110.435 16.525 899.089
110.435 18.1372 899.089
110.14 19.6966 896.685
110.14 21.3045 896.685
107.833 22.4325 877.906
106.578 23.7272 867.685
106.44 25.2504 866.564
105.757 26.6323 861.002
105.486 28.104 858.797
105.351 29.606 857.699
78.9126 117.793 642.452
78.387 118.153 638.174
78.3125 119.184 637.567
77.2116 118.635 628.604
77.0672 119.538 627.428
77.1393 120.777 628.015
77.1393 121.903 628.015
77.0672 122.914 627.428
76.1412 122.548 619.889
76.1412 123.66 619.889
76.2116 124.887 620.463
76.1412 125.883 619.889
76.0007 126.76 618.746
76.0007 127.87 618.746
75.8608 128.742 617.606
74.8272 128.08 609.192
74.6916 128.938 608.087
74.3545 129.442 605.343
74.2875 130.41 604.797
73.8877 130.787 601.543
73.2961 130.809 596.726
73.0362 131.412 594.61
72.7781 132.01 592.509
72.7139 132.955 591.986
72.6497 133.898 591.464
72.7139 135.078 591.986
72.6497 136.019 591.464
72.6497 137.08 591.464
72.5218 137.897 590.423
72.204 138.347 587.836
72.0147 139.036 586.294
71.8263 139.721 584.761
71.7637 140.646 584.251
71.7013 141.571 583.743
71.3288 141.877 580.71
71.2055 142.671 579.706
70.8382 142.969 576.716
70.5954 143.51 574.739
70.2942 143.924 572.287
69.4644 144.253 565.532
69.5817 145.512 566.487
69.4644 146.281 565.532
69.4059 147.171 565.055
68.7686 146.823 559.867
68.5398 147.335 558.004
68.4259 148.09 557.077
68.2558 148.718 555.692
68.0866 149.343 554.314
68.0304 150.213 553.857
67.9743 151.081 553.4
67.9182 151.948 552.943
67.6394 152.312 550.674
67.3078 152.548 547.974
67.0886 153.031 546.189
67.034 153.885 545.745
66.7624 154.236 543.534
66.6544 154.959 542.654
66.5467 155.68 541.777
66.6005 156.779 542.215
66.4393 157.369 540.904
66.279 157.957 539.598
65.8551 159.831 536.147
65.8025 160.664 535.719
60.7557 171.402 494.632
60.7557 172.289 494.632
60.8455 173.432 495.362
60.8905 174.449 495.728
60.9806 175.597 496.462
60.8905 176.227 495.728
60.8006 176.854 494.997
60.3552 176.44 491.37
60.311 177.191 491.011
60.2668 177.941 490.651
60.2668 178.821 490.651
60.1788 179.438 489.935
60.0035 179.791 488.507
113.57 13.4813 911.305
112.652 14.9932 903.936
111.748 16.4808 896.685
111.748 18.0887 896.685
111.748 19.6966 896.685
111.154 21.1911 891.915
109.408 22.4325 877.906
108.134 23.7272 867.685
108.134 25.2831 867.685
107.716 26.7352 864.33
107.163 28.14 859.898
106.075 29.3806 851.168
81.3108 112.607 652.452
80.9956 113.336 649.923
81.1529 114.723 651.185
80.9956 115.666 649.923
80.839 116.606 648.666
80.6829 117.542 647.414
80.0646 117.793 642.452
79.4558 118.04 637.567
79.4558 119.184 637.567
78.4123 118.747 629.194
78.2654 119.65 628.015
78.2654 120.777 628.015
77.9734 122.57 625.672
77.3242 122.662 620.463
77.2528 123.66 619.889
77.5394 126.35 622.19
77.1102 126.76 618.746
75.9886 128.197 609.746
75.7819 128.938 608.087
75.44 129.442 605.343
75.3719 130.41 604.797
75.0337 130.904 602.083
74.3 130.693 596.196
74.234 131.645 595.666
74.0368 132.361 594.084
73.9712 133.308 593.558
73.9058 134.253 593.033
73.9058 135.317 593.033
73.7754 136.139 591.986
73.7754 137.201 591.986
73.6454 138.019 590.943
73.3224 138.468 588.351
73.3224 139.523 588.351
72.9385 139.842 585.271
73.066 141.138 586.294
72.8114 141.694 584.251
72.4328 142 581.214
72.3075 142.794 580.208
71.7489 142.724 575.726
71.3204 142.897 572.287
71.1989 143.678 571.312
70.3598 144.01 564.579
70.3007 144.9 564.105
70.2416 145.789 563.631
70.0063 146.308 561.742
69.5403 146.335 558.004
69.4248 147.091 557.077
69.2523 147.722 555.692
69.1377 148.472 554.773
69.0235 149.22 553.857
69.0235 150.213 553.857
68.9097 150.957 552.943
68.9097 151.948 552.943
68.6268 152.312 550.674
68.2904 152.548 547.974
68.1235 153.155 546.634
68.0126 153.885 545.745
67.792 154.361 543.974
67.6822 155.085 543.093
67.5727 155.806 542.215
67.4093 157.369 540.904
67.3007 158.084 540.033
66.7632 157.782 535.719
66.7632 159.703 535.719
61.5973 171.276 494.267
61.6427 172.289 494.632
61.6882 175.079 494.997
61.6882 175.967 494.997
61.4614 176.204 493.177
61.2812 176.569 491.731
61.2812 177.451 491.731
61.1914 178.071 491.011
61.0128 178.429 489.577
60.9238 179.046 488.863
114.892 13.4448 908.835
114.272 14.9932 903.936
113.205 16.4588 895.488
113.356 18.0887 896.685
113.356 19.6966 896.685
113.356 21.3045 896.685
111.566 22.5506 882.527
110.692 23.944 875.614
110.117 25.3816 871.065
109.832 26.8737 868.809
108.705 28.14 859.898
108.151 29.5305 855.511
82.161 113.336 649.923
82.3206 114.723 651.185
82.4807 116.116 652.452
82.161 116.832 649.923
81.8438 117.542 647.414
81.2945 117.906 643.068
81.2166 118.945 642.452
80.9067 119.639 640
79.69 118.97 630.376
79.3916 119.65 628.015
79.5405 121.003 629.194
79.3173 121.789 627.428
79.1692 122.684 626.256
78.2197 122.322 618.746
78.6551 124.119 622.19
78.7281 125.351 622.767
78.6551 126.35 622.19
78.2197 126.76 618.746
78.2197 127.87 618.746
77.012 128.08 609.192
76.8027 128.822 607.537
76.5254 129.442 605.343
76.5254 130.527 605.343
75.5033 131.997 597.258
75.369 132.831 596.196
75.1686 133.544 594.61
75.0356 134.372 593.558
74.9692 135.317 593.033
74.8369 136.139 591.986
74.705 136.959 590.943
74.5736 137.776 589.904
74.3122 138.347 587.836
74.3122 139.401 587.836
73.9879 139.842 585.271
74.1173 141.138 586.294
73.9234 141.818 584.761
73.6026 142.246 582.223
73.095 142.302 578.207
72.7189 142.601 575.232
72.3466 142.897 572.287
71.7952 142.827 567.926
71.4926 143.239 565.532
71.4323 144.131 565.055
71.3722 145.022 564.579
71.2523 145.789 563.631
71.0135 146.308 561.742
70.4823 146.213 557.54
70.307 146.847 556.153
70.0745 147.355 554.314
70.0167 148.227 553.857
69.9589 149.097 553.4
69.9012 149.965 552.943
69.9012 150.957 552.943
69.9012 151.948 552.943
69.6715 152.437 551.126
69.5572 153.174 550.222
69.4432 153.908 549.321
69.1037 154.135 546.634
68.9351 154.737 545.301
68.656 155.085 543.093
68.3241 157.242 540.468
68.2141 157.957 539.598
67.7779 157.908 536.147
67.6697 158.616 535.292
67.7779 159.831 536.147
62.4375 170.264 493.903
62.4375 171.15 493.903
62.5296 172.289 494.632
62.5296 174.063 494.632
62.622 175.208 495.362
62.622 176.097 495.362
62.4836 176.594 494.267
62.1174 176.44 491.37
62.1174 177.321 491.37
61.8906 177.552 489.577
61.8455 178.299 489.22
61.8004 179.046 488.863
61.7105 179.661 488.152
116.522 13.4448 908.835
116.05 15.0134 905.156
115.118 16.5029 897.885
115.118 18.1129 897.885
114.964 19.6966 896.685
113.747 21.079 887.196
113.149 22.5506 882.527
112.556 24.0067 877.906
112.262 25.5141 875.614
111.97 27.0137 873.334
110.247 28.14 859.898
109.685 29.5305 855.511
109.128 30.9069 851.168
108.577 32.2693 846.869
83.0047 109.415 647.414
83.3264 111.005 649.923
83.3264 112.17 649.923
83.0047 112.898 647.414
83.0047 114.059 647.414
83.0047 115.22 647.414
83.0047 116.381 647.414
82.9247 117.428 646.789
82.6855 118.246 644.923
82.3687 118.945 642.452
81.7423 119.184 637.567
80.5931 118.635 628.604
80.5177 119.65 628.015
80.4424 120.664 627.428
79.2561 122.21 618.175
79.4025 123.546 619.317
79.623 125.003 621.037
79.8448 126.468 622.767
79.8448 127.584 622.767
79.623 128.343 621.037
79.3292 128.979 618.746
77.8921 127.732 607.537
77.5409 129.325 604.797
77.4013 130.175 603.709
77.4013 131.258 603.709
76.5061 131.879 596.726
76.4381 132.831 596.196
76.3025 133.663 595.138
76.1673 134.491 594.084
76.1673 135.557 594.084
76.0326 136.38 593.033
75.8984 137.201 591.986
75.8984 138.262 591.986
75.5649 138.712 589.385
75.4986 139.646 588.868
75.4324 140.578 588.351
75.4324 141.633 588.351
75.2344 142.314 586.807
75.0374 142.991 585.271
74.972 143.915 584.761
73.4354 141.992 572.776
73.2478 142.654 571.312
72.9371 143.069 568.889
72.8136 143.845 567.926
72.6291 144.496 566.487
72.5067 145.267 565.532
72.3237 145.912 564.105
72.0208 146.308 561.742
71.4227 146.092 557.077
71.3634 146.969 556.615
71.1273 147.477 554.773
71.0098 148.227 553.857
70.9512 149.097 553.4
70.9512 150.089 553.4
70.8927 150.957 552.943
70.9512 152.074 553.4
70.8343 152.814 552.488
70.6017 153.3 550.674
70.6017 154.287 550.674
70.4283 154.893 549.321
70.0268 154.989 546.189
69.7428 155.336 543.974
69.5173 157.751 542.215
69.2374 158.084 540.033
69.1261 158.797 539.164
68.9046 159.251 537.436
63.2301 170.014 493.177
63.2766 171.024 493.54
63.3699 172.162 494.267
63.3232 172.921 493.903
63.3232 173.807 493.903
63.5103 175.208 495.362
63.5103 176.097 495.362
63.3699 176.594 494.267
62.9984 176.44 491.37
63.0446 177.451 491.731
62.7228 178.299 489.22
62.677 179.046 488.863
117.832 15.0337 906.379
116.728 16.5029 897.885
116.728 18.1129 897.885
115.952 19.5918 891.915
115.034 21.0234 884.855
114.13 22.4325 877.906
113.536 23.8817 873.334
112.948 25.3159 868.809
112.365 26.7352 864.33
111.933 28.1762 861.002
111.646 29.644 858.797
110.936 30.9855 853.334
110.654 32.4332 851.168
84.1656 108.254 647.414
84.3284 109.627 648.666
84.6559 111.22 651.185
84.4918 112.17 649.923
84.1656 112.898 647.414
84.2469 114.169 648.039
84.2469 115.331 648.039
84.0845 116.269 646.789
84.0035 117.315 646.166
83.5207 117.793 642.452
82.7283 117.816 636.357
82.3377 118.396 633.353
81.9507 118.97 630.376
81.7203 119.763 628.604
81.6438 120.777 628.015
80.5874 122.548 619.889
80.5874 123.66 619.889
80.8864 125.235 622.19
81.1122 126.703 623.926
81.3392 128.179 625.672
81.0368 128.821 623.346
79.2687 127.103 609.746
78.6964 127.271 605.343
78.6964 128.357 605.343
78.6254 129.325 604.797
78.4839 130.175 603.709
78.3428 131.022 602.624
78.1322 131.747 601.004
77.6452 131.997 597.258
77.5072 132.831 596.196
77.4383 133.781 595.666
77.4383 134.85 595.666
77.4383 135.918 595.666
77.301 136.743 594.61
77.096 137.444 593.033
77.096 138.507 593.033
76.6218 138.712 589.385
76.6218 139.769 589.385
76.4203 140.455 587.836
76.2199 141.138 586.294
