ply
format ascii 1.0
element vertex 1991
property float x
property float y
property float z
end_header
10.2472 6.74158 601.543
10.2748 7.84133 603.166
10.2748 8.92289 603.166
10.3119 10.0406 605.343
8.32772 106.288 488.863
8.32165 107.087 488.507
8.32165 107.962 488.507
8.32165 108.838 488.507
8.41977 123.416 494.267
8.4012 124.028 493.177
8.37042 124.455 491.37
8.32772 124.697 488.863
8.32165 125.482 488.507
8.29146 125.899 486.735
8.27345 126.497 485.677
8.20217 127.134 481.493
8.18455 127.722 480.459
8.17869 128.492 480.115
8.16116 129.075 479.086
8.14952 129.749 478.403
8.13791 130.421 477.721
8.13791 131.277 477.721
8.13791 132.134 477.721
8.12634 132.801 477.042
8.09754 133.183 475.351
8.0918 133.941 475.014
8.08608 134.697 474.678
8.06895 135.261 473.673
8.04622 135.727 472.338
8.04056 136.478 472.006
8.02361 137.035 471.012
8.00114 137.493 469.692
8.00114 138.336 469.692
7.97322 138.692 468.053
7.93998 138.95 466.102
7.91797 139.398 464.81
7.87974 141.213 462.566
7.86347 141.749 461.611
7.85807 142.479 461.293
7.82042 142.62 459.083
7.80439 143.149 458.142
7.79906 143.872 457.83
7.80973 144.891 458.456
7.79906 145.514 457.83
7.77783 145.937 456.583
7.74094 147.689 454.418
7.72524 148.203 453.496
7.72002 148.915 453.189
7.7044 149.425 452.273
7.68885 149.933 451.36
7.6528 150.035 449.243
7.63235 150.438 448.043
7.62217 151.039 447.445
7.61708 151.74 447.147
7.59178 152.035 445.661
7.55663 152.922 443.598
7.55164 153.616 443.305
7.53669 154.106 442.428
7.45798 153.281 437.807
7.45798 154.066 437.807
7.46285 154.952 438.093
7.44826 155.433 437.236
7.43372 155.913 436.383
7.42889 156.593 436.099
7.41442 157.069 435.25
7.40962 157.747 434.968
7.39045 158.117 433.842
7.33823 159.317 430.777
9.28553 -109.437 493.177
9.29921 -108.712 493.903
9.29921 -107.827 493.903
9.30606 -107.02 494.267
9.29921 -106.055 493.903
9.30606 -105.247 494.267
9.3198 -104.515 494.997
9.36125 -104.088 497.198
9.38211 -103.427 498.306
9.4171 -102.915 500.164
9.42412 -102.095 500.538
9.43821 -101.348 501.286
9.43116 -100.375 500.911
9.45234 -99.6997 502.036
9.47361 -99.0218 503.166
9.49498 -98.3409 504.301
9.49498 -97.4366 504.301
9.48785 -96.4598 503.922
9.51645 -95.8442 505.441
9.53081 -95.0812 506.204
9.53801 -94.2446 506.586
9.54522 -93.4068 506.969
9.59599 -92.9897 509.666
9.60329 -92.1458 510.054
9.65468 -91.7195 512.783
9.69917 -91.2184 515.146
9.6843 -90.1562 514.356
9.6843 -89.2339 514.356
9.7141 -88.5833 515.939
9.7141 -87.6582 515.939
9.72157 -86.7998 516.336
9.7516 -86.1392 517.931
9.76669 -85.3422 518.732
9.83514 -85.0038 522.368
9.83514 -84.0671 522.368
9.85049 -83.2601 523.183
9.88132 -82.5796 524.82
9.88132 -81.6385 524.82
9.88906 -80.7606 525.231
9.91234 -80.0068 526.468
9.95925 -79.4368 528.959
10.0225 -78.9867 532.318
10.0384 -78.1562 533.164
10.0624 -77.3847 534.439
10.0785 -76.5484 535.292
10.0946 -75.7094 536.147
10.2337 -74.8031 543.534
10.2669 -74.0686 545.301
10.2669 -73.0908 545.301
10.1514 -50.0318 539.164
10.1514 -49.065 539.164
10.1351 -48.021 538.299
10.1514 -47.1314 539.164
10.1514 -46.1646 539.164
10.1596 -45.2342 539.598
10.1596 -44.2666 539.598
10.1596 -43.299 539.598
10.0946 -42.0608 536.147
10.1027 -41.1323 536.576
10.1027 -40.1701 536.576
10.0865 -39.1453 535.719
10.0865 -38.1847 535.719
10.0865 -37.2241 535.719
10.1351 -36.4381 538.299
10.1027 -35.3593 536.576
10.1188 -34.4523 537.436
9.20432 106.288 488.863
9.19762 107.087 488.507
9.19762 107.962 488.507
9.19762 108.838 488.507
9.31292 123.507 494.632
9.2583 123.664 491.731
9.24475 124.364 491.011
9.20432 124.697 488.863
9.19762 125.482 488.507
9.1709 125.991 487.088
9.1576 126.68 486.382
9.13772 127.275 485.326
9.08513 127.408 482.533
9.04608 127.722 480.459
9.04608 128.584 480.459
9.0396 129.352 480.115
9.03314 130.12 479.771
9.00736 130.607 478.403
8.99453 131.277 477.721
8.99453 132.134 477.721
8.97536 132.707 476.703
8.94991 133.183 475.351
8.94357 133.941 475.014
8.93724 134.697 474.678
8.93092 135.452 474.343
8.89945 135.823 472.671
8.88693 136.478 472.006
8.84956 136.747 470.021
8.831 137.301 469.035
8.84337 138.336 469.692
8.81251 138.692 468.053
8.78187 139.046 466.426
8.75144 139.398 464.81
8.70319 140.287 462.247
8.69719 141.019 461.929
8.66735 141.36 460.343
8.65547 141.991 459.712
8.64362 142.62 459.083
8.62591 143.149 458.142
8.62002 143.872 457.83
8.6318 144.891 458.456
8.60827 145.316 457.205
8.56158 147.789 454.726
8.55578 148.504 454.418
8.54998 149.218 454.11
8.54998 150.032 454.11
8.51539 150.236 452.273
8.43575 149.634 448.043
8.43012 150.337 447.744
8.41888 150.939 447.147
8.41888 151.74 447.147
8.40767 152.339 446.552
8.37422 152.53 444.775
8.35759 153.024 443.892
8.34655 153.616 443.305
8.33553 154.207 442.72
8.21622 155.13 436.383
8.20554 155.71 435.816
8.20554 156.491 435.816
8.19489 157.069 435.25
8.17367 157.441 434.123
8.10027 159.113 430.225
10.1999 -109.759 494.632
10.1999 -108.873 494.632
10.1999 -107.986 494.632
10.1999 -107.099 494.632
10.1999 -106.212 494.632
10.1999 -105.325 494.632
10.2452 -104.902 496.83
10.268 -104.243 497.936
10.3063 -103.735 499.792
10.3217 -102.992 500.538
10.3217 -102.095 500.538
10.3294 -101.273 500.911
10.3217 -100.3 500.538
10.3294 -99.4763 500.911
10.3526 -98.7995 502.036
10.3837 -98.1932 503.544
10.3915 -97.3634 503.922
10.3993 -96.5323 504.301
10.4385 -95.9889 506.204
10.4385 -95.0812 506.204
10.4464 -94.2446 506.586
10.4622 -93.4774 507.353
10.5099 -92.9897 509.666
10.5339 -92.2862 510.831
10.5742 -91.7195 512.783
10.5904 -90.939 513.568
10.5661 -89.8118 512.391
10.558 -88.8252 512
10.5661 -87.9743 512.391
10.5742 -87.122 512.783
10.6392 -86.733 515.939
10.6968 -86.2724 518.732
10.7051 -85.4083 519.133
10.7718 -85.0038 522.368
10.7718 -84.0671 522.368
10.8309 -83.5861 525.231
10.8394 -82.709 525.643
10.8309 -81.7024 525.231
10.8479 -80.8873 526.055
10.8734 -80.1326 527.296
10.9164 -79.4995 529.377
10.977 -78.9867 532.318
11.0032 -78.2184 533.588
11.0207 -77.3847 534.439
11.0383 -76.5484 535.292
11.0648 -75.77 536.576
11.2265 -74.9246 544.416
11.263 -74.1892 546.189
11.263 -73.2098 546.189
11.1182 -50.0318 539.164
11.0826 -48.9078 537.436
11.0471 -47.7909 535.719
11.0471 -46.8303 535.719
11.0826 -46.0167 537.436
11.0826 -45.053 537.436
11.0826 -44.0893 537.436
11.0826 -43.1256 537.436
11.0826 -42.1619 537.436
11.0471 -41.0666 535.719
11.0471 -40.1059 535.719
11.0295 -37.1647 534.865
11.056 -36.2924 536.147
11.056 -35.331 536.147
11.1003 -34.5076 538.299
10.0736 106.211 488.507
10.0736 107.087 488.507
10.0736 107.962 488.507
10.0736 108.838 488.507
10.1999 122.62 494.632
10.2149 123.69 495.362
10.14 123.664 491.731
10.1252 124.364 491.011
10.0883 124.788 489.22
10.0809 125.573 488.863
10.0589 126.174 487.797
10.0297 126.68 486.382
10.0152 127.368 485.677
9.95038 127.408 482.533
9.91471 127.814 480.803
9.91471 128.676 480.803
9.90761 129.445 480.459
9.89344 130.12 479.771
9.86521 130.607 478.403
9.85116 131.277 477.721
9.84414 132.04 477.381
9.84414 132.896 477.381
9.82317 133.467 476.364
9.80924 134.131 475.688
9.80228 134.888 475.351
9.79534 135.644 475.014
9.74016 135.727 472.338
9.7128 136.19 471.012
9.68559 136.651 469.692
9.65854 137.109 468.38
9.67881 138.239 469.363
9.66529 138.886 468.707
9.62493 139.143 466.75
9.57827 139.301 464.488
9.56502 139.94 463.845
9.53206 141.116 462.247
9.49281 141.36 460.343
9.4863 142.088 460.028
9.4733 142.717 459.398
9.45388 143.247 458.456
9.43453 143.774 457.517
9.4281 144.496 457.205
9.40246 144.921 455.962
9.35793 145.048 453.803
9.37061 147.689 454.418
9.35793 148.303 453.803
9.36427 149.218 454.11
9.36427 150.032 454.11
9.23916 149.634 448.043
9.22683 150.237 447.445
9.22068 150.939 447.147
9.21454 151.639 446.849
9.19005 152.035 445.661
9.16569 152.429 444.48
9.15356 153.024 443.892
9.15962 153.921 444.186
9.14146 154.411 443.305
9.12337 154.899 442.428
9.00457 155.231 436.667
8.99286 155.811 436.099
8.99286 156.593 436.099
8.94055 157.237 433.562
8.88883 158.646 431.054
8.88883 159.419 431.054
11.0868 -109.759 494.632
11.095 -108.953 494.997
11.095 -108.065 494.997
11.095 -107.178 494.997
11.095 -106.29 494.997
11.1526 -105.058 497.567
11.2025 -104.631 499.792
11.2192 -103.89 500.538
11.236 -103.146 501.286
11.2276 -102.171 500.911
11.2276 -101.273 500.911
11.2276 -100.375 500.911
11.236 -99.5507 501.286
11.2528 -98.7995 502.036
11.2781 -98.1196 503.166
11.2866 -97.2903 503.544
11.2951 -96.4598 503.922
11.3376 -95.9165 505.822
11.3462 -95.0812 506.204
11.3548 -94.2446 506.586
11.3634 -93.4068 506.969
11.4238 -92.9897 509.666
11.4586 -92.3565 511.22
11.4937 -91.7195 512.783
11.5289 -91.0785 514.356
11.4937 -89.8805 512.783
11.4849 -88.8931 512.391
11.5644 -88.5833 515.939
11.5466 -87.5235 515.146
11.5822 -86.8666 516.734
11.618 -86.2057 518.331
11.636 -85.4083 519.133
11.6721 -84.7398 520.746
11.6721 -83.806 520.746
11.7819 -83.6516 525.643
11.7819 -82.709 525.643
11.7819 -81.7665 525.643
11.7912 -80.8873 526.055
11.819 -80.1326 527.296
11.8656 -79.4995 529.377
11.941 -79.0494 532.741
11.9791 -78.3431 534.439
11.9886 -77.4464 534.865
12.0078 -76.6095 535.719
12.0366 -75.8306 537.006
12.124 -50.1932 540.904
12.0947 -49.1045 539.598
12.0463 -47.9441 537.436
12.027 -46.9052 536.576
12.0174 -45.9063 536.147
12.0174 -44.9449 536.147
12.0463 -44.0893 537.436
12.0463 -43.1256 537.436
12.0078 -36.2634 535.719
12.0078 -35.3028 535.719
12.0078 -34.3422 535.719
10.9416 106.133 488.152
10.9257 106.853 487.442
10.9257 107.727 487.442
10.9257 108.601 487.442
10.9257 109.475 487.442
10.894 110.029 486.029
10.894 110.901 486.029
11.0137 122.693 491.37
11.0137 123.574 491.37
11.0057 124.364 491.011
10.9655 124.788 489.22
10.9575 125.573 488.863
10.9495 126.358 488.507
10.9257 126.956 487.442
10.894 127.46 486.029
10.8312 127.592 483.228
10.7846 127.905 481.148
10.7769 128.676 480.803
10.7691 129.445 480.459
10.7537 130.12 479.771
10.7078 130.421 477.721
10.6698 130.812 476.026
10.6698 131.665 476.026
10.6547 132.331 475.351
10.6547 133.183 475.351
10.6547 134.036 475.351
10.6471 134.792 475.014
10.5648 135.441 471.343
10.5352 135.904 470.021
10.5278 136.651 469.692
10.4984 137.109 468.38
10.5057 138.045 468.707
10.4765 138.499 467.401
10.4184 138.564 464.81
10.404 139.205 464.166
10.3824 139.747 463.205
10.3752 140.481 462.885
10.3467 140.922 461.611
10.3041 141.167 459.712
10.2971 141.894 459.398
10.276 142.425 458.456
10.2549 142.954 457.517
10.234 143.48 456.583
10.227 144.201 456.272
10.1993 144.626 455.034
10.1786 145.146 454.11
10.1442 145.468 452.578
10.1579 146.477 453.189
10.1786 147.589 454.11
10.1786 148.403 454.11
10.1786 149.218 454.11
10.1786 150.032 454.11
10.0359 148.731 447.744
10.0225 149.335 447.147
10.0158 150.037 446.849
10.0091 150.738 446.552
9.98918 151.236 445.661
9.97593 151.834 445.07
9.9627 152.429 444.48
9.95611 153.125 444.186
9.95611 153.921 444.186
9.94294 154.513 443.598
9.92325 155.001 442.72
9.81313 154.066 437.807
9.80673 154.75 437.521
9.80034 155.433 437.236
9.79395 156.116 436.951
9.80034 157.001 437.236
9.70544 157.034 433.002
9.68044 158.953 431.887
11.9914 -109.922 495.362
12.0092 -109.195 496.095
12.0092 -108.305 496.095
12.0092 -107.415 496.095
12.0092 -106.526 496.095
12.0092 -105.636 496.095
12.0807 -105.37 499.048
12.1348 -104.944 501.286
12.1258 -103.967 500.911
12.153 -103.301 502.036
12.1258 -102.171 500.911
12.1348 -101.348 501.286
12.1348 -100.45 501.286
12.1712 -99.8491 502.789
12.1804 -99.0218 503.166
12.1895 -98.1932 503.544
12.1987 -97.3634 503.922
12.1987 -96.4598 503.922
12.2539 -95.9889 506.204
12.2632 -95.153 506.586
12.2632 -94.2446 506.586
12.3096 -93.69 508.507
12.3471 -93.0604 510.054
12.3942 -92.4975 512
12.4132 -91.7195 512.783
12.4704 -91.2184 515.146
12.4227 -89.9493 513.176
12.4417 -89.1655 513.962
12.4704 -88.4472 515.146
12.48 -87.5908 515.542
12.5281 -87.0007 517.531
12.5669 -86.3392 519.133
12.5766 -85.4744 519.536
12.6255 -84.8715 521.556
12.6255 -83.9363 521.556
12.6452 -83.1304 522.368
12.6649 -82.3219 523.183
12.7046 -81.6385 524.82
12.7245 -80.8239 525.643
12.7344 -79.944 526.055
12.8047 -79.4368 528.959
12.886 -78.9867 532.318
12.9168 -78.2184 533.588
12.958 -77.5083 535.292
12.9684 -76.6095 535.719
13.0204 -75.9522 537.867
13.0728 -49.144 540.033
13.0518 -48.0982 539.164
13.01 -46.9804 537.436
13.01 -46.0167 537.436
12.9684 -44.909 535.719
12.9891 -44.0187 536.576
12.9477 -42.9192 534.865
11.7826 105.825 486.735
11.8083 107.805 487.797
11.7997 108.601 487.442
11.7655 109.158 486.029
11.9035 121.901 491.731
11.9035 122.783 491.731
11.9035 123.664 491.731
11.8861 124.364 491.011
11.8428 124.788 489.22
11.8255 125.482 488.507
11.8255 126.358 488.507
11.7912 126.864 487.088
11.7655 127.46 486.029
11.6809 127.408 482.533
11.639 127.814 480.803
11.6307 128.584 480.459
11.6223 129.352 480.115
11.5809 129.749 478.403
11.5315 130.05 476.364
11.507 130.626 475.351
11.507 131.478 475.351
11.4583 131.771 473.338
11.4826 132.901 474.343
11.4907 133.846 474.678
11.4502 134.222 473.005
11.4261 134.785 472.006
11.418 135.536 471.674
11.378 135.904 470.021
11.37 136.651 469.692
11.3304 137.014 468.053
11.3067 137.565 467.075
11.2831 138.114 466.102
11.2441 138.468 464.488
11.2441 139.301 464.488
11.2285 139.94 463.845
11.2053 140.481 462.885
11.1591 140.728 460.976
11.1285 141.167 459.712
11.0904 142.327 458.142
11.0678 142.856 457.205
11.0527 143.48 456.583
11.0227 144.724 455.343
11.0003 145.244 454.418
10.9928 145.96 454.11
11.0003 146.874 454.418
11.0003 147.689 454.418
11.0003 148.504 454.418
11.0003 149.319 454.418
10.9928 150.032 454.11
10.8532 148.93 448.343
10.8315 149.435 447.445
10.8243 150.137 447.147
10.8099 150.738 446.552
10.7812 151.136 445.365
10.7669 151.733 444.775
10.7455 152.228 443.892
10.7242 152.72 443.012
10.7242 153.515 443.012
10.7171 154.207 442.72
10.6468 153.985 439.817
10.6051 154.167 438.093
10.5982 154.851 437.807
10.5913 155.535 437.521
10.5775 156.116 436.951
10.5706 156.797 436.667
10.55 157.273 435.816
10.4819 157.034 433.002
10.4481 158.077 431.609
10.4347 158.646 431.054
12.8418 -111.369 493.903
12.8607 -110.646 494.632
12.8797 -109.922 495.362
12.9179 -109.356 496.83
12.9179 -108.466 496.83
12.9274 -107.654 497.198
12.9274 -106.763 497.198
12.937 -105.95 497.567
12.9852 -105.449 499.42
13.0046 -104.709 500.164
13.0143 -103.89 500.538
13.024 -103.069 500.911
13.0143 -102.095 500.538
13.0143 -101.197 500.538
13.024 -100.375 500.911
13.0728 -99.8491 502.789
13.0532 -98.7995 502.036
13.0826 -98.1196 503.166
13.0924 -97.2903 503.544
13.1023 -96.4598 503.922
13.1715 -96.0614 506.586
13.1815 -95.2249 506.969
13.2015 -94.4587 507.737
13.2516 -93.9036 509.666
13.3123 -93.4156 512
13.3225 -92.5682 512.391
13.3429 -91.7897 513.176
13.3941 -91.2184 515.146
13.3838 -90.2254 514.751
13.3941 -89.371 515.146
13.425 -88.6515 516.336
13.4769 -88.0646 518.331
13.5082 -87.3377 519.536
13.5082 -86.4061 519.536
13.5292 -85.6071 520.342
13.5607 -84.8715 521.556
13.5713 -84.0016 521.961
13.5925 -83.1952 522.775
13.6031 -82.3219 523.183
13.6243 -81.511 524
13.6456 -80.6974 524.82
13.6563 -79.8188 525.231
13.6885 -79.0627 526.468
13.8296 -78.924 531.896
13.8626 -78.1562 533.164
13.9179 -77.5083 535.292
13.929 -76.6095 535.719
13.9961 -76.0132 538.299
14.0186 -48.0982 539.164
13.9961 -47.0558 538.299
13.9736 -46.0167 537.436
13.9513 -44.9809 536.576
13.9513 -44.0187 536.576
13.8846 -42.8509 534.013
12.7015 105.335 488.507
12.683 106.056 487.797
12.6646 106.775 487.088
12.683 107.805 487.797
12.683 108.68 487.797
12.6646 109.396 487.088
12.937 120.671 497.567
12.8988 121.204 496.095
12.7759 121.812 491.37
12.7759 122.693 491.37
12.7759 123.574 491.37
12.7572 124.273 490.651
12.72 124.788 489.22
12.7107 125.573 488.863
12.7107 126.45 488.863
12.6554 126.772 486.735
12.6279 127.368 485.677
12.5461 127.408 482.533
12.5012 127.814 480.803
12.4922 128.584 480.459
12.4922 129.445 480.459
12.4833 130.213 480.115
12.4122 130.328 477.381
12.3769 130.812 476.026
12.3594 131.478 475.351
12.2984 131.678 473.005
12.3419 132.995 474.678
12.3419 133.846 474.678
12.3071 134.317 473.338
12.2811 134.88 472.338
12.2552 135.441 471.343
12.2208 135.904 470.021
12.2123 136.651 469.692
12.1867 137.205 468.707
12.1697 137.853 468.053
12.1442 138.402 467.075
12.077 138.468 464.488
12.0686 139.205 464.166
12.0436 139.747 463.205
12.027 140.384 462.566
12.0021 140.922 461.611
11.8957 142.954 457.517
11.8795 143.578 456.894
11.8553 144.921 455.962
11.8231 145.343 454.726
11.8071 145.96 454.11
11.8231 146.974 454.726
11.8231 147.789 454.726
11.8231 148.605 454.726
11.8071 149.218 454.11
11.7832 149.728 453.189
11.6806 149.23 449.243
11.6338 149.435 447.445
11.6261 150.137 447.147
11.5875 150.437 445.661
11.5644 150.935 444.775
11.5567 151.632 444.48
11.5262 152.026 443.305
11.511 152.62 442.72
11.5034 153.312 442.428
11.4807 153.801 441.554
11.4205 153.783 439.241
11.3907 154.167 438.093
11.3832 154.851 437.807
11.3758 155.535 437.521
11.361 156.116 436.951
11.3536 156.797 436.667
11.2438 156.831 432.444
11.2077 157.1 431.054
11.2149 157.975 431.331
11.2077 158.646 431.054
11.2005 159.317 430.777
11.1718 161.22 429.674
13.8292 -110.411 497.567
13.8292 -109.519 497.567
13.8088 -108.466 496.83
13.8088 -107.575 496.83
13.8292 -106.842 497.567
13.8395 -106.028 497.936
13.8704 -105.37 499.048
13.9014 -104.709 500.164
13.9014 -103.812 500.164
13.9118 -102.992 500.538
13.9118 -102.095 500.538
13.9535 -101.5 502.036
13.9744 -100.751 502.789
13.9849 -99.924 503.166
13.9849 -99.0218 503.166
13.9954 -98.1932 503.544
14.0059 -97.3634 503.922
14.0693 -96.8966 506.204
14.0906 -96.134 506.969
14.1012 -95.297 507.353
14.1548 -94.7455 509.279
14.1871 -94.0466 510.442
14.2413 -93.487 512.391
14.2522 -92.639 512.783
14.3178 -92.1422 515.146
14.3288 -91.2885 515.542
14.3288 -90.3641 515.542
14.3399 -89.5085 515.939
14.3841 -88.8567 517.531
14.4398 -88.2692 519.536
14.4286 -87.27 519.133
14.4398 -86.4061 519.536
14.5072 -85.8736 521.961
14.5299 -85.07 522.775
14.5185 -84.0671 522.368
14.5639 -83.3902 524
14.6096 -82.709 525.643
14.621 -81.8306 526.055
14.621 -80.8873 526.055
14.621 -79.944 526.055
14.6555 -79.187 527.296
14.7716 -78.8615 531.474
14.7951 -78.0322 532.318
14.8659 -77.4464 534.865
14.9015 -76.6708 536.147
14.9854 -76.1354 539.164
14.9374 -45.053 537.436
14.9374 -44.0893 537.436
14.8659 -42.9192 534.865
13.5676 105.258 488.152
13.5282 105.825 486.735
13.5184 106.621 486.382
13.5184 107.493 486.382
13.5086 108.286 486.029
13.4988 109.079 485.677
13.4501 109.553 483.925
13.4501 110.421 483.925
13.421 111.048 482.88
13.8292 120.671 497.567
13.8088 121.383 496.83
13.8292 122.456 497.567
13.667 122.783 491.731
13.657 123.574 491.37
13.6171 124.091 489.935
13.5972 124.788 489.22
13.5873 125.573 488.863
13.5873 126.45 488.863
13.5478 126.956 487.442
13.4988 127.368 485.677
13.421 127.5 482.88
13.3729 127.905 481.148
13.3633 128.676 480.803
13.3537 129.445 480.459
13.3537 130.307 480.459
13.2682 130.328 477.381
13.2305 130.812 476.026
13.2118 131.478 475.351
13.1837 132.05 474.343
13.2024 133.089 475.014
13.1931 133.846 474.678
13.1744 134.507 474.007
13.1188 135.631 472.006
13.0636 135.904 470.021
13.0545 136.651 469.692
13.0362 137.301 469.035
12.9999 137.757 467.727
12.9818 138.402 467.075
12.9188 138.564 464.81
12.9098 139.301 464.488
12.892 139.94 463.845
12.8476 141.116 462.247
12.7684 142.717 459.398
12.7335 143.149 458.142
12.7161 143.774 457.517
12.7074 144.496 457.205
12.6815 145.019 456.272
12.6557 145.54 455.343
12.63 146.059 454.418
12.63 146.874 454.418
12.6643 148.907 455.652
12.5873 148.815 452.883
12.4945 149.33 449.545
12.4694 149.834 448.642
12.4279 150.137 447.147
12.3619 150.138 444.775
12.3538 150.835 444.48
12.3538 151.632 444.48
12.3211 152.026 443.305
12.3048 152.62 442.72
12.2886 153.211 442.136
12.2322 153.297 440.105
12.2001 153.682 438.953
12.1762 154.167 438.093
12.1683 154.851 437.807
12.1603 155.535 437.521
12.1287 155.913 436.383
12.1366 156.797 436.667
12.1051 157.171 435.533
12.027 156.933 432.723
12.0037 157.404 431.887
11.9883 157.975 431.331
11.9883 158.748 431.331
11.9883 159.522 431.331
11.9883 160.295 431.331
11.9575 161.427 430.225
11.9499 162.094 429.949
11.9499 162.865 429.949
14.6779 -111.863 496.095
14.6779 -110.974 496.095
14.6346 -109.759 494.632
14.6562 -109.033 495.362
14.6779 -108.305 496.095
14.6996 -107.575 496.83
14.6996 -106.684 496.83
14.7324 -106.028 497.936
14.7433 -105.214 498.306
14.7873 -104.631 499.792
14.7983 -103.812 500.164
14.8204 -103.069 500.911
14.8315 -102.247 501.286
14.8983 -101.805 503.544
14.9432 -101.206 505.061
14.9657 -100.452 505.822
14.9095 -99.1706 503.922
14.8983 -98.1932 503.544
14.9095 -97.3634 503.922
14.9432 -96.6777 505.061
14.9883 -96.0614 506.586
15.0565 -95.5862 508.893
15.1254 -94.1899 511.22
15.1485 -93.4156 512
15.1601 -92.5682 512.391
15.265 -92.2839 515.939
15.3121 -91.6407 517.531
15.2885 -90.573 516.734
15.3358 -89.9235 518.331
15.3595 -89.1318 519.133
15.3595 -88.2009 519.133
15.3476 -87.2026 518.732
15.3595 -86.3392 519.133
15.4312 -85.8068 521.556
15.4793 -85.1364 523.183
15.4793 -84.1982 523.183
15.5399 -83.5861 525.231
15.5521 -82.709 525.643
15.5521 -81.7665 525.643
15.5521 -80.8239 525.643
15.7621 -79.0494 532.741
15.7998 -78.2807 534.013
15.8124 -77.3847 534.439
15.8376 -76.5484 535.292
15.9522 -76.1354 539.164
15.901 -44.0893 537.436
14.4219 105.979 487.442
14.3905 106.621 486.382
14.3905 107.493 486.382
14.3801 108.286 486.029
14.3593 109 485.326
14.3178 109.553 483.925
14.3075 110.341 483.576
14.3178 111.289 483.925
14.3178 112.156 483.925
14.7214 120.671 497.567
14.7105 121.473 497.198
14.6888 122.184 496.462
14.6346 122.62 494.632
14.5916 123.144 493.177
14.5381 123.574 491.37
14.5168 124.273 490.651
14.4956 124.97 489.935
14.4745 125.665 489.22
14.4745 126.542 489.22
14.4639 127.326 488.863
14.3801 127.46 486.029
14.2869 127.5 482.88
14.2357 127.905 481.148
14.2357 128.768 481.148
14.2153 129.445 480.459
14.1747 129.934 479.086
14.1242 130.328 477.381
14.0841 130.812 476.026
14.0542 131.385 475.014
14.0641 132.331 475.351
14.0741 133.278 475.688
14.0941 134.321 476.364
14.0741 134.984 475.688
13.9554 135.536 471.674
13.8967 135.809 469.692
13.887 136.555 469.363
13.8386 136.918 467.727
13.8193 137.565 467.075
13.8097 138.306 466.75
13.7618 138.661 465.132
13.7427 139.301 464.488
13.7237 139.94 463.845
13.7142 140.675 463.525
13.3994 140.694 452.883
13.4722 142.274 455.343
13.4997 143.383 456.272
13.5089 144.299 456.583
13.4997 145.019 456.272
13.4722 145.54 455.343
13.4357 145.96 454.11
13.4175 146.576 453.496
13.3813 146.992 452.273
13.3633 147.604 451.664
13.3274 148.015 450.45
13.3095 148.623 449.846
13.2739 149.03 448.642
13.2385 149.435 447.445
13.2209 150.037 446.849
13.1682 150.237 445.07
13.1595 150.935 444.775
13.1595 151.733 444.775
13.1421 152.328 444.186
13.1073 152.72 443.012
13.0814 153.211 442.136
13.0299 153.397 440.394
13.0043 153.884 439.528
12.9618 154.167 438.093
12.9533 154.851 437.807
12.9533 155.636 437.807
12.928 156.116 436.951
12.928 156.899 436.951
12.8944 157.273 435.816
12.8195 157.135 433.282
12.8112 157.81 433.002
12.7947 158.382 432.444
12.7782 158.953 431.887
12.7947 160.709 432.444
12.7782 161.276 431.887
12.7535 161.738 431.054
12.7535 162.511 431.054
12.7454 163.179 430.777
15.5675 -111.863 496.095
15.5675 -110.974 496.095
15.5445 -109.922 495.362
15.533 -108.953 494.997
15.5445 -108.145 495.362
15.5445 -107.257 495.362
15.5675 -106.526 496.095
15.6252 -106.028 497.936
15.6601 -105.37 499.048
15.6952 -104.709 500.164
15.7069 -103.89 500.538
15.7304 -103.146 501.286
15.7539 -102.4 502.036
15.8012 -101.805 503.544
15.8488 -101.206 505.061
15.8727 -100.452 505.822
15.8488 -99.3946 505.061
15.8607 -98.5632 505.441
15.8967 -97.8782 506.586
15.8967 -96.9698 506.586
15.9207 -96.2067 507.353
15.9691 -95.5862 508.893
16.0421 -95.1066 511.22
16.0788 -94.4058 512.391
16.0666 -93.4156 512
16.0911 -92.639 512.783
16.2904 -90.0627 519.133
16.2904 -89.1318 519.133
16.2904 -88.2009 519.133
16.2778 -87.2026 518.732
16.2904 -86.3392 519.133
16.3919 -85.9404 522.368
16.4303 -85.2028 523.591
16.4303 -84.264 523.591
16.4818 -83.5861 525.231
16.4818 -82.6443 525.231
16.4947 -81.7665 525.643
16.5076 -80.8873 526.055
16.8109 -79.4914 535.719
16.8109 -78.5308 535.719
16.8109 -77.5702 535.719
16.8243 -76.6708 536.147
15.3294 106.211 488.507
15.2737 106.698 486.735
15.2516 107.415 486.029
15.2406 108.208 485.677
15.2295 109 485.326
15.1856 109.553 483.925
15.1746 110.341 483.576
15.6835 120.315 499.792
15.6601 121.03 499.048
15.6021 121.473 497.198
15.579 122.184 496.462
15.533 122.711 494.997
15.4987 123.325 493.903
15.4418 123.755 492.091
15.4192 124.455 491.37
15.3966 125.153 490.651
15.3741 125.848 489.935
15.3741 126.727 489.935
15.3517 127.419 489.22
15.2737 127.645 486.735
15.1637 127.592 483.228
15.1201 128.089 481.839
15.1093 128.86 481.493
15.0768 129.445 480.459
15.066 130.213 480.115
14.9271 130.719 475.688
14.906 131.385 475.014
14.8954 132.144 474.678
14.906 133.089 475.014
14.8954 133.846 474.678
14.8849 134.602 474.343
14.822 134.88 472.338
14.667 135.146 467.401
14.667 135.984 467.401
14.667 136.823 467.401
14.6568 137.565 467.075
14.6466 138.306 466.75
14.5857 138.564 464.81
14.5655 139.205 464.166
14.5454 139.844 463.525
14.5354 140.578 463.205
14.2307 140.884 453.496
14.2693 142.081 454.726
14.2887 143.091 455.343
14.3276 144.299 456.583
14.3373 145.217 456.894
14.3276 145.937 456.583
14.279 146.258 455.034
14.1828 147.703 451.968
14.1162 147.816 449.846
14.1067 148.523 449.545
14.0878 149.13 448.943
14.0502 149.534 447.744
14.0315 150.137 447.147
13.9756 150.337 445.365
13.9663 151.036 445.07
13.9663 151.834 445.07
13.957 152.53 444.775
13.9478 153.226 444.48
13.8925 153.413 442.72
13.8105 153.297 440.105
13.7384 153.281 437.807
13.7384 154.066 437.807
13.7384 154.851 437.807
13.7294 155.535 437.521
13.7205 156.217 437.236
13.7115 156.899 436.951
13.6759 157.273 435.816
13.5876 157.81 433.002
13.5788 158.485 432.723
13.5526 158.953 431.887
13.5439 159.624 431.609
13.5701 160.709 432.444
13.5439 161.172 431.609
13.5265 161.738 431.054
13.5265 162.511 431.054
13.4918 162.865 429.949
16.4814 -112.029 496.83
16.4449 -110.892 495.728
16.4449 -110.003 495.728
16.4206 -108.953 494.997
16.4085 -107.986 494.632
16.4085 -107.099 494.632
16.4327 -106.369 495.362
16.5059 -105.95 497.567
16.5304 -105.214 498.306
16.592 -104.709 500.164
16.6044 -103.89 500.538
16.6292 -103.146 501.286
16.6168 -102.171 500.911
16.6916 -101.729 503.166
16.6916 -100.826 503.166
16.6916 -99.924 503.166
16.7544 -99.3946 505.061
16.8051 -98.7865 506.586
16.9201 -98.548 510.054
16.933 -97.7077 510.442
16.933 -96.7924 510.442
16.9588 -96.0233 511.22
16.9976 -95.3246 512.391
17.0106 -94.478 512.783
17.0236 -93.6301 513.176
17.0628 -92.9231 514.356
17.1681 -92.5687 517.531
17.2213 -90.9936 519.133
17.208 -89.993 518.732
17.248 -89.27 519.938
17.2346 -88.2692 519.536
17.2748 -87.5411 520.746
17.3286 -86.8771 522.368
17.3421 -86.0074 522.775
17.3556 -85.1364 523.183
17.3556 -84.1982 523.183
17.4099 -83.5207 524.82
17.4236 -82.6443 525.231
17.4372 -81.7665 525.643
17.4372 -80.8239 525.643
17.7715 -78.5308 535.719
16.3362 102.653 492.453
16.3003 103.309 491.37
16.3003 104.19 491.37
16.3003 105.071 491.37
16.2527 105.642 489.935
16.2053 106.211 488.507
16.1465 106.698 486.735
16.1231 107.415 486.029
16.1114 108.208 485.677
16.0998 109 485.326
16.0533 109.553 483.925
16.0417 110.341 483.576
16.555 121.03 499.048
16.5059 121.563 497.567
16.457 122.093 496.095
16.3964 122.53 494.267
16.3242 122.873 492.091
16.3122 123.664 491.731
16.2884 124.364 491.011
16.2527 124.97 489.935
16.229 125.665 489.22
16.229 126.542 489.22
16.2053 127.234 488.507
16.1231 127.46 486.029
16.0417 127.684 483.576
15.9956 128.181 482.186
15.9612 128.768 481.148
15.9383 129.445 480.459
15.8814 129.842 478.744
15.8362 130.328 477.381
15.7913 130.812 476.026
15.7689 131.478 475.351
15.7021 131.771 473.338
15.7466 132.995 474.678
15.669 133.186 472.338
15.6359 133.75 471.343
15.5485 134.684 468.707
15.5052 135.146 467.401
15.516 136.079 467.727
15.516 136.918 467.727
15.5052 137.661 467.401
15.4513 138.018 465.778
15.3979 138.373 464.166
15.3766 139.013 463.525
15.3448 139.554 462.566
15.3342 140.287 462.247
15.3342 141.116 462.247
15.0847 141.266 454.726
15.0949 142.178 455.034
15.1257 143.285 455.962
15.1566 144.397 456.894
15.1669 145.316 457.205
15.1669 146.136 457.205
15.1566 146.855 456.894
14.973 147.504 451.36
14.9128 147.717 449.545
14.9028 148.424 449.243
14.8928 149.13 448.943
14.863 149.634 448.043
14.8333 150.137 447.147
14.8037 150.637 446.254
14.7644 151.036 445.07
14.7448 151.632 444.48
14.7253 152.228 443.892
14.6961 152.72 443.012
14.6189 152.708 440.684
14.5997 153.297 440.105
14.5424 153.482 438.379
14.5329 154.167 438.093
14.5329 154.952 438.093
14.5329 155.738 438.093
14.5234 156.421 437.807
14.514 157.104 437.521
14.327 159.727 431.887
14.3733 161.02 433.282
14.3363 161.38 432.165
14.3086 161.842 431.331
14.3086 162.616 431.331
14.3086 163.389 431.331
17.321 -112.586 495.362
17.3466 -111.863 496.095
17.3466 -110.974 496.095
17.3338 -110.003 495.728
17.3082 -108.953 494.997
17.2954 -107.986 494.632
17.2954 -107.099 494.632
17.2954 -106.212 494.632
17.3981 -105.95 497.567
17.4369 -105.292 498.677
17.4889 -104.709 500.164
17.5019 -103.89 500.538
17.5281 -103.146 501.286
17.515 -102.171 500.911
17.5675 -101.576 502.412
17.5807 -100.751 502.789
17.5939 -99.924 503.166
17.5939 -99.0218 503.166
17.9301 -99.0754 512.783
17.9301 -98.1559 512.783
17.9301 -97.2365 512.783
17.9438 -96.3906 513.176
17.9851 -95.6901 514.356
17.9576 -94.6227 513.568
17.9576 -93.7018 513.568
18.0544 -93.2808 516.336
18.0961 -92.5687 517.531
18.1662 -91.9957 519.536
18.1522 -90.9936 519.133
18.1522 -90.0627 519.133
18.1662 -89.2009 519.536
18.1803 -88.3377 519.938
18.2085 -87.5411 520.746
18.2511 -86.8095 521.961
18.2653 -85.9404 522.368
18.2938 -85.1364 523.183
18.308 -84.264 523.591
18.351 -83.5207 524.82
18.3798 -82.709 525.643
17.2192 101.77 492.453
17.2066 102.578 492.091
17.194 103.384 491.731
17.194 104.266 491.731
17.194 105.148 491.731
17.1814 105.952 491.37
17.0937 106.288 488.863
17.0317 106.775 487.088
16.9946 107.415 486.029
16.9823 108.208 485.677
16.97 109 485.326
16.9211 109.553 483.925
16.9089 110.341 483.576
17.4499 120.136 499.048
17.3594 120.403 496.462
17.3082 120.935 494.997
17.2827 121.644 494.267
17.2572 122.349 493.54
17.2066 122.873 492.091
17.194 123.664 491.731
17.1312 124.091 489.935
17.1062 124.788 489.22
17.0937 125.573 488.863
17.0937 126.45 488.863
17.0689 127.141 488.152
16.9946 127.46 486.029
16.9089 127.684 483.576
16.8602 128.181 482.186
16.8119 128.676 480.803
16.7999 129.445 480.459
16.7999 130.307 480.459
16.6922 130.328 477.381
16.6449 130.812 476.026
16.6213 131.478 475.351
16.5977 132.144 474.678
16.586 132.901 474.343
16.5392 133.374 473.005
16.5159 134.033 472.338
16.5159 134.88 472.338
16.4234 134.967 469.692
16.3547 135.241 467.727
16.3547 136.079 467.727
16.3547 136.918 467.727
16.1854 137.991 462.885
16.1631 138.629 462.247
16.1631 139.458 462.247
16.1519 140.19 461.929
16.1076 140.631 460.66
16.0744 141.167 459.712
16.0195 141.506 458.142
15.9868 142.036 457.205
15.965 142.662 456.583
15.9759 143.578 456.894
15.9868 144.496 457.205
15.9868 145.316 457.205
15.9977 146.235 457.517
15.9977 147.056 457.517
15.9868 147.775 457.205
15.793 147.604 451.664
15.7294 147.816 449.846
15.7189 148.523 449.545
15.7084 149.23 449.243
15.6874 149.834 448.642
15.6351 150.137 447.147
15.6143 150.738 446.552
15.5624 151.036 445.07
15.5418 151.632 444.48
15.511 152.127 443.598
15.5007 152.821 443.305
15.4192 152.808 440.973
15.3788 153.196 439.817
15.3385 153.582 438.666
15.3085 154.066 437.807
15.3185 154.952 438.093
15.3185 155.738 438.093
15.2985 156.319 437.521
15.3085 157.206 437.807
18.1958 -112.503 494.997
18.2092 -111.698 495.362
18.1958 -110.728 494.997
18.1824 -109.759 494.632
18.169 -108.792 494.267
18.1556 -107.827 493.903
18.169 -107.02 494.267
18.169 -106.133 494.267
18.2362 -105.636 496.095
18.2903 -105.058 497.567
18.3447 -104.475 499.048
18.3995 -103.89 500.538
18.3995 -102.992 500.538
18.3995 -102.095 500.538
18.427 -101.348 501.286
18.4546 -100.6 502.036
18.51 -99.9991 503.544
18.5657 -99.3946 505.061
18.864 -99.1512 513.176
18.9074 -98.457 514.356
18.8785 -97.3854 513.568
18.9365 -96.7608 515.146
18.9656 -95.9845 515.939
18.951 -94.9863 515.542
18.951 -94.0619 515.542
18.9656 -93.2091 515.939
19.0242 -92.5687 517.531
19.083 -91.9244 519.133
19.1423 -91.2762 520.746
19.1423 -90.3424 520.746
19.1275 -89.3393 520.342
19.1275 -88.4062 520.342
19.187 -87.7455 521.961
19.2019 -86.8771 522.368
19.2169 -86.0074 522.775
19.2469 -85.2028 523.591
19.277 -84.3957 524.41
19.3072 -83.5861 525.231
19.3223 -82.709 525.643
18.0757 101.621 491.731
18.0757 102.503 491.731
18.0757 103.384 491.731
18.0757 104.266 491.731
18.0625 105.071 491.37
18.0625 105.952 491.37
17.9703 106.288 488.863
17.8791 106.621 486.382
17.8532 107.337 485.677
17.8532 108.208 485.677
17.8403 109 485.326
17.7888 109.553 483.925
17.776 110.341 483.576
17.7888 111.289 483.925
18.2903 119.779 497.567
18.2632 120.492 496.83
18.1958 120.935 494.997
18.169 121.644 494.267
18.1422 122.349 493.54
18.089 122.873 492.091
18.0757 123.664 491.731
18.0229 124.182 490.293
17.9834 124.788 489.22
17.9834 125.665 489.22
17.9834 126.542 489.22
17.9703 127.326 488.863
17.9572 128.11 488.507
17.7632 128.458 483.228
17.6741 128.676 480.803
17.6614 129.445 480.459
17.6614 130.307 480.459
17.5483 130.328 477.381
17.5109 130.904 476.364
17.4736 131.478 475.351
17.4613 132.237 475.014
17.4489 132.995 474.678
17.4366 133.751 474.343
17.3874 134.222 473.005
17.3751 134.975 472.671
17.2174 134.59 468.38
17.1814 135.146 467.401
17.1814 135.984 467.401
17.1694 136.727 467.075
17.0037 137.896 462.566
16.9685 138.439 461.611
16.9919 139.458 462.247
16.9802 140.19 461.929
16.9685 140.922 461.611
16.8411 141.506 458.142
16.7837 141.843 456.583
16.7723 142.565 456.272
16.7952 143.578 456.894
16.8181 144.594 457.517
16.8181 145.415 457.517
16.8526 146.535 458.456
16.8641 147.458 458.769
16.8872 148.484 459.398
16.5694 147.306 450.753
16.5472 147.916 450.148
16.5361 148.623 449.846
16.5139 149.23 449.243
16.4808 149.734 448.343
16.4369 150.137 447.147
16.3714 150.337 445.365
16.3497 150.935 444.775
16.328 151.532 444.186
16.2956 152.026 443.305
16.2849 152.72 443.012
16.2099 152.808 440.973
16.178 153.297 440.105
16.1041 153.381 438.093
16.083 153.966 437.521
16.0935 154.851 437.807
16.0935 155.636 437.807
16.0935 156.421 437.807
19.0693 -112.42 494.632
19.0834 -111.616 494.997
19.0834 -110.728 494.997
19.0834 -109.84 494.997
19.0693 -108.873 494.632
19.0553 -107.906 494.267
19.0412 -106.941 493.903
19.0553 -106.133 494.267
19.0693 -105.325 494.632
19.211 -105.214 498.306
19.2826 -104.709 500.164
19.3114 -103.967 500.911
19.3114 -103.069 500.911
19.3114 -102.171 500.911
19.3548 -101.5 502.036
19.3838 -100.751 502.789
19.3983 -99.924 503.166
19.7088 -98.7734 511.22
19.754 -98.081 512.391
19.754 -97.1622 512.391
19.7994 -96.4645 513.568
19.8755 -95.9107 515.542
19.8755 -94.9863 515.542
19.8602 -93.9896 515.146
19.8755 -93.1374 515.542
19.8908 -92.2839 515.939
20.0139 -91.9244 519.133
20.0294 -91.0641 519.536
20.0605 -90.2723 520.342
20.0605 -89.3393 520.342
20.0917 -88.5436 521.15
20.123 -87.7455 521.961
20.1386 -86.8771 522.368
20.1543 -86.0074 522.775
20.17 -85.1364 523.183
20.2332 -84.4618 524.82
20.2808 -83.7172 526.055
18.9575 101.621 491.731
18.9575 102.503 491.731
18.9575 103.384 491.731
18.9436 104.19 491.37
18.9436 105.071 491.37
18.9436 105.952 491.37
18.8469 106.288 488.863
18.7649 106.698 486.735
18.7241 107.337 485.677
18.7106 108.13 485.326
18.697 108.921 484.975
18.67 109.632 484.275
18.6566 110.421 483.925
18.6835 111.449 484.625
19.2396 119.241 499.048
19.1825 119.779 497.567
19.1541 120.492 496.83
19.0834 120.935 494.997
19.0553 121.644 494.267
19.0553 122.53 494.267
19.0132 123.144 493.177
18.9714 123.755 492.091
18.9436 124.455 491.37
18.8882 124.97 489.935
18.8607 125.665 489.22
18.8607 126.542 489.22
18.8607 127.419 489.22
18.5362 128.676 480.803
18.5229 129.445 480.459
18.5229 130.307 480.459
18.47 130.793 479.086
18.4043 131.184 477.381
18.313 132.237 475.014
18.313 133.089 475.014
18.2871 133.751 474.343
18.2227 134.127 472.671
18.2099 134.88 472.338
18.1205 135.061 470.021
18.0699 135.524 468.707
18.0447 136.174 468.053
17.8701 138.181 463.525
17.8085 138.534 461.929
17.8208 139.458 462.247
17.8085 140.19 461.929
17.7596 140.631 460.66
17.6988 140.973 459.083
17.6867 141.699 458.769
17.6264 142.036 457.205
17.6144 142.759 456.894
17.6144 143.578 456.894
17.6385 144.594 457.517
17.6505 145.514 457.83
17.6746 146.535 458.456
17.6867 147.458 458.769
17.3195 149.23 449.243
17.2848 149.734 448.343
17.2272 150.037 446.849
17.1472 150.138 444.775
17.1472 150.935 444.775
17.1359 151.632 444.48
17.1359 152.429 444.48
17.1019 152.922 443.598
17.023 153.009 441.554
16.9783 153.397 440.394
16.9672 154.086 440.105
16.9007 154.268 438.379
19.8392 -112.643 491.731
19.9416 -112.337 494.267
19.9563 -111.533 494.632
19.971 -110.728 494.997
19.9563 -109.759 494.632
19.9563 -108.873 494.632
19.9416 -107.906 494.267
19.9416 -107.02 494.267
19.9563 -106.212 494.632
19.9563 -105.325 494.632
20.1045 -105.214 498.306
20.1945 -104.787 500.538
20.2854 -104.357 502.789
20.2854 -103.455 502.789
20.3158 -102.708 503.544
20.3158 -101.805 503.544
20.3311 -100.978 503.922
20.377 -100.3 505.061
20.6728 -99.9185 512.391
20.7362 -99.3032 513.962
20.7999 -98.6841 515.542
20.7999 -97.7596 515.542
20.8159 -96.9097 515.939
20.8802 -96.2808 517.531
20.9124 -95.5001 518.331
20.8802 -94.4248 517.531
20.9124 -93.6413 518.331
20.9124 -92.7118 518.331
20.9448 -91.9244 519.133
20.9936 -91.2054 520.342
21.0099 -90.3424 520.746
21.0099 -89.4086 520.746
21.0425 -88.6124 521.556
21.0753 -87.8138 522.368
21.0917 -86.9448 522.775
21.1082 -86.0745 523.183
21.1247 -85.2028 523.591
21.1743 -84.4618 524.82
21.2241 -83.7172 526.055
19.8392 101.621 491.731
19.8392 102.503 491.731
19.8247 103.309 491.37
19.8392 104.266 491.731
19.8247 105.071 491.37
19.8247 105.952 491.37
19.7235 106.288 488.863
19.6234 106.621 486.382
19.595 107.337 485.677
19.5808 108.13 485.326
19.595 109.079 485.677
19.5243 109.553 483.925
19.5243 110.421 483.925
19.5243 111.289 483.925
20.1344 119.241 499.048
20.0747 119.779 497.567
20.0301 120.403 496.462
19.971 120.935 494.997
19.9563 121.733 494.632
19.9563 122.62 494.632
19.9269 123.325 493.903
19.8538 123.755 492.091
19.8247 124.455 491.37
19.7957 125.153 490.651
19.7668 125.848 489.935
19.7379 126.542 489.22
19.7379 127.419 489.22
19.7235 128.203 488.863
19.4821 128.366 482.88
19.3984 128.676 480.803
19.3706 129.352 480.115
19.3567 130.12 479.771
19.3015 130.607 478.403
19.2603 131.184 477.381
19.2056 131.665 476.026
19.1784 132.331 475.351
19.1648 133.089 475.014
19.1512 133.846 474.678
19.0972 134.317 473.338
19.0703 134.975 472.671
19.0033 135.346 471.012
18.9368 135.714 469.363
18.9368 136.555 469.363
18.6754 137.991 462.885
18.6112 138.343 461.293
18.6368 139.362 461.929
18.6368 140.19 461.929
18.6112 140.825 461.293
18.5474 141.167 459.712
18.522 141.796 459.083
18.4463 142.036 457.205
18.4337 142.759 456.894
18.4463 143.676 457.205
18.4589 144.594 457.517
18.4715 145.514 457.83
18.4589 146.235 457.517
18.0646 149.534 447.744
17.9686 149.539 445.365
17.9329 150.038 444.48
17.921 150.735 444.186
17.8736 151.132 443.012
17.8618 151.826 442.72
17.8265 152.318 441.845
17.7797 152.708 440.684
17.7797 153.498 440.684
17.768 154.187 440.394
17.7564 154.875 440.105
17.7099 155.257 438.953
20.6001 -113.739 488.863
20.6906 -113.358 491.011
20.721 -112.643 491.731
20.7514 -111.925 492.453
20.7972 -111.287 493.54
20.8432 -110.646 494.632
20.8586 -109.84 494.997
20.8586 -108.953 494.997
20.8432 -107.986 494.632
20.8432 -107.099 494.632
20.8586 -106.29 494.997
20.8432 -105.325 494.632
20.9669 -105.058 497.567
21.0921 -104.787 500.538
21.1552 -104.201 502.036
21.1552 -103.301 502.036
21.187 -101.652 502.789
21.2188 -100.902 503.544
21.2188 -99.9991 503.544
21.6412 -100.148 513.568
21.7244 -99.6085 515.542
21.8082 -99.0648 517.531
21.8757 -98.4406 519.133
21.8082 -97.2088 517.531
21.8926 -96.6537 519.536
21.8757 -95.648 519.133
21.8757 -94.7171 519.133
21.8757 -93.7862 519.133
21.8757 -92.8553 519.133
21.8757 -91.9244 519.133
21.9436 -91.2762 520.746
21.9778 -90.4829 521.556
21.9778 -89.5477 521.556
21.9778 -88.6124 521.556
22.012 -87.8138 522.368
22.0291 -86.9448 522.775
22.012 -85.9404 522.368
22.012 -85.0038 522.368
22.0635 -84.264 523.591
20.721 101.621 491.731
20.721 102.503 491.731
20.7058 103.309 491.37
20.7058 104.19 491.37
20.6906 104.994 491.011
20.6906 105.874 491.011
20.6001 106.288 488.863
20.5104 106.698 486.735
20.4807 107.415 486.029
20.4807 108.286 486.029
20.4659 109.079 485.677
20.4659 109.95 485.677
20.4215 110.58 484.625
20.4511 111.611 485.326
21.2827 118.866 505.061
21.2827 119.772 505.061
21.0293 119.241 499.048
20.9669 119.779 497.567
20.9204 120.403 496.462
20.8432 120.846 494.632
20.8432 121.733 494.632
20.8432 122.62 494.632
20.8279 123.416 494.267
20.7362 123.755 492.091
20.7058 124.455 491.37
20.6453 124.97 489.935
20.6302 125.757 489.577
20.6152 126.542 489.22
20.4807 127.46 486.029
20.4511 128.146 485.326
20.348 128.366 482.88
20.2605 128.676 480.803
20.246 129.445 480.459
20.2315 130.213 480.115
20.1737 130.7 478.744
20.1306 131.277 477.721
20.102 131.946 477.042
20.045 132.425 475.688
20.0166 133.089 475.014
20.0024 133.846 474.678
19.9459 134.317 473.338
19.9178 134.975 472.671
19.9038 135.727 472.338
19.7923 135.809 469.692
19.7923 136.651 469.692
19.492 137.896 462.566
19.4518 138.439 461.611
19.4651 139.362 461.929
19.4651 140.19 461.929
19.425 140.728 460.976
19.3452 140.973 459.083
19.3188 141.603 458.456
19.2924 142.23 457.83
19.2661 142.856 457.205
19.2661 143.676 457.205
19.2661 144.496 457.205
19.253 146.036 456.894
18.8297 149.235 446.849
18.7672 149.539 445.365
18.7423 150.138 444.775
18.7175 150.735 444.186
18.668 151.132 443.012
18.6557 151.826 442.72
18.6311 152.418 442.136
18.6311 153.211 442.136
18.6188 153.903 441.845
18.6066 154.593 441.554
18.5577 154.977 440.394
18.5455 155.664 440.105
18.497 156.044 438.953
18.0481 159.937 428.302
21.5238 -113.988 489.935
21.5553 -113.275 490.651
21.5869 -112.56 491.37
21.6027 -111.761 491.731
21.6027 -110.879 491.731
21.7302 -110.646 494.632
21.7783 -110.003 495.728
21.7944 -109.195 496.095
21.7623 -108.145 495.362
21.7783 -107.336 495.728
21.8591 -106.842 497.567
21.9242 -106.265 499.048
21.9242 -105.37 499.048
21.9896 -104.787 500.538
22.0555 -104.201 502.036
22.039 -103.223 501.661
22.0555 -102.4 502.036
22.1051 -101.729 503.166
22.1217 -100.902 503.544
22.1217 -99.9991 503.544
22.5967 -100.302 514.356
22.6314 -99.532 515.146
22.6662 -98.76 515.939
22.8419 -98.5932 519.938
22.8242 -97.5853 519.536
22.8419 -96.7286 519.938
22.8597 -95.8706 520.342
22.8419 -94.8639 519.938
22.8774 -94.0775 520.746
22.8419 -92.9993 519.938
22.8242 -91.9957 519.536
22.8774 -91.2762 520.746
22.913 -90.4829 521.556
22.913 -89.5477 521.556
22.9308 -88.6814 521.961
22.9666 -87.8822 522.775
22.9666 -86.9448 522.775
22.9666 -86.0074 522.775
22.9845 -85.1364 523.183
23.0564 -84.4618 524.82
21.4143 100.735 487.442
21.5081 102.054 489.577
21.4924 102.857 489.22
21.4924 103.734 489.22
21.4767 104.535 488.863
21.4924 105.488 489.22
21.4611 106.211 488.507
21.3677 108.365 486.382
21.3832 109.316 486.735
22.1217 119.412 503.544
21.9242 119.241 499.048
21.9242 120.136 499.048
21.8429 120.582 497.198
21.7462 120.935 494.997
21.7302 121.733 494.632
21.7302 122.62 494.632
21.7141 123.416 494.267
21.6186 123.755 492.091
21.5553 124.273 490.651
21.4611 124.606 488.507
21.4611 125.482 488.507
21.3988 125.991 487.088
21.3368 127.368 485.677
21.3368 128.238 485.677
21.2292 128.458 483.228
21.1682 128.953 481.839
21.1226 129.538 480.803
21.1075 130.307 480.459
21.0924 131.074 480.115
21.0472 131.652 479.086
20.9872 132.134 477.721
20.8831 132.331 475.351
20.8536 132.995 474.678
20.8388 133.751 474.343
20.7654 134.127 472.671
20.7654 134.975 472.671
20.7508 135.727 472.338
20.678 136.095 470.681
20.6345 136.651 469.692
20.6345 137.493 469.692
20.3214 137.896 462.566
20.2935 138.534 461.929
20.2935 139.362 461.929
20.2795 140.094 461.611
20.2099 140.438 460.028
20.1823 141.07 459.398
20.1961 141.991 459.712
20.1823 142.717 459.398
20.1546 143.345 458.769
20.1134 143.872 457.83
20.1134 144.693 457.83
20.086 145.316 457.205
20.0723 146.036 456.894
20.045 146.655 456.272
19.5658 148.74 445.365
19.5398 149.34 444.775
19.4882 149.741 443.598
19.4496 150.238 442.72
19.4367 150.932 442.428
19.4367 151.726 442.428
19.4111 152.318 441.845
19.4111 153.11 441.845
19.3983 153.801 441.554
19.3983 154.593 441.554
19.3601 155.078 440.684
19.3347 155.664 440.105
18.9249 158.544 430.777
18.8764 158.909 429.674
18.8402 159.373 428.849
18.8402 160.142 428.849
22.468 -115.203 491.37
22.4351 -114.155 490.651
22.468 -113.441 491.37
22.468 -112.56 491.37
22.4845 -111.761 491.731
22.4845 -110.879 491.731
22.6171 -110.646 494.632
22.6505 -109.922 495.362
22.684 -109.195 496.095
22.6338 -108.065 494.997
22.7176 -107.575 496.83
22.9042 -107.56 500.911
22.8872 -106.582 500.538
22.819 -105.37 499.048
22.9042 -104.866 500.911
22.9901 -104.357 502.789
22.9729 -103.378 502.412
22.9729 -102.477 502.412
23.0246 -101.805 503.544
23.0592 -101.054 504.301
23.094 -100.3 505.061
23.1637 -99.6949 506.586
23.4292 -99.9185 512.391
23.501 -99.3032 513.962
23.5732 -98.6841 515.542
23.7558 -98.5169 519.536
23.5914 -96.9097 515.939
23.6277 -96.1324 516.734
23.5914 -95.0594 515.939
23.5914 -94.1342 515.939
23.5914 -93.2091 515.939
23.7008 -92.7118 518.331
23.7191 -91.8534 518.732
23.7743 -91.1346 519.938
23.8482 -90.4829 521.556
23.8482 -89.5477 521.556
23.8668 -88.6814 521.961
23.904 -87.8822 522.775
23.904 -86.9448 522.775
23.904 -86.0074 522.775
23.9226 -85.1364 523.183
22.3533 101.028 488.863
22.4023 102.128 489.935
22.4187 103.082 490.293
22.4187 103.961 490.293
22.386 104.687 489.577
22.3696 105.488 489.22
22.3533 106.288 488.863
23.094 119.772 505.061
22.8872 119.597 500.538
22.9042 120.584 500.911
22.7682 120.761 497.936
22.6505 121.025 495.362
22.6171 121.733 494.632
22.6004 122.53 494.267
22.5672 123.234 493.54
22.4845 123.664 491.731
22.386 124.001 489.577
22.3371 124.606 488.507
22.3371 125.482 488.507
22.2722 125.991 487.088
22.2722 126.864 487.088
22.2238 127.46 486.029
22.2077 128.238 485.677
22.0798 128.366 482.88
22.0006 128.768 481.148
21.969 129.445 480.459
21.969 130.307 480.459
21.969 131.168 480.459
21.9533 131.935 480.115
21.9219 132.606 479.428
21.8283 132.896 477.381
21.7047 132.995 474.678
21.6741 133.657 474.007
21.613 134.127 472.671
21.613 134.975 472.671
21.6282 135.918 473.005
21.5977 136.574 472.338
21.5825 137.324 472.006
21.5977 138.268 472.338
21.1509 137.896 462.566
21.1218 138.534 461.929
21.1218 139.362 461.929
21.1218 140.19 461.929
21.0493 140.535 460.343
21.006 141.07 459.398
21.0204 141.991 459.712
20.9916 142.62 459.083
20.9629 143.247 458.456
20.9343 143.872 457.83
20.9343 144.693 457.83
20.9058 145.316 457.205
20.8773 145.937 456.583
20.6663 146.082 451.968
20.6524 146.794 451.664
20.6385 147.504 451.36
20.4322 149.235 446.849
20.3374 149.34 444.775
20.2702 149.642 443.305
20.2434 150.238 442.72
20.2434 151.032 442.72
20.2434 151.826 442.72
20.2301 152.519 442.428
20.2434 153.413 442.72
20.2167 154.004 442.136
20.2034 154.695 441.845
20.1239 154.875 440.105
20.1239 155.664 440.105
20.0712 156.044 438.953
19.7736 157.607 432.444
19.7354 158.077 431.609
19.7227 158.748 431.331
19.5717 159.835 428.028
23.3833 -115.373 492.091
23.3662 -114.406 491.731
23.3833 -113.608 492.091
23.3833 -112.725 492.091
23.3833 -111.843 492.091
23.3662 -110.879 491.731
23.4867 -110.565 494.267
23.591 -110.166 496.462
23.6611 -109.6 497.936
23.626 -108.546 497.198
23.6611 -107.814 497.936
23.7139 -107.16 499.048
23.7316 -106.344 499.42
23.767 -105.606 500.164
23.8381 -105.022 501.661
23.9096 -104.435 503.166
23.9275 -103.611 503.544
23.9275 -102.708 503.544
23.9816 -102.035 504.681
24.054 -101.435 506.204
24.054 -100.527 506.204
24.0903 -99.7703 506.969
24.6683 -98.4406 519.133
24.5165 -95.0594 515.939
24.4977 -94.0619 515.542
24.5354 -93.2808 516.336
