ply
format ascii 1.0
element vertex 1908
property float x
property float y
property float z
end_header
-21.07 8.25716 635.152
-21.0302 9.37831 633.951
-21.11 10.555 636.357
-21.0302 11.6518 633.951
-21.0302 12.7886 633.951
-21.0302 13.9254 633.951
-21.09 15.105 635.754
-21.13 16.2758 636.961
-21.1702 17.4511 638.174
-21.2308 18.6487 640
-21.2714 19.8342 641.224
-21.3122 21.0242 642.452
-21.3736 22.2401 644.304
-24.7221 27.0607 745.245
-24.6673 28.3341 743.593
-24.7221 29.7334 745.245
-24.7772 31.1389 746.905
-24.7496 32.4421 746.074
-24.7496 33.7799 746.074
-24.7496 35.1177 746.074
-24.7496 36.4555 746.074
-24.7496 37.7933 746.074
-24.7496 39.1312 746.074
-24.7496 40.469 746.074
-24.7772 41.8533 746.905
-24.8325 43.2891 748.572
-24.9438 44.8315 751.929
-24.9438 46.1798 751.929
-24.7221 47.1057 745.245
-24.9438 48.8764 751.929
-24.9438 50.2248 751.929
-24.9438 51.5731 751.929
-24.9438 52.9214 751.929
-24.9438 54.2697 751.929
-24.9438 55.618 751.929
-19.4833 136.12 587.321
-19.3646 136.337 583.743
-19.2807 136.789 581.214
-19.2473 137.592 580.208
-19.2473 138.633 580.208
-19.2307 139.552 579.706
-19.181 140.228 578.207
-19.1479 141.022 577.212
-19.115 141.813 576.22
-19.0986 142.724 575.726
-19.0496 143.387 574.247
-19.0008 144.046 572.776
-18.9684 144.826 571.799
-18.9361 145.603 570.826
-18.8718 146.129 568.889
-18.8559 147.025 568.407
-18.8399 147.919 567.926
-18.808 148.685 566.966
-18.7289 149.072 564.579
-18.5881 148.956 560.335
-18.5261 149.461 558.468
-18.48 150.087 557.077
-18.4647 150.961 556.615
-18.4647 151.959 556.615
-18.178 151.565 547.974
-18.1632 152.424 547.527
-18.1632 153.405 547.527
-18.1632 154.387 547.527
-18.1336 155.116 546.634
-18.1188 155.969 546.189
-18.1041 156.82 545.745
-18.0307 157.16 543.534
-18.0161 158.006 543.093
-18.0015 158.851 542.654
-18.0015 159.825 542.654
-17.7149 160.152 534.013
-17.6587 160.598 532.318
-17.6587 161.553 532.318
-17.5472 161.482 528.959
-17.4921 161.92 527.296
-17.3827 161.847 524
-17.4099 163.042 524.82
-17.3692 163.599 523.591
-17.3151 164.025 521.961
-17.3016 164.833 521.556
-17.2213 164.999 519.133
-17.1947 165.673 518.331
-17.1549 166.217 517.132
-17.1285 166.887 516.336
-17.0106 166.658 512.783
-16.9717 167.194 511.61
-16.9201 167.6 510.054
-16.9072 168.387 509.666
-16.8816 169.044 508.893
-16.8688 169.827 508.507
-16.7293 170.231 504.301
-16.7041 170.879 503.544
-16.6916 171.653 503.166
-16.6168 171.782 500.911
-16.6044 172.551 500.538
-16.555 172.933 499.048
-16.5673 173.957 499.42
-16.3122 175.687 491.731
-16.3122 176.569 491.731
-16.2884 177.191 491.011
-16.229 177.422 489.22
-16.229 178.299 489.22
-16.2053 178.916 488.507
-16.1348 179.009 486.382
-16.0187 178.586 482.88
-15.9383 178.552 480.459
-15.8928 180.619 479.086
-15.8928 181.478 479.086
-15.8701 183.793 478.403
-15.8475 185.245 477.721
-21.6535 -109.814 690.042
-21.6535 -108.577 690.042
-21.6313 -107.229 689.332
-21.609 -105.884 688.625
-21.5648 -104.435 687.214
-21.5648 -103.203 687.214
-21.5427 -101.866 686.51
-21.5207 -100.532 685.808
-21.4987 -99.2011 685.108
-21.4767 -97.8726 684.409
-21.433 -96.4485 683.015
-21.3461 -94.8375 680.244
-21.3028 -93.4282 678.867
-21.2813 -92.1176 678.18
-21.2169 -90.6267 676.129
-21.153 -89.1447 674.091
-21.0472 -87.4963 670.72
-20.9843 -86.0354 668.714
-20.9843 -84.8363 668.714
-20.8802 -83.2224 665.397
-20.0832 -78.8984 640
-20.0832 -77.7507 640
-19.4882 -74.3334 621.037
-19.4521 -73.0844 619.889
-19.4342 -71.9064 619.317
-19.4521 -70.8613 619.889
-19.4882 -69.879 621.037
-19.5424 -68.9569 622.767
-19.5606 -67.9032 623.346
-19.6336 -67.0347 625.672
-19.6887 -66.0977 627.428
-19.7071 -65.0335 628.015
-19.7812 -64.1476 630.376
-19.8371 -63.1955 632.159
-19.8371 -62.0619 632.159
-19.8371 -60.9284 632.159
-19.8559 -59.8512 632.755
-19.8371 -58.6613 632.159
-19.7812 -57.3655 630.376
-19.7256 -56.077 628.604
-19.6887 -54.8471 627.428
-19.6887 -53.722 627.428
-19.7256 -52.6955 628.604
-19.7441 -51.6167 629.194
-19.7441 -50.4885 629.194
-19.7626 -49.4066 629.784
-19.7812 -48.3227 630.376
-19.7812 -47.1923 630.376
-19.8371 -46.1922 632.159
-19.9689 -45.3579 636.357
-19.9311 -44.1331 635.152
-19.9689 -43.0758 636.357
-19.9311 -41.8552 635.152
-19.9689 -40.7936 636.357
-19.95 -39.6149 635.754
-19.8934 -38.3658 633.951
-19.9689 -37.3703 636.357
-19.9689 -36.2293 636.357
-20.0069 -35.1549 637.567
-19.9879 -33.9793 636.961
-20.0069 -32.8684 637.567
-20.1216 -31.9071 641.224
-20.1216 -30.7573 641.224
-20.1409 -29.6359 641.838
-20.1795 -28.5396 643.068
-20.1989 -27.4127 643.686
-20.1795 -26.2333 643.068
-20.1795 -25.0802 643.068
-20.1989 -23.9501 643.686
-20.1795 -22.774 643.068
-20.1795 -21.6209 643.068
-20.1602 -20.4482 642.452
-20.2377 -19.3704 644.923
-20.2377 -18.2139 644.923
-20.0832 -15.7797 640
-20.045 -11.1679 638.781
-20.1024 -10.0512 640.612
-20.1409 -8.91953 641.838
-20.1409 -7.76862 641.838
-20.1409 -6.61771 641.838
-20.1409 -5.46681 641.838
-20.1409 -4.3159 641.838
-20.1409 -3.16499 641.838
-20.1409 -2.01409 641.838
-20.0832 -0.860709 640
-19.9689 0.28527 636.357
-19.8559 1.41828 632.755
-19.8559 2.5529 632.755
-19.8559 3.68752 632.755
-19.8559 4.82214 632.755
-19.8559 5.95676 632.755
-19.8371 7.08469 632.159
-19.8746 8.23377 633.353
-19.9311 9.39608 635.152
-19.8934 10.5151 633.951
-19.8934 11.6518 633.951
-19.9311 12.8128 635.152
-19.9311 13.9517 635.152
-19.8934 15.0621 633.951
-20.0069 16.2913 637.567
-20.0832 17.5011 640
-20.0832 18.6487 640
-20.1409 19.8531 641.838
-20.1795 21.0443 643.068
-23.3858 27.0607 745.245
-23.3339 28.3341 743.593
-23.3339 29.6674 743.593
-23.3858 31.0697 745.245
-23.4379 32.4782 746.905
-23.3858 33.7424 745.245
-23.4118 35.1177 746.074
-23.4118 36.4555 746.074
-23.3858 37.7513 745.245
-23.3858 39.0877 745.245
-23.3858 40.424 745.245
-23.4902 41.9468 748.572
-23.4902 43.2891 748.572
-23.4902 44.6314 748.572
-23.3339 45.6678 743.593
-23.3858 47.1057 745.245
-23.5955 48.8764 751.929
-23.4902 50.0005 748.572
-23.3858 51.1147 745.245
-23.5955 52.9214 751.929
-23.5955 54.2697 751.929
-23.5955 55.618 751.929
-18.4301 136.12 587.321
-18.3338 136.456 584.251
-18.3019 137.264 583.235
-18.2385 137.831 581.214
-18.2227 138.753 580.71
-18.2069 139.673 580.208
-18.1755 140.471 579.206
-18.1129 141.022 577.212
-18.0973 141.935 576.716
-18.0663 142.724 575.726
-18.0353 143.51 574.739
-17.9737 144.046 572.776
-17.9431 144.826 571.799
-17.9278 145.727 571.312
-17.8517 146.129 568.889
-17.8366 147.025 568.407
-17.8215 147.919 567.926
-17.7464 148.309 565.532
-17.6571 148.572 562.685
-17.5833 148.956 560.335
-17.554 149.71 559.4
-17.4956 150.212 557.54
-17.4666 150.961 556.615
-17.4088 151.456 554.773
-17.38 152.199 553.857
-17.3657 153.066 553.4
-17.2236 152.798 548.871
-17.1954 153.531 547.974
-17.2236 154.766 548.871
-17.1534 155.116 546.634
-17.1255 155.842 545.745
-17.1255 156.82 545.745
-17.0423 157.032 543.093
-17.0285 157.878 542.654
-17.0147 158.723 542.215
-16.9462 159.052 540.033
-16.9054 159.635 538.731
-16.7707 160.28 534.439
-16.744 160.982 533.588
-16.7174 161.681 532.741
-16.6118 161.61 529.377
-16.5596 162.047 527.711
-16.4818 162.228 525.231
-16.4947 163.297 525.643
-16.4689 163.983 524.82
-16.3919 164.153 522.368
-16.3664 164.833 521.556
-16.3283 165.383 520.342
-16.2778 165.801 518.732
-16.2778 166.731 518.732
-16.2151 167.016 516.734
-16.0911 167.578 512.783
-16.0299 167.856 510.831
-16.0299 168.772 510.831
-16.0055 169.429 510.054
-16.0055 170.344 510.054
-15.8967 170.095 506.586
-15.8607 170.616 505.441
-15.8131 171.007 503.922
-15.8012 171.782 503.544
-15.7657 172.297 502.412
-15.7069 172.551 500.538
-15.6835 173.19 499.792
-15.4305 175.687 491.731
-15.4192 176.44 491.37
-15.3405 176.416 488.863
-15.3405 177.293 488.863
-15.3405 178.169 488.863
-15.3405 179.046 488.863
-15.2627 179.009 486.382
-15.2295 179.491 485.326
-15.1637 179.581 483.228
-15.0768 180.275 480.459
-15.066 181.007 480.115
-15.0337 181.478 479.086
-15.0016 183.662 478.062
-14.9909 184.388 477.721
-20.4162 -109.814 690.042
-20.4162 -108.577 690.042
-20.4162 -107.34 690.042
-20.3952 -105.993 689.332
-20.3533 -104.542 687.918
-20.3325 -103.203 687.214
-20.2909 -101.762 685.808
-20.2702 -100.43 685.108
-20.2495 -99.0998 684.409
-20.2495 -97.8726 684.409
-20.2083 -96.4485 683.015
-20.1672 -95.0302 681.626
-20.1059 -93.5229 679.555
-20.0652 -92.1176 678.18
-19.9643 -90.4443 674.769
-19.9442 -89.1447 674.091
-19.8843 -87.6716 672.065
-19.8049 -86.1213 669.382
-19.7655 -84.7519 668.048
-18.8995 -78.7481 638.781
-18.7922 -77.1617 635.152
-18.4086 -74.4713 622.19
-18.3745 -73.2198 621.037
-18.3406 -71.9729 619.889
-18.3745 -70.9926 621.037
-18.4086 -70.0086 622.19
-18.4257 -68.9569 622.767
-18.4429 -67.9032 623.346
-18.5117 -67.0347 625.672
-18.5636 -66.0977 627.428
-18.6509 -65.278 630.376
-18.7566 -63.3747 633.951
-18.7212 -62.1205 632.755
-18.7212 -60.9858 632.755
-18.7036 -59.7948 632.159
-18.7036 -58.6613 632.159
-18.6333 -57.3116 629.784
-18.5984 -56.077 628.604
-18.5463 -54.7958 626.842
-18.5463 -53.6718 626.842
-18.581 -52.6462 628.015
-18.5984 -51.5683 628.604
-18.5984 -50.4412 628.604
-18.6159 -49.3602 629.194
-18.6159 -48.232 629.194
-18.6159 -47.1038 629.194
-18.6509 -46.062 630.376
-18.7922 -45.272 635.152
-18.7922 -44.1331 635.152
-18.7922 -42.9942 635.152
-18.8278 -41.9347 636.357
-18.8278 -40.7936 636.357
-18.8278 -39.6525 636.357
-18.7922 -38.4385 635.152
-18.8636 -37.4414 637.567
-18.8816 -36.3327 638.174
-18.8816 -35.1883 638.174
-18.8816 -34.044 638.174
-18.9176 -32.9624 639.39
-18.9356 -31.8462 640
-18.9537 -30.728 640.612
-18.9718 -29.6075 641.224
-19.0082 -28.5122 642.452
-19.0446 -27.4127 643.686
-19.0446 -26.2585 643.686
-19.0813 -25.1526 644.923
-19.0996 -24.0192 645.544
-19.0446 -22.7959 643.686
-19.0264 -21.6209 643.068
-19.0082 -20.4482 642.452
-19.0813 -19.3704 644.923
-19.0813 -18.2139 644.923
-19.0813 -17.0575 644.923
-18.9718 -15.8098 641.224
-18.8995 -12.3133 638.781
-18.9356 -11.1892 640
-18.99 -10.0704 641.838
-19.0082 -8.92807 642.452
-19.0082 -7.77606 642.452
-19.0082 -6.62405 642.452
-19.0264 -5.47729 643.068
-19.0264 -4.32418 643.068
-19.0446 -3.17411 643.686
-19.118 -2.02767 646.166
-19.0813 -0.86733 644.923
-18.8636 0.285812 637.567
-18.6684 1.41427 630.969
-18.6509 2.5433 630.376
-18.6684 3.67711 630.969
-18.686 4.81306 631.564
-18.6509 5.93436 630.376
-18.7389 7.09807 633.353
-18.8278 8.27283 636.357
-18.8457 9.42284 636.961
-18.7922 10.535 635.152
-18.7922 11.6739 635.152
-18.8636 12.8615 637.567
-18.7922 13.9517 635.152
-18.7212 15.0337 632.755
-18.8636 16.2913 637.567
-18.8995 17.4678 638.781
-19.0082 18.7201 642.452
-19.0264 19.8912 643.068
-21.9034 28.209 740.31
-21.9519 29.6018 741.947
-22.0495 32.406 745.245
-22.0495 33.7424 745.245
-22.0495 35.0787 745.245
-22.0495 36.415 745.245
-22.0495 37.7513 745.245
-22.074 39.1312 746.074
-22.0495 40.424 745.245
-22.1479 41.9468 748.572
-22.1479 43.2891 748.572
-22.0495 44.433 745.245
-22.025 45.7185 744.418
-21.9034 46.7937 740.31
-22.0006 48.3346 743.593
-22.025 49.7231 744.418
-22.025 51.0579 744.418
-22.1479 52.6851 748.572
-22.2472 54.2697 751.929
-22.2472 55.618 751.929
-17.377 136.12 587.321
-17.3012 136.575 584.761
-17.2862 137.504 584.251
-17.2711 138.431 583.743
-17.2411 139.235 582.728
-17.1665 139.673 580.208
-17.1221 140.349 578.706
-17.0485 140.78 576.22
-17.0339 141.691 575.726
-17.0339 142.724 575.726
-17.0339 143.756 575.726
-16.9756 144.293 573.756
-16.9033 144.703 571.312
-16.8602 145.356 569.856
-16.8316 146.129 568.889
-16.8174 147.025 568.407
-16.7889 147.793 567.445
-16.7182 148.184 565.055
-16.5924 148.075 560.803
-16.5509 148.707 559.4
-16.5096 149.337 558.004
-16.4959 150.212 557.54
-16.4685 150.961 556.615
-16.4548 151.833 556.153
-16.3734 153.066 553.4
-16.2793 153.174 550.222
-16.2527 153.908 549.321
-16.2527 154.893 549.321
-16.16 154.989 546.189
-16.1469 155.842 545.745
-16.1469 156.82 545.745
-16.0554 156.905 542.654
-16.0424 157.751 542.215
-16.0424 158.723 542.215
-16.0036 159.309 540.904
-15.9522 159.763 539.164
-15.901 160.215 537.436
-15.825 160.408 534.865
-15.7872 160.982 533.588
-15.7621 161.681 532.741
-15.6626 161.61 529.377
-15.6379 162.303 528.542
-15.5521 162.355 525.643
-15.5643 163.425 526.055
-15.5521 164.24 525.643
-15.4552 164.153 522.368
-15.4552 165.09 522.368
-15.3476 165.801 518.732
-15.3476 166.731 518.732
-15.3239 167.403 517.931
-15.2768 167.813 516.336
-15.1949 167.834 513.568
-15.1485 168.24 512
-15.1485 169.158 512
-15.1024 169.558 510.442
-15.0909 170.344 510.054
-14.9996 170.223 506.969
-14.977 170.874 506.204
-14.9544 171.523 505.441
-14.8871 172.555 503.166
-14.8204 172.68 500.911
-14.7983 173.319 500.164
-14.6996 175.727 496.83
-14.5488 175.687 491.731
-14.5381 176.44 491.37
-14.4639 176.416 488.863
-14.4534 177.164 488.507
-14.4534 178.04 488.507
-14.4429 178.785 488.152
-14.3801 178.88 486.029
-14.3697 179.621 485.677
-14.3178 179.841 483.925
-14.2153 181.137 480.459
-14.1848 181.608 479.428
-14.1443 181.948 478.062
-14.1443 182.805 478.062
-14.1142 184.126 477.042
-19.1788 -111.052 690.042
-19.1788 -109.814 690.042
-19.338 -109.478 695.768
-19.2184 -107.561 691.464
-19.1591 -105.993 689.332
-19.1394 -104.65 688.625
-19.1394 -103.415 688.625
-19.0612 -101.762 685.808
-19.0417 -100.43 685.108
-19.0417 -99.2011 685.108
-19.0223 -97.8726 684.409
-19.0029 -96.5468 683.711
-18.9835 -95.2238 683.015
-18.9065 -93.6177 680.244
-18.8874 -92.3043 679.555
-18.7543 -90.4443 674.769
-18.6792 -88.8767 672.065
-18.6418 -87.4963 670.72
-18.5675 -85.9498 668.048
-17.8391 -80.2758 641.838
-17.7372 -78.6731 638.174
-17.6199 -77.0158 633.951
-17.309 -73.4237 622.767
-17.293 -72.2399 622.19
-17.293 -71.1243 622.19
-17.293 -70.0086 622.19
-17.309 -68.9569 622.767
-17.3251 -67.9032 623.346
-17.4549 -67.2858 628.015
-17.5535 -66.5334 631.564
-17.5866 -65.5243 632.755
-17.6032 -64.4505 633.353
-17.6032 -63.3148 633.353
-17.5866 -62.1205 632.755
-17.6032 -61.0434 633.353
-17.5866 -59.8512 632.755
-17.537 -58.5509 630.969
-17.4712 -57.2042 628.604
-17.4386 -55.9721 627.428
-17.4223 -54.7958 626.842
-17.4386 -53.722 627.428
-17.4386 -52.5969 627.428
-17.4549 -51.5201 628.015
-17.4712 -50.4412 628.604
-17.4712 -49.314 628.604
-17.4549 -48.1417 628.015
-17.4549 -47.0156 628.015
-17.5205 -46.062 630.376
-17.6032 -45.1437 633.353
-17.6032 -44.0081 633.353
-17.6032 -42.8724 633.353
-17.6532 -41.8552 635.152
-17.67 -40.7549 635.754
-17.67 -39.6149 635.754
-17.7035 -38.548 636.961
-17.7372 -37.477 638.174
-17.7372 -36.3327 638.174
-17.771 -35.2554 639.39
-17.805 -34.1741 640.612
-17.8391 -33.0886 641.838
-17.8391 -31.9377 641.838
-17.8391 -30.7868 641.838
-17.8391 -29.6359 641.838
-17.8391 -28.4849 641.838
-17.8561 -27.3602 642.452
-17.8561 -26.2082 642.452
-17.8561 -25.0562 642.452
-17.8733 -23.9271 643.068
-17.8904 -22.7959 643.686
-17.8733 -21.6209 643.068
-17.8561 -20.4482 642.452
-17.8733 -19.3147 643.068
-17.8733 -18.1615 643.068
-17.8733 -17.0084 643.068
-17.8733 -15.8553 643.068
-17.788 -14.6321 640
-17.788 -11.1892 640
-17.8561 -10.0801 642.452
-17.8561 -8.92807 642.452
-17.8733 -7.78352 643.068
-17.8733 -6.6304 643.068
-17.8733 -5.47729 643.068
-17.8904 -4.32833 643.686
-17.9421 -3.18327 645.544
-17.994 -2.03158 647.414
-17.994 -0.870679 647.414
-17.7035 0.285541 636.961
-17.57 1.41694 632.159
-17.5535 2.54809 631.564
-17.537 3.67711 630.969
-17.5535 4.81306 631.564
-17.4876 5.92323 629.194
-17.5866 7.09138 632.755
-17.6867 8.27283 636.357
-17.6532 9.39608 635.152
-17.6532 11.6739 635.152
-17.6532 12.8128 635.152
-17.6032 13.9122 633.353
-17.6532 15.0907 635.152
-17.7035 16.2758 636.961
-17.7541 17.4678 638.781
-17.788 18.6487 640
-20.576 28.209 740.31
-20.6215 29.6018 741.947
-20.6215 30.9322 741.947
-20.7131 32.406 745.245
-20.7131 33.7424 745.245
-20.6901 35.0397 744.418
-20.7131 36.415 745.245
-20.7131 37.7513 745.245
-20.7131 39.0877 745.245
-20.7593 40.514 746.905
-20.8056 41.9468 748.572
-20.7131 43.0967 745.245
-20.7131 44.433 745.245
-20.6672 45.6678 743.593
-20.576 46.7937 740.31
-20.6672 48.3346 743.593
-20.6672 49.6679 743.593
-20.6901 51.0579 744.418
-20.7593 52.5678 746.905
-20.8521 54.1483 750.247
-20.8056 55.3697 748.572
-16.3668 135.422 588.868
-16.3238 136.12 587.321
-16.2527 136.575 584.761
-16.2385 137.504 584.251
-16.2244 138.431 583.743
-16.1962 139.235 582.728
-16.1261 139.673 580.208
-16.0567 140.108 577.709
-16.0291 140.901 576.716
-16.0153 141.813 576.22
-16.0153 142.846 576.22
-16.0016 143.756 575.726
-15.9196 144.046 572.776
-15.825 144.211 569.372
-15.8115 145.109 568.889
-15.8115 146.129 568.889
-15.7981 147.025 568.407
-15.7714 147.793 567.445
-15.705 148.184 565.055
-15.5738 147.951 560.335
-15.509 148.336 558.004
-15.4832 149.089 557.077
-15.4961 150.212 557.54
-15.4704 150.961 556.615
-15.4448 151.707 555.692
-15.381 153.066 553.4
-15.2552 152.798 548.871
-15.2178 153.405 547.527
-15.193 154.135 546.634
-15.1806 154.989 546.189
-15.1806 155.969 546.189
-15.1806 156.948 546.189
-15.0946 157.032 543.093
-15.0946 158.006 543.093
-15.0824 158.851 542.654
-15.0337 159.309 540.904
-14.9854 159.763 539.164
-14.9135 159.959 536.576
-14.8422 160.152 534.013
-14.8186 160.854 533.164
-14.7834 161.425 531.896
-14.6902 161.355 528.542
-14.644 161.793 526.882
-14.621 162.482 526.055
-14.6096 163.297 525.643
-14.5981 164.111 525.231
-14.5299 164.281 522.775
-14.4175 165.801 518.732
-14.4175 166.731 518.732
-14.4063 167.532 518.331
-14.3399 167.684 515.939
-14.2959 168.092 514.356
-14.2413 168.368 512.391
-14.2413 169.287 512.391
-14.1979 169.688 510.831
-14.1763 170.344 510.054
-14.1333 170.739 508.507
-14.0799 171.003 506.586
-14.0059 171.007 503.922
-13.9954 171.782 503.544
-13.9535 172.168 502.036
-13.9222 172.68 500.911
-13.8395 175.226 497.936
-13.8292 175.988 497.567
-13.8088 176.618 496.83
-13.657 176.44 491.37
-13.5873 176.416 488.863
-13.5774 177.164 488.507
-13.5873 178.169 488.863
-13.5774 178.916 488.507
-13.5184 179.009 486.382
-13.5086 179.751 486.029
-13.489 180.361 485.326
-13.5086 181.494 486.029
-13.3346 180.878 479.771
-13.3156 181.478 479.086
-13.2871 181.948 478.062
-13.2871 182.805 478.062
-13.2776 183.531 477.721
-13.2682 184.257 477.381
-13.1651 183.675 473.673
-18.0156 -113.995 692.893
-18.0156 -112.753 692.893
-18.0156 -111.51 692.893
-18.0156 -110.268 692.893
-18.0904 -109.478 695.768
-17.9785 -107.561 691.464
-17.9046 -105.884 688.625
-17.9046 -104.65 688.625
-17.9046 -103.415 688.625
-17.8679 -101.971 687.214
-17.8314 -100.532 685.808
-17.8314 -99.3025 685.808
-17.8132 -97.9726 685.108
-17.8132 -96.7441 685.108
-17.8132 -95.5156 685.108
-17.7769 -94.0948 683.711
-17.6867 -92.3979 680.244
-17.5444 -90.4443 674.769
-17.5092 -89.0552 673.414
-17.4391 -87.4963 670.72
-16.6404 -80.046 640
-16.5771 -78.5983 637.567
-16.4831 -77.0158 633.951
-16.2224 -73.5603 623.926
-16.1923 -72.307 622.767
-16.1923 -71.1903 622.767
-16.1923 -70.0736 622.767
-16.2224 -69.0852 623.926
-16.3901 -68.6691 630.376
-16.452 -67.7936 632.755
-16.4831 -66.785 633.951
-16.4675 -65.5862 633.353
-16.5143 -64.6336 635.152
-16.5143 -63.4947 635.152
-16.4675 -62.1791 633.353
-16.452 -60.9858 632.755
-16.4365 -59.7948 632.159
-16.4056 -58.5509 630.969
-16.3441 -57.2042 628.604
-16.3288 -56.0245 628.015
-16.3135 -54.8471 627.428
-16.3135 -53.722 627.428
-16.3288 -52.6462 628.015
-16.3441 -51.5683 628.604
-16.3288 -50.3939 628.015
-16.3288 -49.2678 628.015
-16.3288 -48.1417 628.015
-16.3135 -46.9716 627.428
-16.3135 -45.8465 627.428
-16.4675 -45.1437 633.353
-16.4675 -44.0081 633.353
-16.4831 -42.9129 633.951
-16.53 -41.8949 635.754
-16.5457 -40.7936 636.357
-16.53 -39.6149 635.754
-16.5614 -38.548 636.961
-16.6245 -37.5485 639.39
-16.6563 -36.4715 640.612
-16.6563 -35.3228 640.612
-16.6722 -34.2067 641.224
-16.6882 -33.0886 641.838
-16.6722 -31.9071 641.224
-16.6563 -30.728 640.612
-16.6722 -29.6075 641.224
-16.6882 -28.4849 641.838
-16.6882 -27.334 641.838
-16.7041 -26.2082 642.452
-16.7201 -25.0802 643.068
-16.7201 -23.9271 643.068
-16.7362 -22.7959 643.686
-16.7523 -21.6624 644.304
-16.7684 -20.5268 644.923
-16.7845 -19.389 645.544
-16.7362 -18.179 643.686
-16.7362 -17.0247 643.686
-16.7201 -15.8553 643.068
-16.7041 -14.6881 642.452
-16.6404 -13.4844 640
-16.8169 -12.4677 646.789
-16.6882 -11.2213 641.838
-16.6882 -10.0704 641.838
-16.7201 -8.93663 643.068
-16.7201 -7.78352 643.068
-16.7362 -6.63677 643.686
-16.7523 -5.48781 644.304
-16.7845 -4.34082 645.544
-16.8169 -3.18941 646.789
-16.8331 -2.03158 647.414
-16.8331 -0.870679 647.414
-16.4365 0.283388 632.159
-16.421 1.4156 631.564
-16.4365 2.55049 632.159
-16.421 3.68057 631.564
-16.4365 4.81759 632.159
-16.4365 5.95114 632.159
-16.4675 7.09807 633.353
-16.4987 8.24935 634.551
-16.4831 9.37831 633.951
-16.4675 10.5051 633.353
-16.4831 11.6518 633.951
-16.5457 12.8371 636.357
-16.5143 13.9517 635.152
-16.5457 15.1193 636.357
-16.5771 16.2913 637.567
-16.6087 17.4678 638.781
-16.6087 18.6132 638.781
-19.3338 28.3341 743.593
-19.3768 29.7334 745.245
-19.3553 31.0352 744.418
-19.3768 32.406 745.245
-19.3768 33.7424 745.245
-19.3768 35.0787 745.245
-19.3768 36.415 745.245
-19.42 37.8354 746.905
-19.42 39.1747 746.905
-19.3768 40.424 745.245
-19.4633 41.9468 748.572
-19.42 43.1927 746.905
-19.3768 44.433 745.245
-19.3553 45.7185 744.418
-19.2911 46.8972 741.947
-19.3338 48.3346 743.593
-19.3553 49.7231 744.418
-19.3124 50.9448 742.769
-19.2911 52.2189 741.947
-19.4633 54.0274 748.572
-19.4633 55.3697 748.572
-19.4633 56.712 748.572
-15.3109 135.422 588.868
-15.2975 136.358 588.351
-15.2841 137.293 587.836
-15.2707 138.226 587.321
-15.2041 138.672 584.761
-15.1909 139.599 584.251
-15.0857 139.673 580.208
-15.0078 139.987 577.212
-14.9821 140.78 576.22
-14.9821 141.813 576.22
-14.9692 142.724 575.726
-14.9435 143.51 574.739
-14.8925 144.046 572.776
-14.804 144.211 569.372
-14.804 145.232 569.372
-14.7914 146.129 568.889
-14.7664 146.9 567.926
-14.7041 147.295 565.532
-14.569 146.946 560.335
-14.5326 147.581 558.934
-14.5084 148.336 558.004
-14.4964 149.212 557.54
-14.4964 150.212 557.54
-14.4843 151.086 557.077
-14.4723 151.959 556.615
-14.2476 151.565 547.974
-14.2128 152.175 546.634
-14.2012 153.031 546.189
-14.2012 154.01 546.189
-14.2012 154.989 546.189
-14.1897 155.842 545.745
-14.1897 156.82 545.745
-14.1322 157.16 543.534
-14.1207 158.006 543.093
-14.1093 158.851 542.654
-14.0186 158.797 539.164
-13.9961 159.507 538.299
-13.9179 159.576 535.292
-13.8516 159.771 532.741
-13.8406 160.598 532.318
-13.8186 161.297 531.474
-13.7532 161.482 528.959
-13.7424 162.303 528.542
-13.6992 162.737 526.882
-13.6777 163.425 526.055
-13.6563 164.111 525.231
-13.6031 164.409 523.183
-13.5292 165.383 520.342
-13.4978 165.929 519.133
-13.4978 166.86 519.133
-13.4873 167.661 518.732
-13.4561 168.201 517.531
-13.4044 168.479 515.542
-13.3429 168.626 513.176
-13.3327 169.417 512.783
-13.3225 170.206 512.391
-13.292 170.734 511.22
-13.1915 170.352 507.353
-13.1418 170.616 505.441
-13.0924 170.879 503.544
-13.0924 171.782 503.544
-13.0435 172.039 501.661
-12.9466 174.333 497.936
-12.9466 175.226 497.936
-12.937 175.988 497.567
-12.937 176.88 497.567
-12.7853 175.687 491.731
-12.7759 176.44 491.37
-12.7386 176.803 489.935
-12.7107 177.293 488.863
-12.7015 178.04 488.507
-12.7015 178.916 488.507
-12.6462 179.009 486.382
-12.637 179.751 486.029
-12.4922 181.137 480.459
-12.4833 181.868 480.115
-12.4654 182.468 479.428
-12.4387 182.935 478.403
-12.421 183.531 477.721
-12.3682 183.603 475.688
-12.2984 183.416 473.005
-12.2811 184.004 472.338
-16.8428 -111.973 695.768
-16.8428 -110.726 695.768
-16.8079 -109.251 694.328
-16.7041 -107.34 690.042
-16.6698 -105.884 688.625
-16.6017 -104.221 685.808
-16.7041 -103.628 690.042
-16.6357 -101.971 687.214
-16.6357 -100.738 687.214
-16.6357 -99.506 687.214
-16.6186 -98.1731 686.51
-16.5847 -96.7441 685.108
-16.5847 -95.5156 685.108
-16.5509 -94.0948 683.711
-16.5004 -92.5857 681.626
-16.4336 -90.9936 678.867
-15.5372 -82.5776 641.838
-15.5521 -81.5046 642.452
-15.5076 -80.1224 640.612
-15.4485 -78.6731 638.174
-15.4046 -77.3081 636.357
-15.2885 -75.5933 631.564
-15.0896 -73.492 623.346
-15.0756 -72.307 622.767
-15.0896 -71.2565 623.346
-15.0756 -70.0736 622.767
-15.0896 -69.021 623.346
-15.3754 -69.1893 635.152
-15.4339 -68.3091 637.567
-15.4339 -67.1659 637.567
-15.4192 -65.9599 636.961
-15.4339 -64.8794 637.567
-15.4192 -63.6756 636.961
-15.3318 -62.1791 633.353
-15.3608 -61.1589 634.551
-15.3318 -59.9077 633.353
-15.3029 -58.6613 632.159
-15.2455 -57.3116 629.784
-15.2169 -56.077 628.604
-15.1884 -54.8471 627.428
-15.1884 -53.722 627.428
-15.2026 -52.6462 628.015
-15.2026 -51.5201 628.015
-15.2026 -50.3939 628.015
-15.2026 -49.2678 628.015
-15.2026 -48.1417 628.015
-15.2026 -47.0156 628.015
-15.1884 -45.8465 627.428
-15.2598 -44.9316 630.376
-15.3174 -43.9665 632.755
-15.3608 -42.9535 634.551
-15.4192 -41.9745 636.961
-15.4192 -40.8323 636.961
-15.4192 -39.6902 636.961
-15.4339 -38.5846 637.567
-15.4928 -37.5843 640
-15.5224 -36.5064 641.224
-15.5224 -35.3566 641.224
-15.5372 -34.2395 641.838
-15.5372 -33.0886 641.838
-15.5224 -31.9071 641.224
-15.5076 -30.728 640.612
-15.5372 -29.6359 641.838
-15.5372 -28.4849 641.838
-15.5372 -27.334 641.838
-15.5521 -26.2082 642.452
-15.567 -25.0802 643.068
-15.582 -23.9501 643.686
-15.5969 -22.8178 644.304
-15.642 -21.725 646.166
-15.642 -20.5664 646.166
-15.6571 -19.4264 646.789
-15.627 -18.2315 645.544
-15.6119 -17.0575 644.923
-15.6119 -15.901 644.923
-15.6119 -14.7446 644.923
-15.6722 -13.6406 647.414
-15.6722 -12.4797 647.414
-15.478 -11.1786 639.39
-15.5224 -10.0608 641.224
-15.5521 -8.92807 642.452
-15.582 -7.79099 643.686
-15.5969 -6.64314 644.304
-15.642 -5.50367 646.166
-15.6571 -4.3492 646.789
-15.6874 -3.19557 648.039
-15.6874 -2.03355 648.039
-15.6874 -0.87152 648.039
-15.3029 1.41694 632.159
-15.3174 2.5529 632.755
-15.2885 3.68057 631.564
-15.2885 4.81306 631.564
-15.3174 5.95676 632.755
-15.3463 7.10478 633.951
-15.3608 8.24935 634.551
-15.3463 9.37831 633.951
-15.3463 10.5151 633.951
-15.39 11.685 635.754
-15.4046 12.8371 636.357
-15.39 13.965 635.754
-15.4192 15.1337 636.961
-15.4485 16.3068 638.174
-15.4339 17.4345 637.567
-15.4928 18.6487 640
-18.0405 28.397 745.245
-18.0405 29.7334 745.245
-18.0605 31.1043 746.074
-18.0605 32.4421 746.074
-18.0605 33.7799 746.074
-18.0605 35.1177 746.074
-18.0806 36.4961 746.905
-18.121 37.9199 748.572
-18.121 39.2622 748.572
-18.0806 40.514 746.905
-18.121 41.9468 748.572
-18.121 43.2891 748.572
-18.0806 44.532 746.905
-18.0005 45.6678 743.593
-18.0005 47.0012 743.593
-18.0005 48.3346 743.593
-18.0005 49.6679 743.593
-18.0005 51.0013 743.593
-18.0005 52.3347 743.593
-18.0405 53.7873 745.245
-18.0405 55.1236 745.245
-14.3431 135.197 592.509
-14.3305 136.139 591.986
-14.255 136.478 588.868
-14.2425 137.413 588.351
-14.2175 138.226 587.321
-14.1556 138.672 584.761
-14.1432 139.599 584.251
-14.0453 139.673 580.208
-13.9728 139.987 577.212
-13.9488 140.78 576.22
-13.9368 141.691 575.726
-13.9368 142.724 575.726
-13.913 143.51 574.739
-13.8892 144.293 573.756
-13.748 143.845 567.926
-13.748 144.863 567.926
-13.7132 145.512 566.487
-13.6785 146.158 565.055
-13.5756 146.063 560.803
-13.5416 146.701 559.4
-13.5078 147.335 558.004
-13.5078 148.336 558.004
-13.4966 149.212 557.54
-13.4966 150.212 557.54
-13.463 150.836 556.153
-13.3964 151.081 553.4
-13.3085 151.077 549.771
-13.3085 152.062 549.771
-13.2976 152.923 549.321
-13.2542 153.405 547.527
-13.2326 154.135 546.634
-13.2218 154.989 546.189
-13.2111 155.842 545.745
-13.2111 156.82 545.745
-13.1576 157.16 543.534
-13.1469 158.006 543.093
-13.115 158.595 541.777
-13.0623 158.924 539.598
-13.0413 159.635 538.731
-12.958 159.576 535.292
-12.9065 159.898 533.164
-12.8963 160.726 532.741
-12.8758 161.425 531.896
-12.8351 161.865 530.214
-12.8047 162.431 528.959
-12.7947 163.25 528.542
-12.7545 163.682 526.882
-12.7245 164.24 525.643
-12.6353 164.025 521.961
-12.6255 164.833 521.556
-12.6353 165.897 521.961
-12.5766 166.058 519.536
-12.5669 166.86 519.133
-12.5572 167.661 518.732
-12.5184 168.072 517.132
-12.4896 168.609 515.939
-12.4132 168.497 512.783
-12.4037 169.287 512.391
-12.3659 169.688 510.831
-12.3471 170.344 510.054
-12.2632 170.095 506.586
-12.2447 170.745 505.822
-12.1987 171.007 503.922
-12.1987 171.911 503.922
-12.0092 173.688 496.095
-12.0448 175.096 497.567
-12.0448 175.988 497.567
-12.0092 176.357 496.095
-11.9035 175.687 491.731
-11.9035 176.569 491.731
-11.8601 176.803 489.935
-11.8341 177.293 488.863
-11.8255 178.04 488.507
-11.8169 178.785 488.152
-11.7826 179.139 486.735
-11.7741 179.881 486.382
-11.6307 181.137 480.459
-11.614 181.738 479.771
-11.5809 182.077 478.403
-11.5726 182.805 478.062
-11.5562 183.401 477.381
-11.507 183.473 475.351
-11.4907 184.065 474.678
-11.4583 184.394 473.338
-11.4422 184.982 472.671
-11.4341 185.698 472.338
-15.6276 -114.706 697.215
-15.5951 -113.221 695.768
-15.6113 -112.089 696.491
-15.6276 -110.956 697.215
-15.5951 -109.478 695.768
-15.4987 -107.561 691.464
-15.4827 -106.211 690.752
-15.4668 -104.865 690.042
-15.4827 -103.734 690.752
-15.4668 -102.39 690.042
-15.4034 -100.738 687.214
-15.435 -99.7103 688.625
-15.435 -98.4755 688.625
-15.435 -97.2407 688.625
-15.4034 -95.8092 687.214
-15.3405 -94.1909 684.409
-15.3249 -92.8689 683.711
-15.2163 -90.9936 678.867
-14.4001 -82.6567 642.452
-14.4001 -81.5046 642.452
-14.3726 -80.199 641.224
-14.3178 -78.7481 638.781
-14.2906 -77.4551 637.567
-14.1828 -75.7359 632.755
-14.0765 -74.0425 628.015
-13.9589 -72.307 622.767
-13.9719 -71.2565 623.346
-13.9589 -70.0736 622.767
-13.9719 -69.021 623.346
-14.3178 -69.5847 638.781
-14.3178 -68.4392 638.781
-14.2906 -67.1659 637.567
-14.2635 -65.8973 636.357
-14.2365 -64.6336 635.152
-14.2096 -63.3747 633.951
-14.1294 -61.8869 630.376
-14.1294 -60.7566 630.376
-14.1294 -59.6262 630.376
-14.1029 -58.3861 629.194
-14.0897 -57.2042 628.604
-14.0633 -55.9721 627.428
-14.0502 -54.7958 626.842
-14.0633 -53.722 627.428
-14.0633 -52.5969 627.428
-14.0633 -51.4719 627.428
-14.0633 -50.3468 627.428
-14.0765 -49.2678 628.015
-14.0765 -48.1417 628.015
-14.0502 -46.9277 626.842
-14.0502 -45.8037 626.842
-14.1294 -44.9316 630.376
-14.1828 -43.9665 632.755
-14.1961 -42.8724 633.353
-14.25 -41.8949 635.754
-14.277 -40.8323 636.961
-14.2635 -39.6525 636.357
-14.277 -38.548 636.961
-14.3452 -37.5843 640
-14.3178 -36.3673 638.781
-14.3589 -35.3228 640.612
-14.3863 -34.2395 641.838
-14.3863 -33.0886 641.838
-14.3726 -31.9071 641.224
-14.3863 -30.7868 641.838
-14.3863 -29.6359 641.838
-14.3863 -28.4849 641.838
-14.4001 -27.3602 642.452
-14.4001 -26.2082 642.452
-14.4001 -25.0562 642.452
-14.4278 -23.9501 643.686
-14.4694 -22.8617 645.544
-14.4973 -21.746 646.789
-14.5113 -20.6061 647.414
-14.5113 -19.4452 647.414
-14.5113 -18.2843 647.414
-14.4973 -17.1068 646.789
-14.4834 -15.9317 646.166
-14.4834 -14.773 646.166
-14.4834 -13.6144 646.166
-14.4973 -12.4677 646.789
-14.5113 -11.3188 647.414
-14.3863 -10.0704 641.838
-14.4139 -8.93663 643.068
-14.4278 -7.79099 643.686
-14.4416 -6.64314 644.304
-14.4834 -5.50367 646.166
-14.4973 -4.3492 646.789
-14.5113 -3.19249 647.414
-14.5253 -2.03355 648.039
-14.5113 -0.870679 647.414
-14.1694 0.283388 632.159
-14.1694 1.41694 632.159
-14.1694 2.55049 632.159
-14.156 3.68057 631.564
-14.1694 4.81759 632.159
-14.1828 5.95676 632.755
-14.2096 7.10478 633.951
-14.2365 8.25716 635.152
-14.2096 9.37831 633.951
-14.1828 10.4952 632.755
-14.1961 11.6408 633.353
-14.2365 12.8128 635.152
-14.2365 13.9517 635.152
-14.2635 15.1193 636.357
-14.2906 16.2913 637.567
-14.2906 17.4345 637.567
-16.8162 28.5876 750.247
-16.8351 29.9664 751.087
-16.8539 31.3483 751.929
-16.8351 32.66 751.087
-16.8539 34.045 751.929
-16.8539 35.3933 751.929
-16.8539 36.7416 751.929
-16.8729 38.1327 752.773
-16.8729 39.4825 752.773
-16.8539 40.7866 751.929
-16.8539 42.1349 751.929
-16.8539 43.4832 751.929
-16.7787 44.6314 748.572
-16.6856 45.7185 744.418
-16.6671 47.0012 743.593
-16.6302 48.2276 741.947
-16.6302 49.5581 741.947
-16.5935 50.7761 740.31
-16.5935 52.1036 740.31
-16.7041 53.7873 745.245
-16.7041 55.1236 745.245
-13.2807 135.197 592.509
-13.2807 136.26 592.509
-13.2456 136.959 590.943
-13.1991 137.534 588.868
-13.1759 138.347 587.836
-13.0956 138.551 584.251
-13.0842 139.477 583.743
-13.0162 139.794 580.71
-12.9825 140.471 579.206
-12.9267 140.901 576.716
-12.9267 141.935 576.716
-12.9267 142.969 576.716
-12.9045 143.756 575.726
-12.8384 144.046 572.776
-12.7297 143.845 567.926
-12.676 144.253 565.532
-12.6653 145.144 565.055
-12.6653 146.158 565.055
-12.6016 146.431 562.213
-12.5595 146.946 560.335
-12.549 147.827 559.867
-12.5281 148.583 558.934
-12.5073 149.337 558.004
-12.4969 150.212 557.54
-12.4658 150.836 556.153
-12.3938 150.957 552.943
-12.3531 151.449 551.126
-12.343 152.312 550.674
-12.3227 153.048 549.771
-12.3026 153.782 548.871
-12.2524 154.135 546.634
-12.2325 154.863 545.745
-12.2325 155.842 545.745
-12.2225 156.693 545.301
-12.1731 157.032 543.093
-12.1534 157.751 542.215
-12.1436 158.595 541.777
-12.0947 158.924 539.598
-12.085 159.763 539.164
-12.085 160.73 539.164
-11.9982 160.536 535.292
-11.9505 160.854 533.164
-11.9315 161.553 532.318
-11.9221 162.378 531.896
-11.875 162.687 529.795
-11.8469 163.25 528.542
-11.8097 163.682 526.882
-11.7635 163.983 524.82
-11.636 165.929 519.133
-11.627 166.731 518.732
-11.5822 167.016 516.734
-11.5644 167.684 515.939
-11.5378 168.221 514.751
-11.4937 168.497 512.783
-11.4849 169.287 512.391
-11.4412 169.558 510.442
-11.4325 170.344 510.054
-11.3892 170.61 508.122
-11.3462 170.874 506.204
-11.2951 171.007 503.922
-11.1196 172.799 496.095
-11.1114 173.56 495.728
-11.1361 174.837 496.83
-11.1196 175.468 496.095
-11.095 175.967 494.997
-11.0542 176.204 493.177
-11.0218 176.569 491.731
-10.9735 176.674 489.577
-10.9575 177.293 488.863
-10.9416 177.91 488.152
-10.9416 178.785 488.152
-10.9098 179.139 486.735
-10.746 181.608 479.428
-10.7307 182.207 478.744
-10.7154 182.805 478.062
-10.6925 183.27 477.042
-10.6547 183.473 475.351
-10.6471 184.195 475.014
-10.6396 184.916 474.678
-10.617 185.373 473.673
-10.5946 185.829 472.671
-14.3774 -112.206 697.215
-14.3624 -110.841 696.491
-14.3475 -109.478 695.768
-14.3327 -108.118 695.047
-14.3327 -106.872 695.047
-14.2588 -105.081 691.464
-14.3178 -104.271 694.328
-14.2882 -102.813 692.893
-14.2294 -101.153 690.042
-14.2294 -99.9155 690.042
-14.2002 -98.4755 688.625
-14.2148 -97.3406 689.332
-14.1711 -95.8092 687.214
-14.1277 -94.2871 685.108
-14.1133 -92.9636 684.409
-13.2481 -86.1127 642.452
-13.2735 -85.1237 643.686
-13.2354 -83.7285 641.838
-13.2354 -82.5776 641.838
-13.2354 -81.4267 641.838
-13.1975 -80.046 640
-13.1349 -78.5237 636.961
-13.0728 -77.0158 633.951
-13.0481 -75.7359 632.755
-12.9991 -74.3208 630.376
-12.9747 -73.0532 629.194
-12.8422 -71.1903 622.767
-12.8303 -70.0086 622.19
-12.8422 -68.9569 622.767
-13.1599 -69.5184 638.174
-13.1474 -68.3091 637.567
-13.1474 -67.1659 637.567
-13.1224 -65.8973 636.357
-13.11 -64.6949 635.754
-13.0605 -63.3148 633.353
-13.0481 -62.1205 632.755
-13.0481 -60.9858 632.755
-13.0358 -59.7948 632.159
-13.0113 -58.5509 630.969
-12.9991 -57.3655 630.376
-12.9625 -56.077 628.604
-12.9383 -54.8471 627.428
-12.9383 -53.722 627.428
-12.9504 -52.6462 628.015
-12.9504 -51.5201 628.015
-12.9504 -50.3939 628.015
-12.9504 -49.2678 628.015
-12.9747 -48.232 629.194
-12.9504 -47.0156 628.015
-12.9504 -45.8894 628.015
-12.9747 -44.8473 629.194
-13.0236 -43.8837 631.564
-13.0605 -42.8724 633.353
-13.0728 -41.7761 633.951
-13.1224 -40.7936 636.357
-13.1224 -39.6525 636.357
-13.1349 -38.548 636.961
-13.1724 -37.5127 638.781
-13.1724 -36.3673 638.781
-13.1724 -35.2219 638.781
-13.1975 -34.1415 640
-13.1599 -32.8997 638.174
-13.1599 -31.7553 638.174
-13.1599 -30.611 638.174
-13.185 -29.5228 639.39
-13.2228 -28.4577 641.224
-13.2354 -27.334 641.838
-13.2354 -26.1831 641.838
-13.2354 -25.0322 641.838
-13.2481 -23.9042 642.452
-13.2608 -22.774 643.068
-13.3119 -21.7041 645.544
-13.3375 -20.5862 646.789
-13.3504 -19.4452 647.414
-13.3504 -18.2843 647.414
-13.3504 -17.1234 647.414
-13.3375 -15.9471 646.789
-13.3504 -14.8015 647.414
-13.3504 -13.6406 647.414
-13.3504 -12.4797 647.414
-13.2481 -10.0801 642.452
-13.2608 -8.93663 643.068
-13.2735 -7.79099 643.686
-13.2991 -6.64953 644.923
-13.3247 -5.50367 646.166
-13.3375 -4.3492 646.789
-13.3504 -3.19249 647.414
-13.3633 -2.03355 648.039
-13.3504 -0.870679 647.414
-13.0976 1.42365 635.152
-13.0976 2.56257 635.152
-13.0605 3.691 633.353
-13.0605 4.82669 633.353
-13.0728 5.96802 633.951
-13.0976 7.11824 635.152
-13.0976 8.25716 635.152
-13.1224 9.41391 636.357
-13.0976 10.535 635.152
-13.11 11.685 635.754
-13.1224 12.8371 636.357
-13.11 13.965 635.754
-13.1349 15.1337 636.961
-13.1599 16.3068 638.174
-13.1724 17.4678 638.781
-15.523 28.6839 752.773
-15.5405 30.0674 753.618
-15.5755 31.4895 755.316
-15.5405 32.7701 753.618
-15.5056 34.045 751.929
-15.5056 35.3933 751.929
-15.5056 36.7416 751.929
-15.5755 38.2615 755.316
-15.5056 39.4382 751.929
-15.5056 40.7866 751.929
-15.5056 42.1349 751.929
-15.5056 43.4832 751.929
-15.4709 44.7312 750.247
-15.3678 45.7693 745.245
-15.3507 47.0534 744.418
-15.3167 48.2811 742.769
-15.266 49.4487 740.31
-15.266 50.7761 740.31
-15.2492 52.0462 739.493
-15.2324 53.3134 738.679
-15.2998 54.8797 741.947
-15.3678 56.46 745.245
-12.2615 135.677 594.61
-12.2615 136.743 594.61
-12.229 137.444 593.033
-12.1431 137.534 588.868
-12.1112 138.226 587.321
-12.069 138.793 585.271
-12.0479 139.599 584.251
-12.027 140.402 583.235
-11.9542 140.592 579.706
-11.913 141.143 577.709
-11.9028 142.057 577.212
-11.8925 142.969 576.716
-11.8721 143.756 575.726
-11.8113 144.046 572.776
-11.7113 143.845 567.926
-11.6915 144.619 566.966
-11.6619 145.267 565.532
-11.5644 146.063 560.803
-11.5547 146.946 560.335
-11.5451 147.827 559.867
-11.5355 148.707 559.4
-11.5067 149.337 558.004
-11.4971 150.212 557.54
-11.4876 151.086 557.077
-11.4401 151.456 554.773
-11.4023 151.948 552.943
-11.3929 152.814 552.488
-11.3648 153.425 551.126
-11.3369 154.034 549.771
-11.263 154.01 546.189
-11.2539 154.863 545.745
-11.2447 155.715 545.301
-11.2265 156.439 544.416
-11.1992 157.032 543.093
-11.1721 157.623 541.777
-11.1361 158.084 540.033
-11.1182 158.797 539.164
-11.056 159.831 536.147
-11.0383 160.536 535.292
-11.0207 161.238 534.439
-10.9857 161.681 532.741
-10.9857 162.636 532.741
-10.925 162.687 529.795
-10.8992 163.25 528.542
-10.8479 163.425 526.055
-10.7971 163.599 523.591
-10.6968 164.871 518.732
-10.6886 165.673 518.331
-10.6639 166.217 517.132
-10.6474 166.887 516.336
-10.6392 167.684 515.939
-10.6311 168.479 515.542
-10.5904 168.755 513.568
-10.5823 169.546 513.176
-10.55 169.946 511.61
-10.5179 170.344 510.054
-10.4543 170.223 506.969
-10.4385 170.874 506.204
-10.3993 171.136 504.301
-10.3915 171.911 503.922
-10.2376 172.927 496.462
-10.23 173.688 496.095
-10.2528 174.966 497.198
-10.2604 175.988 497.567
-10.1999 175.837 494.632
-10.1475 175.816 492.091
-10.1326 176.44 491.37
-10.0883 176.545 489.22
-10.0662 177.035 488.152
-10.037 177.394 486.735
-10.0662 178.785 488.152
-10.0736 179.791 488.507
-9.89344 181.738 479.771
-9.90052 182.729 480.115
-9.86521 182.935 478.403
-9.84414 183.401 477.381
-9.83015 183.995 476.703
-9.80924 184.456 475.688
-9.79534 185.047 475.014
-9.77457 185.504 474.007
-9.74702 185.829 472.671
-13.182 -112.674 700.126
-13.1682 -111.303 699.396
-13.1545 -109.934 698.667
-13.1545 -108.681 698.667
-13.1272 -107.205 697.215
-13.0999 -105.735 695.768
-13.0999 -104.487 695.768
-13.0728 -103.026 694.328
-13.0458 -101.571 692.893
-13.0055 -100.018 690.752
-12.9921 -98.6781 690.042
-13.0055 -97.5411 690.752
-12.9788 -96.1046 689.332
-12.9389 -94.5769 687.214
-12.886 -92.9636 684.409
-12.0845 -86.0303 641.838
-12.1077 -85.0421 643.068
-12.0845 -83.7285 641.838
-12.0845 -82.5776 641.838
-12.0845 -81.4267 641.838
-12.0155 -79.8175 638.174
-11.9927 -78.5237 636.961
-11.9586 -77.1617 635.152
-11.9135 -75.7359 632.755
-11.8687 -74.3208 630.376
-11.8243 -72.9164 628.015
-11.8132 -71.7231 627.428
-11.8243 -70.6641 628.015
-12.0961 -71.1366 642.452
-12.0845 -69.9176 641.838
-12.027 -68.4392 638.781
-12.0155 -67.2298 638.174
-12.0041 -66.0226 637.567
-11.9927 -64.8177 636.961
-11.9586 -63.4947 635.152
-11.9248 -62.1791 633.353
-11.9248 -61.0434 633.353
-11.9023 -59.7948 632.159
-11.8465 -58.3861 629.194
-11.8243 -57.1507 628.015
-11.8132 -55.9721 627.428
-11.8132 -54.8471 627.428
-11.8022 -53.6718 626.842
-11.7912 -52.4987 626.256
-11.8132 -51.4719 627.428
-11.8132 -50.3468 627.428
-11.8132 -49.2217 627.428
-11.8132 -48.0967 627.428
-11.8132 -46.9716 627.428
-11.8687 -46.062 630.376
-11.8911 -45.0162 631.564
-11.9023 -43.9251 632.159
-11.9135 -42.8319 632.755
-11.936 -41.7761 633.951
-11.9586 -40.7163 635.152
-11.9813 -39.6525 636.357
-11.9927 -38.548 636.961
-12.027 -37.5127 638.781
-12.0499 -36.4367 640
-12.027 -35.2219 638.781
-12.027 -34.0764 638.781
-11.9927 -32.8372 636.961
-12.0041 -31.7251 637.567
-12.0041 -30.5819 637.567
-12.027 -29.4947 638.781
-12.0499 -28.4034 640
-12.0845 -27.334 641.838
-12.0845 -26.1831 641.838
-12.0845 -25.0322 641.838
-12.0961 -23.9042 642.452
-12.1077 -22.774 643.068
-12.131 -21.6624 644.304
-12.1777 -20.5862 646.789
-12.2013 -19.4639 648.039
-12.1895 -18.2843 647.414
-12.1895 -17.1234 647.414
-12.1777 -15.9471 646.789
-12.2013 -14.8158 648.039
-12.2367 -13.6935 649.923
-12.1895 -12.4797 647.414
-12.1426 -7.80597 644.923
-12.166 -6.66234 646.166
-12.1777 -5.50898 646.789
-12.1777 -4.3492 646.789
-12.1895 -3.19249 647.414
-12.2013 -2.03355 648.039
-12.1895 -0.870679 647.414
-12.0155 1.43042 638.174
-12.0041 2.57231 637.567
-11.9927 3.71203 636.961
-11.9813 4.84959 636.357
-11.9813 5.99067 636.357
-12.0041 7.1453 637.567
-12.0041 8.28855 637.567
-12.0961 9.50408 642.452
-12.0499 10.6154 640
-12.0155 11.7294 638.174
-12.0041 12.8615 637.567
-11.9927 13.9915 636.961
-12.0041 15.148 637.567
-14.1732 28.6839 752.773
-14.2211 30.1352 755.316
-14.1891 31.4188 753.618
-14.1891 32.7701 753.618
-14.2211 34.1983 755.316
-14.2693 35.6732 757.876
-14.2532 36.9904 757.021
-14.2532 38.3479 757.021
-14.2532 39.7053 757.021
-14.2532 41.0628 757.021
-14.2532 42.4202 757.021
-14.2211 43.6791 755.316
-14.1415 44.7813 751.087
-14.0941 45.9737 748.572
-14.0315 47.1057 745.245
-14.0004 48.3346 743.593
-13.9385 49.4487 740.31
-13.9385 50.7761 740.31
-13.9385 52.1036 740.31
-13.9694 53.5493 741.947
-13.9694 54.8797 741.947
-14.0315 56.46 745.245
-11.1558 136.26 592.509
-11.1361 137.08 591.464
-11.0969 137.655 589.385
-11.0775 138.468 588.351
-11.0387 139.036 586.294
-11.0195 139.842 585.271
-11.0003 140.646 584.251
-10.9147 140.592 579.706
-10.8584 140.901 576.716
-10.8491 141.813 576.22
-10.8398 142.724 575.726
-10.7842 143.019 572.776
-10.7658 143.801 571.799
-10.6929 143.845 567.926
-10.6568 144.374 566.009
-10.6568 145.389 566.009
-10.6031 146.677 563.157
-10.5765 147.315 561.742
-10.5588 148.075 560.803
-10.5412 148.831 559.867
-10.4886 149.089 557.077
-10.4799 149.963 556.615
-10.4712 150.836 556.153
-10.428 151.206 553.857
-10.4022 151.823 552.488
-10.3937 152.688 552.033
-10.3511 153.048 549.771
-10.3341 153.782 548.871
-10.292 154.135 546.634
-10.2753 154.863 545.745
-10.2586 155.589 544.858
-10.2337 156.185 543.534
-10.2171 156.905 542.654
-10.2006 157.623 541.777
-10.1596 157.957 539.598
-10.1596 158.924 539.598
-10.1596 159.892 539.598
-10.1514 160.73 539.164
-10.0865 160.664 535.719
-10.0704 161.367 534.865
-10.0384 161.81 533.164
-10.0225 162.507 532.318
-9.99867 163.074 531.053
-9.95925 163.379 528.959
-9.92793 163.811 527.296
-9.84281 163.344 522.775
-9.76669 164.871 518.732
-9.75914 165.673 518.331
-9.75914 166.602 518.331
-9.73657 167.144 517.132
-9.72906 167.942 516.734
-9.72157 168.739 516.336
-9.70663 169.404 515.542
-9.7141 170.459 515.939
-9.63259 169.946 511.61
-9.60329 170.344 510.054
-9.55244 170.352 507.353
-9.53081 170.874 506.204
-9.48785 171.007 503.922
-9.48785 171.911 503.922
-9.48785 172.814 503.922
-9.3198 173.304 494.997
-9.32668 174.32 495.362
-9.3198 175.079 494.997
-9.30606 175.707 494.267
-9.27871 176.075 492.814
-9.2583 176.569 491.731
-9.21776 176.674 489.577
-9.18424 176.906 487.797
-9.1576 177.265 486.382
-9.19092 178.785 488.152
-9.18424 179.53 487.797
-9.00095 181.09 478.062
-9.02668 182.468 479.428
-9.00095 182.805 478.062
-8.98174 183.27 477.042
-8.96262 183.734 476.026
-8.94991 184.326 475.351
-8.94357 185.047 475.014
-8.93092 185.636 474.343
-8.89945 185.829 472.671
-11.8523 -113.221 695.768
-11.9017 -112.44 698.667
-11.9265 -111.419 700.126
-11.9265 -110.164 700.126
-11.9265 -108.908 700.126
-11.9017 -107.428 698.667
-11.8646 -105.845 696.491
-11.8646 -104.596 696.491
-11.8646 -103.347 696.491
-11.8523 -101.992 695.768
-11.84 -100.64 695.047
-11.84 -99.3939 695.047
-11.8523 -98.2494 695.768
-11.7548 -96.2034 690.042
-10.9336 -87.1812 641.838
-10.9441 -86.1127 642.452
-10.9862 -85.2875 644.923
-10.9336 -83.7285 641.838
-10.9441 -82.6567 642.452
-10.9336 -81.4267 641.838
-10.9232 -80.199 641.224
-10.8609 -78.5983 637.567
-10.8505 -77.3815 636.961
-10.7993 -75.8791 633.951
-10.7891 -74.6717 633.353
-10.7789 -73.4667 632.755
-10.9441 -71.1366 642.452
-10.9336 -69.9176 641.838
-10.8712 -68.3741 638.174
-10.8815 -67.2938 638.781
-10.8609 -66.0226 637.567
-10.8197 -64.6336 635.152
-10.7993 -63.3747 633.951
-10.7789 -62.1205 632.755
-10.8505 -61.3913 636.961
-10.7891 -59.9077 633.353
-10.7891 -58.772 633.353
-10.6881 -55.9721 627.428
-10.6881 -54.8471 627.428
-10.6881 -53.722 627.428
-10.6782 -52.5478 626.842
-10.6881 -51.4719 627.428
-10.6881 -50.3468 627.428
-10.6881 -49.2217 627.428
-10.6881 -48.0967 627.428
-10.6881 -46.9716 627.428
-10.6982 -45.8894 628.015
-10.7384 -44.9316 630.376
-10.7485 -43.8425 630.969
-10.7789 -42.8319 632.755
-10.7891 -41.7367 633.353
-10.8505 -40.8323 636.961
-10.8505 -39.6902 636.961
-10.8609 -38.5846 637.567
-10.9023 -37.5843 640
-10.8919 -36.402 639.39
-10.8609 -35.1549 637.567
-10.8609 -34.0116 637.567
-10.8609 -32.8684 637.567
-10.8712 -31.7553 638.174
-10.8712 -30.611 638.174
-10.8712 -29.4667 638.174
-10.9023 -28.4034 640
-10.9232 -27.3079 641.224
-10.9232 -26.1581 641.224
-10.9232 -25.0083 641.224
-10.9441 -23.9042 642.452
-10.9546 -22.774 643.068
-10.9862 -21.6833 644.923
-11.018 -20.5862 646.789
-11.0286 -19.4452 647.414
-11.0286 -18.2843 647.414
-11.0286 -17.1234 647.414
-11.0286 -15.9624 647.414
-11.0713 -14.8589 649.923
-11.0713 -13.6935 649.923
-11.0713 -12.5281 649.923
-11.0286 -7.83611 647.414
-11.0286 -6.6752 647.414
-11.0286 -5.5143 647.414
-10.9441 -4.32003 642.452
-10.9232 -3.16197 641.224
-10.9023 -2.00832 640
-10.9023 -0.860709 640
-10.9023 0.286903 640
-10.8712 1.43042 638.174
-10.9023 2.58213 640
-10.8505 3.71203 636.961
-10.8609 4.85881 637.567
-10.8609 6.00206 637.567
-10.9441 7.20006 642.452
-10.9651 8.3681 643.686
-10.9862 9.54063 644.923
-10.9441 10.6561 642.452
-10.8609 11.7183 637.567
-10.8609 12.8615 637.567
-12.8378 27.3648 753.618
-12.8378 28.7161 753.618
-12.8957 30.2032 757.021
-12.8378 31.4188 753.618
-12.8378 32.7701 753.618
-12.8667 34.1983 755.316
-12.8957 35.633 757.021
-12.9249 37.0741 758.734
-12.8957 38.3479 757.021
-12.8957 39.7053 757.021
-12.8667 42.3247 755.316
-12.809 43.4832 751.929
-12.7803 44.7312 750.247
-12.7234 45.8713 746.905
-12.7093 47.1581 746.074
-12.6811 48.3882 744.418
-12.667 49.6679 743.593
-12.667 51.0013 743.593
-12.667 52.3347 743.593
-12.639 53.5493 741.947
-12.667 55.0014 743.593
-12.6951 56.46 745.245
-12.6951 57.7963 745.245
-12.6951 59.1326 745.245
-10.1022 135.317 593.033
-10.0933 136.26 592.509
-10.0844 137.201 591.986
-10.0666 138.019 590.943
-10.0313 138.59 588.868
-10.0225 139.523 588.351
-10.0137 140.455 587.836
-9.91808 140.158 582.223
-9.86669 140.471 579.206
-9.82427 140.901 576.716
-9.81583 141.813 576.22
-9.80741 142.724 575.726
-9.75715 143.019 572.776
-9.72394 143.556 570.826
-9.67454 143.845 567.926
-9.65818 144.619 566.966
-9.57722 146.431 562.213
-9.5612 147.192 561.272
-9.54522 147.951 560.335
-9.5293 148.707 559.4
-9.48972 149.089 557.077
-9.48185 149.963 556.615
-9.4583 150.586 555.232
-9.42709 151.081 553.4
-9.40381 151.698 552.033
-9.39608 152.563 551.579
-9.36527 153.048 549.771
-9.34994 153.782 548.871
-9.31184 154.135 546.634
-9.29669 154.863 545.745
-9.29669 155.842 545.745
-9.27405 156.439 544.416
