ply
format ascii 1.0
element vertex 1924
property float x
property float y
property float z
end_header
-59.3759 175.226 497.936
-59.3759 176.119 497.936
-58.9819 175.837 494.632
-58.9384 176.594 494.267
-58.9384 177.48 494.267
-58.8516 178.104 493.54
-58.6359 178.333 491.731
-57.622 176.982 483.228
-57.4565 179.065 481.839
-57.2918 180.275 480.459
-56.9248 179.977 477.381
-56.9654 180.961 477.721
-56.9248 181.689 477.381
-56.7632 182.026 476.026
-56.723 182.75 475.688
-56.723 183.603 475.688
-56.7632 184.587 476.026
-56.6426 185.047 475.014
-56.4428 185.243 473.338
-56.2839 185.568 472.006
-56.1653 186.021 471.012
-56.1259 186.735 470.681
-84.8887 -68.3646 722.759
-84.8887 -67.0685 722.759
-85.072 -65.9146 724.32
-85.072 -64.6158 724.32
-84.7973 -63.1125 721.981
-84.8887 -61.8845 722.759
-73.1446 -39.9224 622.767
-73.2125 -34.3708 623.346
-73.4857 -33.3771 625.672
-73.4857 -32.2552 625.672
-73.4857 -31.1333 625.672
-73.4857 -30.0113 625.672
-73.761 -28.9976 628.015
-73.761 -27.8715 628.015
-73.761 -26.7454 628.015
-73.8301 -25.6433 628.604
-73.8993 -24.5391 629.194
-74.1777 -23.499 631.564
-75.529 -22.774 643.068
-75.6741 -21.6624 644.304
-75.966 -20.5862 646.789
-75.966 -19.4264 646.789
-75.8928 -18.249 646.166
-75.966 -17.1068 646.789
-75.966 -15.9471 646.789
-76.0393 -14.8015 647.414
-75.8928 -13.6144 646.166
-75.3123 -12.3604 641.224
-75.1686 -11.1892 640
-74.8828 -10.0034 637.567
-75.1686 -8.894 640
-75.4566 -7.77606 642.452
-75.529 -6.6304 643.068
-75.4566 -5.47204 642.452
-77.1564 42.7011 656.925
-77.1564 43.879 656.925
-77.1564 45.057 656.925
-77.1564 46.235 656.925
-77.1564 47.4129 656.925
-77.0056 48.4959 655.641
-77.0056 49.6715 655.641
-77.0056 50.8472 655.641
-77.1564 52.1248 656.925
-77.0809 53.2506 656.282
-77.0809 54.4274 656.282
-77.1564 55.6586 656.925
-77.1564 56.8366 656.925
-77.1564 58.0146 656.925
-77.0809 59.1346 656.282
-77.0809 60.3114 656.282
-77.1564 61.5484 656.925
-77.0809 62.665 656.282
-78.1515 69.5011 665.397
-78.2291 70.7645 666.058
-78.1515 71.8874 665.397
-78.3069 73.2259 666.72
-78.3069 74.4214 666.72
-78.3069 75.6169 666.72
-78.3848 76.8889 667.384
-78.4629 78.1634 668.048
-78.3848 79.2823 667.384
-78.3069 80.399 666.72
-78.4629 81.7571 668.048
-69.163 136.478 588.868
-69.163 137.534 588.868
-69.1024 138.468 588.351
-68.6208 138.551 584.251
-68.3232 138.993 581.718
-68.264 139.915 581.214
-68.2049 140.835 580.71
-68.1459 141.754 580.208
-68.1459 142.794 580.208
-67.8524 143.215 577.709
-67.6776 143.879 576.22
-67.273 145.073 572.776
-67.2156 145.976 572.287
-66.7599 146.005 568.407
-66.7034 146.9 567.926
-66.5906 147.669 566.966
-66.4222 148.309 565.532
-66.1433 148.696 563.157
-65.9219 149.205 561.272
-65.4835 149.212 557.54
-65.4291 150.087 557.077
-65.3749 150.961 556.615
-65.3206 151.833 556.153
-65.0509 152.199 553.857
-64.8902 152.814 552.488
-64.6771 153.3 550.674
-64.624 154.16 550.222
-64.5182 154.893 549.321
-64.2551 155.242 547.08
-64.1504 155.969 546.189
-64.0982 156.82 545.745
-64.0982 157.799 545.745
-63.6322 157.623 541.777
-63.0718 157.198 537.006
-62.9207 157.782 535.719
-62.8203 158.489 534.865
-62.8705 159.576 535.292
-63.1224 161.179 537.436
-62.8705 161.496 535.292
-62.8705 162.455 535.292
-61.7372 162.355 525.643
-61.4963 162.66 523.591
-61.4004 163.344 522.775
-61.3526 164.153 522.368
-61.3048 164.961 521.961
-60.9727 164.999 519.133
-60.8784 165.673 518.331
-60.6441 165.961 516.336
-60.5509 166.63 515.542
-60.3653 167.041 513.962
-60.1808 167.45 512.391
-59.9062 167.6 510.054
-59.9518 168.643 510.442
-59.9062 169.429 510.054
-59.8153 170.085 509.279
-59.8607 171.129 509.666
-59.7246 171.651 508.507
-59.544 172.041 506.969
-59.4541 172.689 506.204
-59.3198 173.205 505.061
-59.0088 173.197 502.412
-58.8765 173.708 501.286
-58.7447 174.216 500.164
-58.6136 174.722 499.048
-58.701 175.879 499.792
-58.7447 176.907 500.164
-58.0949 176.724 494.632
-58.0521 177.48 494.267
-57.7966 177.581 492.091
-57.6696 178.071 491.011
-56.7555 176.982 483.228
-56.7147 177.72 482.88
-56.6331 178.33 482.186
-56.4708 178.68 480.803
-56.4303 179.414 480.459
-56.3496 180.018 479.771
-56.1088 180.105 477.721
-56.1488 181.948 478.062
-56.0289 182.415 477.042
-55.9096 182.88 476.026
-55.8304 183.473 475.351
-55.87 184.456 475.688
-55.7909 185.047 475.014
-55.4766 184.851 472.338
-55.3985 185.437 471.674
-55.3207 186.021 471.012
-55.2431 186.604 470.351
-82.8782 -71.635 716.582
-83.0557 -70.5007 718.116
-83.2339 -69.3616 719.657
-83.3233 -68.1443 720.43
-83.4129 -66.9243 721.205
-83.5927 -65.7725 722.759
-83.6828 -64.5461 723.539
-83.5927 -63.1805 722.759
-83.7732 -62.0182 724.32
-83.8638 -60.785 725.103
-72.0948 -39.9595 623.346
-72.0279 -38.8057 622.767
-71.8278 -37.5843 621.037
-71.8278 -36.4707 621.037
-72.0948 -35.4885 623.346
-72.1619 -34.4027 623.926
-72.3638 -33.3771 625.672
-72.6348 -32.376 628.015
-72.6348 -31.2499 628.015
-72.6348 -30.1237 628.015
-72.7711 -29.052 629.194
-72.7029 -27.8976 628.604
-72.6348 -26.7454 628.015
-72.7029 -25.6433 628.604
-72.7029 -24.5161 628.604
-73.114 -23.5212 632.159
-74.3758 -21.6209 643.068
-74.7341 -20.5664 646.166
-74.7341 -19.4077 646.166
-74.7341 -18.249 646.166
-74.7341 -17.0904 646.166
-74.7341 -15.9317 646.166
-74.4472 -14.7163 643.686
-74.1625 -13.5102 641.224
-74.021 -12.3368 640
-74.5904 -8.96241 644.923
-74.5904 -7.80597 644.923
-74.5904 -6.64953 644.923
-75.7559 40.2269 655
-75.7559 41.4015 655
-75.8299 42.6176 655.641
-75.8299 43.7932 655.641
-75.7559 44.925 655
-75.9041 46.1897 656.282
-75.9785 47.4129 656.925
-75.9785 48.5909 656.925
-75.9785 49.7688 656.925
-75.9041 50.8969 656.282
-75.9785 52.1248 656.925
-75.9041 53.2506 656.282
-75.8299 54.3742 655.641
-75.9041 55.6042 656.282
-75.9785 56.8366 656.925
-75.9785 58.0146 656.925
-75.9041 59.1346 656.282
-75.9041 60.3114 656.282
-75.9785 61.5484 656.925
-75.9041 62.665 656.282
-75.9041 63.8418 656.282
-76.3524 68.9539 660.158
-76.503 70.276 661.46
-76.6542 71.6033 662.767
-76.73 72.8637 663.423
-76.8059 74.1267 664.08
-77.0348 75.5418 666.058
-77.2649 76.9655 668.048
-77.2649 78.1634 668.048
-77.1881 79.2823 667.384
-76.9583 80.2395 665.397
-77.8855 82.4138 673.414
-68.0474 137.413 588.351
-67.9282 138.226 587.321
-67.5732 138.551 584.251
-67.397 139.235 582.728
-67.3385 140.158 582.223
-67.1636 140.835 580.71
-67.1055 141.754 580.208
-67.1055 142.794 580.208
-67.0475 143.71 579.706
-67.0475 144.75 579.706
-66.1894 144.95 572.287
-66.0767 145.727 571.312
-65.7964 146.129 568.889
-65.7407 147.025 568.407
-65.574 147.669 566.966
-65.298 148.059 564.579
-64.9155 148.199 561.272
-64.7529 148.831 559.867
-64.4302 149.089 557.077
-64.3768 149.963 556.615
-64.2701 150.711 555.692
-64.2701 151.707 555.692
-64.1107 152.325 554.314
-63.9522 152.94 552.943
-63.6374 153.174 550.222
-63.5332 153.908 549.321
-63.4812 154.766 548.871
-63.2741 155.242 547.08
-63.2225 156.096 546.634
-63.171 156.948 546.189
-63.0683 157.671 545.301
-62.7621 157.878 542.654
-62.2584 157.577 538.299
-62.1089 158.161 537.006
-61.9601 158.743 535.719
-61.9601 159.703 535.719
-62.1587 161.179 537.436
-61.9601 161.624 535.719
-61.9106 162.455 535.292
-61.0338 162.047 527.711
-60.7947 162.355 525.643
-60.6521 162.914 524.41
-60.5574 163.599 523.591
-60.463 164.281 522.775
-60.4159 165.09 522.368
-60.0418 164.999 519.133
-59.8565 165.417 517.531
-59.7182 165.961 516.336
-59.6723 166.759 515.939
-59.6264 167.555 515.542
-59.3527 167.706 513.176
-59.1716 168.112 511.61
-59.1716 169.029 511.61
-58.9916 169.429 510.054
-58.902 170.085 509.279
-58.9468 171.129 509.666
-58.7682 171.521 508.122
-58.5906 171.911 506.586
-58.5464 172.689 506.204
-58.5464 173.597 506.204
-58.195 173.457 503.166
-58.0644 173.968 502.036
-57.8048 174.086 499.792
-57.6758 174.592 498.677
-57.8048 175.879 499.792
-57.8479 176.907 500.164
-57.208 175.837 494.632
-57.1658 176.594 494.267
-57.1237 177.349 493.903
-56.9978 177.842 492.814
-56.8724 178.333 491.731
-56.0101 177.365 484.275
-55.889 177.848 483.228
-55.8488 178.586 482.88
-55.6884 178.937 481.493
-55.6086 179.543 480.803
-55.41 179.76 479.086
-55.2521 180.105 477.721
-55.2521 180.961 477.721
-55.2128 181.689 477.381
-55.1735 182.415 477.042
-55.0561 182.88 476.026
-55.017 183.603 475.688
-55.0561 184.587 476.026
-54.9391 185.047 475.014
-54.4379 185.047 470.681
-54.3616 185.63 470.021
-54.2855 186.212 469.363
-81.9435 -71.9425 719.657
-81.9435 -70.652 719.657
-82.1197 -69.5107 721.205
-82.0315 -68.1443 720.43
-81.8556 -66.7091 718.886
-82.1197 -65.6311 721.205
-82.2081 -64.4071 721.981
-82.1197 -63.0446 721.205
-82.4744 -62.0182 724.32
-82.5636 -60.785 725.103
-70.9771 -41.0773 623.346
-70.9111 -39.9224 622.767
-70.9111 -38.8057 622.767
-70.7142 -37.5843 621.037
-70.8454 -36.5384 622.19
-70.8454 -35.4227 622.19
-70.9771 -34.3708 623.346
-71.2419 -33.3771 625.672
-71.2419 -32.2552 625.672
-71.2419 -31.1333 625.672
-71.2419 -30.0113 625.672
-71.5087 -28.9976 628.015
-71.5757 -27.8976 628.604
-71.6429 -26.7956 629.194
-71.6429 -25.6673 629.194
-71.7775 -24.5852 630.376
-71.9805 -23.5212 632.159
-73.0826 -21.5795 641.838
-73.3634 -20.5071 644.304
-73.3634 -19.3518 644.304
-73.3634 -18.1964 644.304
-73.3634 -17.0411 644.304
-73.293 -15.8705 643.686
-73.1526 -14.6881 642.452
-72.5963 -13.4332 637.567
-72.8734 -12.3368 640
-73.293 -11.2536 643.686
-73.4339 -10.1188 644.923
-73.6464 -8.98834 646.789
-73.7887 -7.84368 648.039
-73.9316 -6.69459 649.294
-74.5814 39.0524 655
-74.5814 40.2269 655
-74.7273 41.4825 656.282
-74.6543 42.6176 655.641
-74.6543 43.7932 655.641
-74.5814 44.925 655
-74.7273 46.1897 656.282
-74.8738 47.4594 657.569
-74.8738 48.6385 657.569
-74.8738 49.8176 657.569
-74.8005 50.9468 656.925
-74.8005 52.1248 656.925
-74.8005 53.3027 656.925
-74.6543 54.3742 655.641
-74.7273 55.6042 656.282
-74.8005 56.8366 656.925
-74.8005 58.0146 656.925
-74.7273 59.1346 656.282
-74.6543 60.2524 655.641
-74.7273 61.4882 656.282
-74.5086 62.4816 654.361
-75.4657 66.8496 662.767
-75.1686 67.7701 660.158
-75.3169 69.0899 661.46
-75.3912 70.3454 662.113
-75.4657 71.6033 662.767
-75.4657 72.7917 662.767
-75.5404 74.0533 663.423
-75.7652 75.4669 665.397
-76.1429 77.0422 668.714
-76.295 78.3976 670.05
-76.1429 79.4404 668.714
-76.067 80.5592 668.048
-76.3713 82.0841 670.72
-66.9924 137.413 588.351
-66.9337 138.347 587.836
-66.6998 138.914 585.782
-66.5255 139.599 584.251
-66.5255 140.646 584.251
-66.3521 141.325 582.728
-66.0651 141.754 580.208
-66.1223 142.918 580.71
-66.008 144.75 579.706
-65.2189 145.073 572.776
-65.1632 145.976 572.287
-64.8313 146.253 569.372
-64.7214 147.025 568.407
-64.6119 147.793 567.445
-64.5028 148.56 566.487
-63.5369 148.336 558.004
-63.4313 149.089 557.077
-63.3787 149.963 556.615
-63.2213 150.586 555.232
-63.169 151.456 554.773
-63.0647 152.199 553.857
-62.7537 152.437 551.126
-62.5994 153.048 549.771
-62.5994 154.034 549.771
-62.5482 154.893 549.321
-62.4459 155.623 548.422
-62.2931 156.223 547.08
-62.2423 157.076 546.634
-62.1916 157.928 546.189
-61.8391 158.006 543.093
-61.2932 157.577 538.299
-61.195 158.288 537.436
-60.9994 158.743 535.719
-61.097 159.959 536.576
-61.3424 161.567 538.731
-61.146 162.013 537.006
-61.0482 162.715 536.147
-60.1823 162.303 528.542
-59.8991 162.482 526.055
-59.8521 163.297 525.643
-59.8052 164.111 525.231
-59.5256 164.281 522.775
-59.4329 164.961 521.961
-59.1567 165.126 519.536
-59.0652 165.801 518.732
-58.8377 166.089 516.734
-58.7924 166.887 516.336
-58.7924 167.813 516.336
-58.702 168.479 515.542
-58.4325 168.626 513.176
-58.4325 169.546 513.176
-58.3432 170.206 512.391
-57.9888 170.085 509.279
-58.0329 171.129 509.666
-57.8133 171.391 507.737
-57.6823 171.911 506.586
-57.6387 172.689 506.204
-57.5518 173.335 505.441
-57.3358 173.588 503.544
-57.2928 174.36 503.166
-56.8239 173.827 499.048
-56.9935 176.141 500.538
-56.9935 177.039 500.538
-56.2795 175.707 494.267
-56.2381 176.464 493.903
-56.1554 177.088 493.177
-56.0729 177.711 492.453
-55.9497 178.202 491.37
-55.7048 178.299 489.22
-55.3415 178.008 486.029
-55.1019 178.105 483.925
-55.0226 178.715 483.228
-54.9039 179.194 482.186
-54.7465 179.543 480.803
-54.5509 179.76 479.086
-54.4343 180.233 478.062
-54.5509 181.478 479.086
-54.3955 181.818 477.721
-54.3568 182.545 477.381
-54.241 183.01 476.364
-54.164 183.603 475.688
-54.1257 184.326 475.351
-54.0108 184.785 474.343
-53.5563 184.073 470.351
-53.5188 184.787 470.021
-53.4813 185.5 469.692
-53.4439 186.212 469.363
-81.0007 -73.5486 722.759
-81.0007 -72.2526 722.759
-80.653 -70.652 719.657
-81.0007 -69.6606 722.759
-80.8264 -68.2175 721.205
-80.653 -66.7807 719.657
-80.653 -65.4902 719.657
-80.8264 -64.3379 721.205
-80.8264 -63.0446 721.205
-81.0007 -61.8845 722.759
-81.3513 -60.8508 725.888
-70.4485 -41.4237 628.604
-70.3826 -40.2588 628.015
-70.3826 -39.1327 628.015
-69.8593 -37.724 623.346
-69.8593 -36.6063 623.346
-69.8593 -35.4885 623.346
-69.9243 -34.4027 623.926
-70.12 -33.3771 625.672
-70.12 -32.2552 625.672
-70.12 -31.1333 625.672
-70.0546 -29.9834 625.089
-70.251 -28.9434 626.842
-70.3167 -27.8454 627.428
-70.4485 -26.7704 628.604
-70.5808 -25.6914 629.784
-70.7802 -24.6315 631.564
-72.0006 -21.6002 642.452
-72.1388 -20.4874 643.686
-72.1388 -19.3332 643.686
-72.2081 -18.1964 644.304
-72.1388 -17.0247 643.686
-72.1388 -15.8705 643.686
-72.0696 -14.7022 643.068
-71.453 -13.4332 637.567
-72.4168 -11.297 646.166
-72.4866 -10.1481 646.789
-72.4866 -8.98834 646.789
-72.7673 -7.85887 649.294
-72.9792 -6.71409 651.185
-73.1212 -5.55721 652.452
-73.0502 7.30502 651.818
-72.6267 8.42469 648.039
-72.4866 9.56823 646.789
-73.4068 36.7034 655
-73.4068 39.0524 655
-73.4786 40.2663 655.641
-73.4786 41.4419 655.641
-73.3352 42.5344 654.361
-73.4786 43.7932 655.641
-73.4068 44.925 655
-73.5505 46.1897 656.282
-73.6947 47.4594 657.569
-73.6225 48.5909 656.925
-73.5505 49.7201 656.282
-73.4068 50.7975 655
-73.4786 52.0228 655.641
-73.4786 53.1985 655.641
-73.2637 54.2152 653.724
-73.5505 55.6042 656.282
-73.6225 56.8366 656.925
-73.6225 58.0146 656.925
-73.5505 59.1346 656.282
-73.4786 60.2524 655.641
-73.5505 61.4882 656.282
-73.3352 62.4816 654.361
-73.1212 63.4692 652.452
-74.1308 66.7177 661.46
-74.2773 69.2264 662.767
-74.2773 70.4149 662.767
-74.2773 71.6033 662.767
-74.3507 72.8637 663.423
-74.572 74.2737 665.397
-74.572 75.4669 665.397
-74.8691 76.9655 668.048
-75.0186 78.3194 669.382
-74.8691 79.3613 668.048
-75.0186 80.72 669.382
-75.6223 82.5796 674.769
-65.9374 136.358 588.351
-65.9953 137.534 588.868
-65.9374 138.468 588.351
-65.8796 139.401 587.836
-65.535 139.721 584.761
-65.4779 140.646 584.251
-65.1939 141.08 581.718
-65.0247 141.754 580.208
-64.689 144.127 577.212
-64.5778 144.913 576.22
-64.5224 145.821 575.726
-64.1918 146.101 572.776
-64.0824 146.877 571.799
-64.0278 147.776 571.312
-63.6483 147.919 567.926
-63.5944 148.811 567.445
-63.3799 149.323 565.532
-62.4324 148.09 557.077
-62.3806 148.965 556.615
-62.3289 149.839 556.153
-62.1742 150.462 554.773
-62.1742 151.456 554.773
-62.0715 152.199 553.857
-61.6136 152.062 549.771
-61.6136 153.048 549.771
-61.5632 153.908 549.321
-61.4625 154.64 548.422
-61.3621 155.369 547.527
-61.2621 156.096 546.634
-61.2122 156.948 546.189
-61.2122 157.928 546.189
-60.3764 156.737 538.731
-60.2796 157.45 537.867
-60.183 158.161 537.006
-60.0868 158.87 536.147
-60.0868 159.831 536.147
-60.3764 161.567 538.731
-60.2796 162.273 537.867
-60.0868 162.715 536.147
-59.3749 162.687 529.795
-59.2345 163.25 528.542
-59.002 163.554 526.468
-58.8634 164.111 525.231
-58.5425 164.153 522.368
-58.4515 164.833 521.556
-58.2251 165.126 519.536
-58.0901 165.673 518.331
-57.822 165.833 515.939
-57.822 166.759 515.939
-57.7776 167.555 515.542
-57.6446 168.092 514.356
-57.5123 168.626 513.176
-57.5564 169.676 513.568
-57.4683 170.336 512.783
-57.4244 171.125 512.391
-57.3368 171.781 511.61
-56.9891 171.651 508.507
-56.731 171.782 506.204
-56.731 172.689 506.204
-56.7739 173.728 506.586
-56.4329 173.588 503.544
-56.4329 174.49 503.544
-55.4341 175.837 494.632
-55.3932 176.594 494.267
-55.3524 177.349 493.903
-55.2304 177.842 492.814
-55.0686 178.202 491.37
-54.8276 178.299 489.22
-54.5095 178.137 486.382
-54.2342 178.105 483.925
-54.1561 178.715 483.228
-54.0393 179.194 482.186
-53.923 179.671 481.148
-53.8457 180.275 480.459
-53.7687 180.878 479.771
-53.8457 181.998 480.459
-53.5771 181.948 478.062
-53.5389 182.675 477.721
-53.4627 183.27 477.042
-53.3111 183.603 475.688
-53.2356 184.195 475.014
-52.676 183.102 470.021
-52.6391 183.816 469.692
-52.676 184.787 470.021
-52.676 185.63 470.021
-52.6391 186.342 469.692
-79.7046 -69.6606 722.759
-79.5332 -68.2175 721.205
-79.4478 -66.8524 720.43
-79.4478 -65.5606 720.43
-79.7906 -64.5461 723.539
-79.6188 -63.1125 721.981
-79.8768 -62.0182 724.32
-79.9631 -60.785 725.103
-69.127 -45.8037 626.842
-69.2565 -44.7633 628.015
-69.2565 -43.6372 628.015
-69.2565 -42.5111 628.015
-69.127 -41.3076 626.842
-68.998 -40.1086 625.672
-69.2565 -39.1327 628.015
-68.7415 -37.724 623.346
-68.8696 -36.6744 624.507
-68.7415 -35.4885 623.346
-68.998 -34.499 625.672
-69.127 -33.4395 626.842
-69.1917 -32.3457 627.428
-69.127 -31.1915 626.842
-69.127 -30.0674 626.842
-69.1917 -28.9705 627.428
-69.1917 -27.8454 627.428
-69.3214 -26.7704 628.604
-69.3214 -25.6433 628.604
-69.5168 -24.5852 630.376
-69.7134 -23.5212 632.159
-70.7131 -22.7087 641.224
-70.6456 -21.5383 640.612
-70.8486 -20.4482 642.452
-70.9165 -19.3147 643.068
-70.8486 -18.1441 642.452
-70.5782 -16.9273 640
-70.4437 -15.7496 638.781
-70.3098 -14.5764 637.567
-70.3098 -13.4332 637.567
-70.3098 -12.2899 637.567
-71.3268 -11.3079 646.789
-71.3957 -10.1579 647.414
-71.3957 -8.99701 647.414
-71.603 -7.85887 649.294
-71.8814 -6.72061 651.818
-72.0213 -5.56262 653.087
-71.9513 4.97224 652.452
-71.9513 6.14218 652.452
-71.8814 7.30502 651.818
-71.8116 8.46559 651.185
-71.5338 9.59599 648.666
-71.9513 31.8808 652.452
-71.9513 33.0508 652.452
-71.9513 34.2207 652.452
-72.0915 35.4597 653.724
-72.3029 36.7393 655.641
-72.3029 37.915 655.641
-72.4446 39.1672 656.925
-72.5156 40.3847 657.569
-72.4446 41.5231 656.925
-72.4446 42.7011 656.925
-72.4446 43.879 656.925
-72.4446 45.057 656.925
-72.4446 46.235 656.925
-72.4446 47.4129 656.925
-72.3737 48.5433 656.282
-72.0915 49.5263 653.724
-72.0915 50.6985 653.724
-72.1619 51.9213 654.361
-72.2323 53.1466 655
-72.3029 54.3742 655.641
-72.4446 55.6586 656.925
-72.4446 56.8366 656.925
-72.4446 58.0146 656.925
-72.3737 59.1346 656.282
-72.3029 60.2524 655.641
-72.2323 61.3681 655
-72.1619 62.4816 654.361
-72.4446 63.9044 656.925
-73.0167 65.5963 662.113
-73.1611 66.9157 663.423
-73.2336 68.1727 664.08
-73.1611 69.2949 663.423
-73.1611 70.4845 663.423
-73.2336 71.7451 664.08
-73.5248 73.2259 666.72
-73.5979 74.4955 667.384
-73.5979 75.6922 667.384
-73.7447 77.0422 668.714
-74.0399 78.5546 671.392
-73.9659 79.6787 670.72
-74.1885 81.1248 672.739
-74.263 82.4138 673.414
-74.263 83.6213 673.414
-64.9393 135.422 588.868
-64.8255 136.239 587.836
-64.9393 137.534 588.868
-64.8824 138.468 588.351
-64.8255 139.401 587.836
-64.599 139.965 585.782
-64.5427 140.892 585.271
-64.3742 141.571 583.743
-63.7088 144.251 577.709
-63.4901 144.788 575.726
-63.1108 144.95 572.287
-63.0033 145.727 571.312
-63.057 146.877 571.799
-63.0033 147.776 571.312
-62.683 148.044 568.407
-62.6299 148.937 567.926
-62.4712 149.575 566.487
-61.4335 148.09 557.077
-61.4335 149.089 557.077
-61.2808 149.714 555.692
-61.0784 150.213 553.857
-61.0784 151.206 553.857
-61.0784 152.199 553.857
-60.7273 152.312 550.674
-60.5781 152.923 549.321
-60.5286 153.782 548.871
-60.3311 154.261 547.08
-60.2328 154.989 546.189
-60.2328 155.969 546.189
-60.2328 156.948 546.189
-60.1838 157.799 545.745
-59.4104 156.737 538.731
-59.3627 157.577 538.299
-59.3151 158.415 537.867
-59.2676 159.251 537.436
-59.2676 160.215 537.436
-59.3627 161.438 538.299
-59.3151 162.273 537.867
-59.2201 162.976 537.006
-58.5637 163.074 531.053
-58.2868 163.25 528.542
-58.058 163.554 526.468
-57.967 164.24 525.643
-57.6957 164.409 523.183
-57.561 164.961 521.961
-57.2935 165.126 519.536
-57.1607 165.673 518.331
-56.8969 165.833 515.939
-56.8969 166.759 515.939
-56.8531 167.555 515.542
-56.7223 168.092 514.356
-56.5489 168.497 512.783
-56.5489 169.417 512.783
-56.5057 170.206 512.391
-56.3335 170.604 510.831
-56.3765 171.65 511.22
-56.1624 171.912 509.279
-55.9077 172.041 506.969
-55.8655 172.82 506.586
-55.8655 173.728 506.586
-55.4883 174.36 503.166
-54.6681 176.227 495.728
-54.5471 176.724 494.632
-54.5069 177.48 494.267
-54.0686 177.811 490.293
-53.8717 178.04 488.507
-53.5985 178.008 486.029
-53.3665 178.105 483.925
-53.2896 178.715 483.228
-53.0983 178.937 481.493
-52.9462 179.285 480.115
-52.7951 179.632 478.744
-52.7198 180.233 478.062
-52.8706 181.608 479.428
-52.7198 181.948 478.062
-52.6823 182.675 477.721
-52.4953 182.88 476.026
-51.7606 181.162 469.363
-51.7969 182.131 469.692
-51.8331 183.102 470.021
-51.7969 183.816 469.692
-51.7969 184.658 469.692
-51.7606 185.37 469.363
-51.7244 186.082 469.035
-78.24 -70.804 721.205
-78.4086 -69.6606 722.759
-78.24 -68.2175 721.205
-78.24 -66.9243 721.205
-78.24 -65.6311 721.205
-78.6629 -64.6856 725.103
-78.578 -63.317 724.32
-78.7481 -62.1524 725.888
-78.7481 -60.8508 725.888
-67.6238 -45.5483 623.346
-67.8761 -44.5963 625.672
-68.1303 -43.6372 628.015
-68.1942 -42.5509 628.604
-67.7497 -41.1538 624.507
-67.6238 -39.9595 623.346
-68.003 -39.0596 626.842
-67.6238 -37.724 623.346
-67.7497 -36.6744 624.507
-67.6867 -35.5215 623.926
-67.9395 -34.5312 626.256
-68.003 -33.4395 626.842
-68.0666 -32.3457 627.428
-68.0666 -31.2206 627.428
-68.003 -30.0674 626.842
-68.0666 -28.9705 627.428
-68.1303 -27.8715 628.015
-68.1303 -26.7454 628.015
-68.1942 -25.6433 628.604
-68.2582 -24.5391 629.194
-68.2582 -23.4109 629.194
-69.6966 -22.7522 642.452
-69.6299 -21.5795 641.838
-69.6966 -20.4482 642.452
-69.7634 -19.3147 643.068
-69.6966 -18.1441 642.452
-69.4969 -16.9434 640.612
-69.3644 -15.7646 639.39
-69.2324 -14.5903 638.174
-69.1665 -13.4332 637.567
-69.1665 -12.2899 637.567
-70.032 -11.2861 645.544
-70.167 -10.1481 646.789
-70.2347 -8.99701 647.414
-70.2347 -7.83611 647.414
-70.6439 -6.71409 651.185
-70.7813 -5.55721 652.452
-70.9193 4.98193 653.724
-70.7813 6.14218 652.452
-70.7813 7.31212 652.452
-70.7813 8.48206 652.452
-70.5754 9.62391 650.553
-70.3706 10.7591 648.666
-71.3365 32.1309 657.569
-71.0578 33.1799 655
-71.0578 34.3544 655
-71.2666 35.6333 656.925
-71.2666 36.8113 656.925
-71.1969 37.9521 656.282
-71.2666 39.1672 656.925
-71.2666 40.3451 656.925
-71.3365 41.5638 657.569
-71.3365 42.7429 657.569
-71.4766 44.0083 658.861
-71.4766 45.1898 658.861
-71.5469 46.4168 659.509
-71.4766 47.5526 658.861
-71.3365 48.6385 657.569
-71.1969 49.7201 656.282
-71.0578 50.7975 655
-71.1969 52.0737 656.282
-71.1969 53.2506 656.282
-71.2666 54.4807 656.925
-71.3365 55.7132 657.569
-71.2666 56.8366 656.925
-71.3365 58.0714 657.569
-71.2666 59.1925 656.925
-71.2666 60.3705 656.925
-71.1273 61.4281 655.641
-71.1273 62.6038 655.641
-71.3365 63.967 657.569
-71.9004 65.6611 662.767
-72.0428 66.9819 664.08
-72.1857 68.308 665.397
-72.0428 69.3635 664.08
-71.9004 70.4149 662.767
-71.9715 71.6741 663.423
-72.2574 73.1532 666.058
-72.6905 77.1961 670.05
-72.9822 78.7122 672.739
-72.9822 79.9185 672.739
-73.1289 81.2879 674.091
-63.7714 135.185 587.836
-63.7156 136.12 587.321
-63.8274 137.413 588.351
-63.7714 138.347 587.836
-63.7156 139.279 587.321
-63.4932 139.842 585.271
-63.4378 140.769 584.761
-63.2724 141.448 583.235
-62.4577 144.788 575.726
-62.0317 144.826 571.799
-61.8735 145.479 570.34
-61.8735 146.502 570.34
-61.716 147.149 568.889
-61.3001 147.171 565.055
-61.197 147.935 564.105
-60.8388 148.075 560.803
-60.636 148.583 558.934
-60.4346 149.089 557.077
-60.3844 149.963 556.615
-60.1846 150.462 554.773
-60.2843 151.707 555.692
-60.2344 152.577 555.232
-59.7399 152.312 550.674
-59.5931 152.923 549.321
-59.4957 153.656 548.422
-59.3985 154.387 547.527
-59.3017 155.116 546.634
-59.3017 156.096 546.634
-59.2052 156.82 545.745
-59.1571 157.671 545.301
-58.3974 157.577 538.299
-58.4443 158.669 538.731
-58.4443 159.635 538.731
-58.4443 160.601 538.731
-58.3974 161.438 538.299
-58.4443 162.533 538.731
-58.4443 163.499 538.731
-57.6571 163.203 531.474
-57.339 163.25 528.542
-57.0245 163.297 525.643
-56.9798 164.111 525.231
-56.7133 164.281 522.775
-56.581 164.833 521.556
-56.4056 165.254 519.938
-56.2747 165.801 518.732
-55.9717 165.833 515.939
-55.9717 166.759 515.939
-55.9717 167.684 515.939
-55.8428 168.221 514.751
-55.7146 168.755 513.568
-55.6719 169.546 513.176
-55.6719 170.467 513.176
-55.6294 171.256 512.783
-55.5869 172.044 512.391
-55.4598 172.567 511.22
-54.9986 172.95 506.969
-54.627 174.49 503.544
-54.627 175.393 503.544
-53.6602 175.837 494.632
-53.5417 176.334 493.54
-53.4238 176.828 492.453
-53.3846 177.581 492.091
-53.2284 177.941 490.651
-52.9958 178.04 488.507
-52.7652 178.137 486.382
-52.6507 178.621 485.326
-52.4609 178.844 483.576
-52.3853 179.452 482.88
-52.1974 179.671 481.148
-52.1226 180.275 480.459
-52.0853 181.007 480.115
-52.0481 181.738 479.771
-51.8626 181.948 478.062
-51.7151 182.285 476.703
-51.532 182.491 475.014
-50.919 185.37 469.363
-50.919 186.212 469.363
-76.9468 -69.5107 721.205
-76.9468 -68.2175 721.205
-76.9468 -66.9243 721.205
-76.9468 -65.6311 721.205
-77.3627 -64.6856 725.103
-77.3627 -63.3854 725.103
-77.4464 -62.1524 725.888
-67.2561 -46.062 630.376
-67.067 -44.8053 628.604
-67.067 -43.6781 628.604
-67.067 -42.5509 628.604
-66.7542 -41.2305 625.672
-66.5061 -39.9595 623.346
-66.6299 -38.9141 624.507
-66.5679 -37.7591 623.926
-66.6299 -36.6744 624.507
-66.692 -35.5877 625.089
-66.879 -34.5635 626.842
-66.879 -33.4395 626.842
-66.879 -32.3155 626.842
-66.8165 -31.1623 626.256
-66.8165 -30.0394 626.256
-66.879 -28.9434 626.842
-66.9415 -27.8454 627.428
-67.0042 -26.7454 628.015
-67.067 -25.6433 628.604
-67.067 -24.5161 628.604
-67.0042 -23.367 628.015
-67.2561 -22.3245 630.376
-67.2561 -21.1942 630.376
-68.6103 -20.4678 643.068
-68.6103 -18.1615 643.068
-68.2178 -16.9111 639.39
-68.088 -15.7346 638.174
-68.0233 -14.5764 637.567
-68.0233 -13.4332 637.567
-68.0233 -12.2899 637.567
-68.9408 -11.297 646.166
-69.1406 -10.1677 648.039
-69.1406 -9.00571 648.039
-69.3416 -7.86648 649.923
-69.6792 -6.7337 653.087
-69.8151 -5.57348 654.361
-70.0201 3.82463 656.282
-69.7471 4.98193 653.724
-69.6792 6.14816 653.087
-69.6792 7.31924 653.087
-69.6114 8.48206 652.452
-69.5437 9.64262 651.818
-69.5437 10.8114 651.818
-70.6422 31.1657 662.113
-70.3643 32.2257 659.509
-70.1574 33.31 657.569
-70.1574 34.4891 657.569
-70.1574 35.6682 657.569
-70.0887 36.8113 656.925
-69.9516 37.915 655.641
-70.0887 39.1672 656.925
-70.0887 40.3451 656.925
-70.1574 41.5638 657.569
-70.1574 42.7429 657.569
-70.3643 44.0516 659.509
-70.503 45.3233 660.808
-70.503 46.5083 660.808
-70.2952 47.5526 658.861
-70.0887 48.5909 656.925
-69.9516 49.6715 655.641
-69.8833 50.7975 655
-69.9516 52.0228 655.641
-70.0201 53.2506 656.282
-70.0887 54.4807 656.925
-70.0887 55.6586 656.925
-70.0887 56.8366 656.925
-70.0887 58.0146 656.925
-69.7471 58.904 653.724
-69.9516 60.2524 655.641
-69.9516 61.4281 655.641
-69.9516 62.6038 655.641
-70.7819 64.5364 663.423
-70.7819 65.7261 663.423
-70.9926 67.1148 665.397
-71.2045 68.5119 667.384
-71.1337 69.6393 666.72
-71.1337 70.8348 666.72
-71.1337 72.0303 666.72
-71.2045 73.2987 667.384
-71.2045 74.4955 667.384
-71.2045 75.6922 667.384
-71.2754 76.9655 668.048
-71.7039 78.6333 672.065
-71.8479 79.9987 673.414
-71.8479 81.2063 673.414
-62.2265 126.806 583.235
-62.3349 128.075 584.251
-62.1185 128.674 582.223
-62.1185 129.718 582.223
-62.1185 130.762 582.223
-62.1185 131.806 582.223
-62.7174 135.185 587.836
-62.6624 136.12 587.321
-62.7174 137.293 587.836
-62.7174 138.347 587.836
-62.6624 139.279 587.321
-62.4437 139.842 585.271
-62.3893 140.769 584.761
-62.3349 141.694 584.251
-61.4781 144.913 576.22
-61.0064 144.826 571.799
-60.9026 145.603 570.826
-60.7475 146.253 569.372
-60.5931 146.9 567.926
-60.2361 147.047 564.579
-60.1855 147.935 564.105
-59.9334 148.323 561.742
-59.8332 149.08 560.803
-59.7832 149.96 560.335
-59.6338 150.588 558.934
-59.4356 151.086 557.077
-59.2879 151.707 555.692
-59.0921 152.199 553.857
-58.7043 152.187 550.222
-58.5602 152.798 548.871
-58.5602 153.782 548.871
-58.5123 154.64 548.422
-58.3691 155.242 547.08
-58.3691 156.223 547.08
-58.274 156.948 546.189
-58.274 157.928 546.189
-57.2026 156.947 536.147
-57.2942 158.161 537.006
-57.3861 159.379 537.867
-57.4322 160.472 538.299
-57.4322 161.438 538.299
-57.4322 162.403 538.299
-57.4783 163.499 538.731
-56.5696 161.865 530.214
-56.4357 162.431 528.959
-56.3913 163.25 528.542
-56.1699 163.554 526.468
-56.0819 164.24 525.643
-55.7759 164.281 522.775
-55.6458 164.833 521.556
-55.4733 165.254 519.938
-55.3874 165.929 519.133
-55.0889 165.961 516.336
-55.0465 166.759 515.939
-55.0889 167.813 516.336
-55.0042 168.479 515.542
-54.8777 169.014 514.356
-54.8356 169.806 513.962
-54.7517 170.467 513.176
-54.7099 171.256 512.783
-54.6681 172.044 512.391
-54.6263 172.83 512
-54.2125 173.343 508.122
-52.7732 175.837 494.632
-52.6567 176.334 493.54
-52.5022 176.699 492.091
-52.4637 177.451 491.731
-52.3869 178.071 491.011
-52.234 178.429 489.577
-52.044 178.655 487.797
-51.7056 178.363 484.625
-51.5566 178.715 483.228
-51.4824 179.323 482.533
-51.4084 179.929 481.839
-51.3347 180.534 481.148
-51.2244 181.007 480.115
-50.969 180.961 477.721
-50.9328 181.689 477.381
-50.8965 182.415 477.042
-50.7521 182.75 475.688
-50.6802 183.343 475.014
-50.1124 185.5 469.692
-50.0773 186.212 469.363
-75.6536 -69.5107 721.205
-75.6536 -68.2175 721.205
-75.6536 -66.9243 721.205
-75.4912 -65.4902 719.657
-76.1448 -64.7556 725.888
-76.1448 -63.454 725.888
-76.31 -62.2872 727.462
-75.9804 -60.7193 724.32
-75.8166 -59.2925 722.759
-66.3753 -46.2358 632.755
-66.1258 -44.9316 630.376
-65.3276 -42.1558 622.767
-65.3276 -41.0391 622.767
-65.3276 -39.9224 622.767
-65.4491 -38.8779 623.926
-65.5711 -37.8295 625.089
-65.6323 -36.7429 625.672
-65.755 -35.6875 626.842
-65.755 -34.5635 626.842
-65.755 -33.4395 626.842
-65.755 -32.3155 626.842
-65.5711 -31.1042 625.089
-65.5711 -29.9834 625.089
-65.5711 -28.8625 625.089
-65.6323 -27.7675 625.672
-65.8165 -26.7204 627.428
-65.8781 -25.6193 628.015
-65.9398 -24.5161 628.604
-65.9398 -23.3889 628.604
-66.1258 -22.3245 630.376
-66.188 -21.2141 630.969
-66.1258 -20.0638 630.376
-67.1353 -19.2225 640
-67.1353 -18.0749 640
-66.8165 -16.8469 636.961
-66.6899 -15.675 635.754
-66.8165 -14.5626 636.961
-66.8165 -13.4204 636.961
-66.8165 -12.2783 636.961
-67.5219 -11.2536 643.686
-67.8475 -10.1481 646.789
-67.8475 -8.98834 646.789
-67.8475 -7.82855 646.789
-67.8475 -6.66877 646.789
-69.0459 3.83589 658.214
-68.7088 4.99166 655
-68.5081 6.14816 653.087
-68.5081 7.31924 653.087
-68.4414 8.48206 652.452
-68.3749 9.64262 651.818
-68.3086 10.8009 651.185
-68.4414 11.9919 652.452
-69.7994 30.1271 665.397
-69.7302 31.2892 664.738
-69.5235 32.3849 662.767
-68.9783 33.31 657.569
-68.9107 34.4553 656.925
-68.9783 35.6682 657.569
-68.9107 36.8113 656.925
-68.8433 37.9521 656.282
-68.9107 39.1672 656.925
-68.9107 40.3451 656.925
-68.9783 41.5638 657.569
-69.0459 42.7849 658.214
-69.318 44.1384 660.808
-69.4549 45.4128 662.113
-69.4549 46.6001 662.113
-69.3864 47.7402 661.46
-69.0459 48.6862 658.214
-68.6418 49.5746 654.361
-68.5749 50.6985 653.724
-68.6418 51.9213 654.361
-68.776 53.1985 655.641
-68.9107 54.4807 656.925
-68.9107 55.6586 656.925
-68.9107 56.8366 656.925
-68.7088 57.8446 655
-68.5081 58.8467 653.087
-68.5749 60.0763 653.724
-68.5749 61.2485 653.724
-68.8433 62.665 656.282
-69.7994 65.9217 665.397
-70.0078 67.3152 667.384
-70.0775 68.5801 668.048
-70.0078 69.7086 667.384
-70.0775 70.9759 668.048
-70.0775 72.1738 668.048
-70.0775 73.3717 668.048
-70.0775 74.5697 668.048
-70.1474 75.8431 668.714
-70.4282 77.3507 671.392
-70.4282 78.5546 671.392
-70.4988 79.8384 672.065
-70.4988 81.0435 672.065
-70.5695 82.3311 672.739
-70.5695 83.5374 672.739
-61.0745 126.586 582.223
-61.0745 127.63 582.223
-60.8632 128.229 580.208
-60.9686 129.493 581.214
-60.9686 130.535 581.214
-60.9686 131.578 581.214
-61.6093 136.12 587.321
-61.6633 137.293 587.836
-61.6093 138.226 587.321
-61.5554 139.157 586.807
-61.3943 139.842 585.271
-61.3407 140.769 584.761
-61.2873 141.694 584.251
-60.8632 143.835 580.208
-60.4449 143.879 576.22
-60.3412 144.664 575.232
-60.0323 144.95 572.287
-59.9811 145.851 571.799
-59.93 146.752 571.312
-59.5748 146.9 567.926
-59.2237 147.047 564.579
-59.1739 147.935 564.105
-59.1242 148.821 563.631
-58.9755 149.455 562.213
-58.8768 150.211 561.272
-58.8276 151.091 560.803
-58.4367 151.086 557.077
-58.195 151.456 554.773
-58.0031 151.948 552.943
-57.4819 151.565 547.974
-57.3413 152.175 546.634
-57.3413 153.155 546.634
-57.3881 154.261 547.08
-57.2946 154.989 546.189
-57.2946 155.969 546.189
-57.0161 156.185 543.534
-56.5577 156.863 539.164
-56.4217 157.45 537.867
-56.4669 158.542 538.299
-56.5577 159.763 539.164
-56.1963 160.664 535.719
-56.0174 161.11 534.013
-55.8839 161.681 532.741
-55.7069 162.121 531.053
-55.4872 162.431 528.959
-55.3999 163.122 528.126
-55.0531 163.042 524.82
-54.8813 163.471 523.183
-54.8385 164.281 522.775
-54.6681 164.705 521.15
-54.4987 165.126 519.536
-54.3304 165.545 517.931
-54.1214 165.833 515.939
-54.1214 166.759 515.939
-54.1214 167.684 515.939
-54.0798 168.479 515.542
-53.9968 169.144 514.751
-54.0383 170.197 515.146
-53.9968 170.99 514.751
-53.8315 171.387 513.176
-53.7904 172.175 512.783
-53.8728 173.36 513.568
-53.7493 173.881 512.391
-53.4634 173.87 509.666
-53.4228 174.651 509.279
-51.6957 176.075 492.814
-51.6198 176.699 492.091
-51.5065 177.191 491.011
-51.4311 177.811 490.293
-51.3561 178.429 489.577
-51.095 178.396 487.088
-50.9839 178.88 486.029
-50.7999 179.102 484.275
-50.6901 179.581 483.228
-50.6171 180.188 482.533
-50.4357 180.405 480.803
-50.3635 181.007 480.115
-50.1124 181.818 477.721
-49.97 182.156 476.364
-49.8638 182.621 475.351
-49.8285 183.343 475.014
-49.6877 183.675 473.673
-49.2357 185.37 469.363
-49.2013 186.082 469.035
-74.2805 -68.1443 720.43
-74.2008 -66.7807 719.657
-74.3603 -65.6311 721.205
-74.5206 -64.4765 722.759
-74.8432 -63.454 725.888
-75.0055 -62.2872 727.462
-74.5206 -60.5885 722.759
-65.3023 -46.2794 633.353
-65.2407 -45.1012 632.755
-64.9954 -43.8013 630.376
-64.631 -42.4316 626.842
-64.2706 -41.0773 623.346
-64.2706 -39.9595 623.346
-64.3303 -38.8779 623.926
-64.3902 -37.7943 624.507
-64.4502 -36.7086 625.089
-64.5706 -35.6542 626.256
-64.6914 -34.5958 627.428
-64.631 -33.4395 626.842
-64.3902 -32.1951 624.507
-64.3303 -31.0464 623.926
-64.3902 -29.9555 624.507
-64.3303 -28.8088 623.926
-64.3303 -27.69 623.926
-64.6914 -26.7204 627.428
-64.752 -25.6193 628.015
-64.752 -24.4931 628.015
-64.8127 -23.3889 628.604
-64.9954 -22.3245 630.376
-64.9954 -21.1942 630.376
-65.7368 -20.2927 637.567
-65.7993 -19.1676 638.174
-65.7993 -18.0233 638.174
-65.6744 -16.8469 636.961
-65.4878 -15.6601 635.152
-65.4258 -14.5075 634.551
-65.5499 -13.395 635.754
-66.2405 -12.3841 642.452
-66.4314 -11.2645 644.304
-66.6877 -10.1481 646.789
-66.6234 -8.97968 646.166
-66.6234 -7.82101 646.166
-66.6877 -6.66877 646.789
-66.6877 -5.50898 646.789
-67.8657 3.83589 658.214
-67.4026 4.98193 653.724
-67.2715 6.14218 652.452
-67.2715 7.31212 652.452
-67.2715 8.48206 652.452
-67.2061 9.64262 651.818
-67.2061 10.8114 651.818
-67.2715 11.9919 652.452
-68.4027 31.2273 663.423
-68.0661 32.2574 660.158
-67.7991 33.31 657.569
-67.7327 34.4553 656.925
-67.7991 35.6682 657.569
-67.7327 36.8113 656.925
-67.6665 37.9521 656.282
-67.7327 39.1672 656.925
-67.7991 40.3847 657.569
-67.8657 41.6046 658.214
-67.8657 42.7849 658.214
-68.1331 44.1384 660.808
-68.2003 45.368 661.46
-68.1331 46.5083 660.808
-67.9991 47.5994 659.509
-67.7991 48.6385 657.569
-67.337 49.4781 653.087
-67.337 50.6491 653.087
-67.337 51.8202 653.087
-67.6665 53.2506 656.282
-67.8657 54.5876 658.214
-67.8657 55.7679 658.214
-67.8657 56.9481 658.214
-67.8657 58.1284 658.214
-67.7991 59.2506 657.569
-67.7991 60.4297 657.569
-67.6665 61.4882 656.282
-67.9323 62.9112 658.861
-68.4704 64.6003 664.08
-68.6744 65.9871 666.058
-68.8111 67.3152 667.384
-68.8796 68.5801 668.048
-68.8111 69.7086 667.384
-68.8796 70.9759 668.048
-68.8796 72.1738 668.048
-68.9483 73.4449 668.714
-68.9483 74.644 668.714
-68.9483 75.8431 668.714
-69.086 77.1961 670.05
-69.1551 78.476 670.72
-69.2937 79.8384 672.065
-69.2243 80.9624 671.392
-69.3632 82.3311 672.739
-69.3632 83.5374 672.739
-60.0305 126.586 582.223
-60.0305 127.63 582.223
-59.8228 128.229 580.208
-59.9264 129.493 581.214
-59.9264 130.535 581.214
-59.9264 131.578 581.214
-60.7156 136.478 588.868
-60.6624 137.413 588.351
-60.6092 138.347 587.836
-60.6092 139.401 587.836
-60.5561 140.332 587.321
-60.3975 141.015 585.782
-60.2396 141.694 584.251
-60.1349 142.494 583.235
-59.8228 143.835 580.208
-59.4116 143.879 576.22
-59.3097 144.664 575.232
-59.1575 145.322 573.756
-59.1069 146.225 573.265
-59.0565 147.128 572.776
-58.5564 146.9 567.926
-58.2114 147.047 564.579
-58.1624 147.935 564.105
-58.0647 148.696 563.157
-57.9189 149.33 561.742
-57.822 150.086 560.803
-57.6773 150.713 559.4
-57.4378 151.086 557.077
-57.1058 151.206 553.857
-56.731 151.201 550.222
-56.6381 151.938 549.321
-56.4532 152.424 547.527
-56.4071 153.28 547.08
-56.4071 154.261 547.08
-56.3152 154.989 546.189
-56.3152 155.969 546.189
-55.9507 155.932 542.654
-55.5909 156.863 539.164
-55.5017 157.577 538.299
-55.5463 158.669 538.731
-55.5463 159.635 538.731
-55.3684 160.087 537.006
-55.2799 160.792 536.147
-55.1476 161.367 534.865
-54.885 161.553 532.318
-54.6249 161.737 529.795
-54.5387 162.431 528.959
-54.41 162.993 527.711
-54.1544 163.169 525.231
-53.9431 163.471 523.183
-53.9011 164.281 522.775
-53.8172 164.961 521.961
-53.6919 165.511 520.746
-53.4016 165.545 517.931
-53.1962 165.833 515.939
-53.1962 166.759 515.939
-53.1962 167.684 515.939
-53.1145 168.35 515.146
-52.9519 168.755 513.568
-52.9113 169.546 513.176
-52.9113 170.467 513.176
-52.8305 171.125 512.391
-52.5894 171.259 510.054
-52.8709 173.095 512.783
-52.7097 173.484 511.22
-52.5894 174.002 510.054
-52.7097 176.234 511.22
-52.7902 177.421 512
-52.6695 177.931 510.831
-51.4547 174.722 499.048
-51.302 175.096 497.567
-50.9993 174.95 494.632
-50.8493 175.32 493.177
-50.7747 175.945 492.453
-50.589 177.061 490.651
-50.552 177.811 490.293
-50.4414 178.299 489.22
-50.3679 178.916 488.507
-50.1851 179.139 486.735
-50.1124 179.751 486.029
-49.8595 179.711 483.576
-49.7877 180.318 482.88
-49.5736 180.405 480.803
-49.538 181.137 480.459
-49.5026 181.868 480.115
-49.1857 182.415 477.042
-49.0114 182.621 475.351
-48.9421 183.214 474.678
-48.7351 183.286 472.671
-48.7008 184.004 472.338
-48.2927 184.982 468.38
-48.3602 186.082 469.035
-64.106 -46.2358 632.755
-63.8651 -44.9316 630.376
-63.7452 -43.7191 629.194
-63.6855 -42.5509 628.604
-63.3885 -41.2305 625.672
-63.2115 -39.9967 623.926
-63.3294 -38.9504 625.089
-63.3294 -37.8295 625.089
-63.3294 -36.7086 625.089
-63.3885 -35.6209 625.672
-63.5069 -34.5635 626.842
-63.5069 -33.4395 626.842
-63.2704 -32.1951 624.507
-63.2115 -31.0464 623.926
-63.2704 -29.9555 624.507
-63.2115 -28.8088 623.926
-63.2115 -27.69 623.926
-63.2115 -26.5712 623.926
-63.6259 -25.6193 628.015
-63.6259 -24.4931 628.015
-62.4563 -22.9375 616.471
-62.6867 -20.8031 618.746
-62.9189 -19.7666 621.037
-62.9189 -18.653 621.037
-63.3885 -17.6702 625.672
-63.3885 -16.5483 625.672
-63.5069 -15.4552 626.842
-63.5663 -14.3446 627.428
-64.288 -13.3696 634.551
-65.4017 -11.2861 645.544
-65.5279 -10.1481 646.789
-65.4648 -8.97968 646.166
-65.5279 -7.82855 646.789
-65.4648 -6.66234 646.166
-65.2761 -5.48781 644.304
-65.2135 -4.32833 643.686
-66.4896 3.82463 656.282
-66.1659 4.97708 653.087
-66.1659 6.14816 653.087
-66.1016 7.31212 652.452
-66.1016 8.48206 652.452
-66.1016 9.652 652.452
-66.1016 10.8219 652.452
-66.5548 26.2096 656.925
-67.2131 31.2273 663.423
-66.7509 32.194 658.861
-66.62 33.31 657.569
-66.62 34.4891 657.569
-66.62 35.6682 657.569
-66.4896 36.7752 656.282
-66.4247 37.915 655.641
-66.5548 39.1672 656.925
-66.5548 40.3451 656.925
-66.62 41.5638 657.569
-66.6854 42.7849 658.214
-67.0142 44.1819 661.46
-67.0804 45.4128 662.113
-67.0142 46.5541 661.46
-66.9482 47.6932 660.808
-66.62 48.6385 657.569
-66.1659 49.4781 653.087
-66.1016 50.5999 652.452
-66.0373 51.7195 651.818
-66.5548 53.3027 656.925
-66.8823 54.7488 660.158
-66.7509 55.8227 658.861
-66.6854 56.9481 658.214
-66.7509 58.1855 658.861
-66.6854 59.3087 658.214
-66.6854 60.489 658.214
-66.62 61.6088 657.569
-67.1467 63.2842 662.767
-67.5471 64.8572 666.72
-67.5471 66.0527 666.72
-67.6143 67.3152 667.384
-67.7492 68.6485 668.714
-67.6817 69.778 668.048
-67.7492 71.0467 668.714
-67.7492 72.2458 668.714
-67.8168 73.5182 669.382
-67.8168 74.7185 669.382
-67.7492 75.8431 668.714
-67.8168 77.1191 669.382
-67.8845 78.3976 670.05
-67.9524 79.6787 670.72
-68.0886 81.0435 672.065
-68.1569 82.3311 672.739
-68.0886 83.4537 672.065
-58.9865 126.586 582.223
-58.9865 127.63 582.223
-58.7824 128.229 580.208
-58.8842 129.493 581.214
-58.8842 130.535 581.214
-58.8842 131.578 581.214
-59.9757 137.201 591.986
-59.7647 137.776 589.904
-59.6597 138.59 588.868
-59.6597 139.646 588.868
-59.503 140.332 587.321
-59.192 140.646 584.251
-59.1405 141.571 583.743
-58.7824 141.754 580.208
-58.7316 142.671 579.706
-58.7316 143.71 579.706
-58.5292 144.251 577.709
-58.3784 144.913 576.22
-58.1287 145.322 573.756
-58.079 146.225 573.265
-57.5868 146.005 568.407
-57.199 146.035 564.579
-57.1509 146.923 564.105
-57.1029 147.811 563.631
-57.0549 148.696 563.157
-56.9593 149.455 562.213
-56.9116 150.337 561.742
-56.8164 151.091 560.803
-56.7689 151.97 560.335
-56.3921 151.959 556.615
-56.0664 152.074 553.4
-55.7902 152.312 550.674
-55.6987 153.048 549.771
-55.6987 154.034 549.771
-55.5621 154.64 548.422
-55.2908 154.863 545.745
-55.3358 155.969 546.189
-54.8889 155.68 541.777
-54.8003 156.399 540.904
-54.5803 156.737 538.731
-54.4927 157.45 537.867
-54.4055 158.161 537.006
-54.4927 159.379 537.867
-54.3185 159.831 536.147
-54.1885 160.408 534.865
-53.8877 160.471 531.896
-53.845 161.297 531.474
-53.7173 161.865 530.214
-53.5902 162.431 528.959
-53.5058 163.122 528.126
-53.1709 163.042 524.82
-53.0464 163.599 523.591
-53.005 164.409 523.183
-52.9224 165.09 522.368
-52.8813 165.897 521.961
-52.4324 165.417 517.531
-52.2309 165.706 515.542
-52.2309 166.63 515.542
-52.2309 167.555 515.542
-52.1107 168.092 514.356
-51.9911 168.626 513.176
-51.9514 169.417 512.783
-51.9514 170.336 512.783
-51.6748 170.344 510.054
-51.6356 171.129 509.666
-51.5964 171.912 509.279
-51.6356 172.956 509.666
-51.6356 173.87 509.666
-51.4791 174.255 508.122
-50.4472 174.333 497.936
-50.3724 174.966 497.198
-50.1864 175.208 495.362
-50.0755 175.707 494.267
-49.855 175.816 492.091
-49.782 176.44 491.37
-49.6365 176.803 489.935
-49.6365 177.681 489.935
-49.5641 178.299 489.22
-49.4919 178.916 488.507
-49.3482 179.269 487.088
-49.2766 179.881 486.382
-49.2409 180.623 486.029
-48.9218 180.318 482.88
-48.8164 180.793 481.839
-48.6765 181.137 480.459
-48.6765 181.998 480.459
-48.3992 181.818 477.721
-48.4337 182.805 478.062
-48.2617 183.01 476.364
-47.8875 182.439 472.671
-47.7865 182.9 471.674
-47.8201 183.875 472.006
-47.5857 184.658 469.692
-47.486 185.111 468.707
-47.4197 185.692 468.053
-63.8753 -68.7667 641.838
-63.8753 -67.6158 641.838
-63.5712 -66.1484 638.781
-63.6925 -65.127 640
-63.6925 -63.9794 640
-62.4997 -41.385 628.015
-62.0928 -39.9967 623.926
-62.2665 -38.9867 625.672
-62.2665 -37.8648 625.672
-62.3247 -36.7772 626.256
-62.3829 -35.6875 626.842
-62.4413 -34.5958 627.428
-62.4413 -33.4708 627.428
-62.3829 -32.3155 626.842
-62.2085 -31.1042 625.089
-62.2085 -29.9834 625.089
-62.2085 -28.8625 625.089
-62.1506 -27.7158 624.507
-62.1506 -26.596 624.507
-62.0928 -25.4524 623.926
-62.2665 -24.4017 625.672
-61.3508 -22.9375 616.471
-61.6911 -20.8416 619.889
-61.8053 -19.7666 621.037
-62.0928 -18.7397 623.926
-62.0928 -17.6209 623.926
-62.2665 -16.5483 625.672
-62.2665 -15.4264 625.672
-61.92 -14.2249 622.19
-64.2442 -8.97104 645.544
-64.1208 -7.79847 644.304
-64.0592 -6.63677 643.686
-63.9365 -5.47204 642.452
-63.6925 -4.30355 640
-65.1853 3.81716 655
-65.3768 5.00633 656.925
-65.249 6.1722 655.641
-65.1217 7.33352 654.361
-65.1217 8.50689 654.361
-65.1853 9.6897 655
-65.0582 10.843 653.724
-64.8685 11.9802 651.818
-65.5051 25.0808 658.214
-65.5051 26.2611 658.214
-65.5695 27.4683 658.861
-65.7633 28.7344 660.808
-65.8931 29.9784 662.113
-66.0235 31.2273 663.423
-65.9582 32.3849 662.767
-65.5051 33.3427 658.214
-65.4409 34.4891 657.569
-65.4409 35.6682 657.569
-65.3128 36.7752 656.282
-65.249 37.915 655.641
-65.3768 39.1672 656.925
-65.3768 40.3451 656.925
-65.4409 41.5638 657.569
-65.5051 42.7849 658.214
-65.7633 44.1384 660.808
-65.8281 45.368 661.46
-65.6339 46.4168 659.509
-65.5051 47.506 658.214
-65.3128 48.5433 656.282
-64.9949 49.4781 653.087
-64.9316 50.5999 652.452
-64.9316 51.7698 652.452
-65.0582 53.0429 653.724
-65.4409 54.5341 657.569
-65.3768 55.6586 656.925
-65.3128 56.781 656.282
-65.3768 58.0146 656.925
-65.3768 59.1925 656.925
-65.4409 60.4297 657.569
-65.4409 61.6088 657.569
-66.0235 63.3468 663.423
-66.0888 64.6003 664.08
-66.1543 65.8563 664.738
-66.4176 67.3152 667.384
-66.5501 68.6485 668.714
-66.4838 69.778 668.048
-66.5501 71.0467 668.714
-66.5501 72.2458 668.714
-66.683 73.5916 670.05
-66.6165 74.7185 669.382
-66.6165 75.9188 669.382
-66.6165 77.1191 669.382
-66.683 78.3976 670.05
-66.7497 79.6787 670.72
-66.7497 80.8814 670.72
-66.7497 82.0841 670.72
-66.8835 83.4537 672.065
-66.7497 84.4895 670.72
-57.9425 126.586 582.223
-57.9425 127.63 582.223
-57.9425 128.674 582.223
-57.842 129.493 581.214
-57.842 130.535 581.214
-57.842 131.578 581.214
-58.9662 137.322 592.509
-58.9141 138.262 591.986
-58.6553 138.712 589.385
-58.5524 139.523 588.351
-58.4498 140.332 587.321
-58.195 140.769 584.761
-58.1444 141.694 584.251
-58.0938 142.618 583.743
-57.792 142.918 580.71
-57.792 143.959 580.71
-57.742 144.875 580.208
-57.0998 144.293 573.756
-56.9051 144.826 571.799
-56.6636 145.232 569.372
-56.5197 145.882 567.926
-56.234 146.158 565.055
-56.1866 147.047 564.579
-56.1394 147.935 564.105
-56.0922 148.821 563.631
-56.0451 149.706 563.157
-55.9043 150.337 561.742
-55.8108 151.091 560.803
-55.7642 151.97 560.335
-55.4861 152.212 557.54
-55.1651 152.325 554.314
-54.8027 152.312 550.674
-54.7129 153.048 549.771
-54.6681 153.908 549.321
-54.4007 154.135 546.634
-54.3122 154.863 545.745
-54.0484 155.085 543.093
-53.8739 155.555 541.34
-53.7437 156.147 540.033
-53.6573 156.863 539.164
-53.6142 157.703 538.731
-53.4854 158.288 537.436
-53.4854 159.251 537.436
-53.3571 159.831 536.147
-53.3145 160.664 535.719
-52.976 160.598 532.318
-52.934 161.425 531.896
-52.8083 161.993 530.633
-52.6833 162.559 529.377
-52.5588 163.122 528.126
-52.1482 162.787 524
-52.1482 163.727 524
-52.1075 164.538 523.591
-52.0263 165.219 522.775
-51.9453 165.897 521.961
-51.584 165.673 518.331
-51.3459 165.833 515.939
-51.3065 166.63 515.542
-51.3065 167.555 515.542
-51.2277 168.221 514.751
-51.0709 168.626 513.176
-50.8763 168.9 511.22
-50.8763 169.817 511.22
-50.6447 169.956 508.893
-50.6832 170.999 509.279
-50.6063 171.651 508.507
-50.6447 172.694 508.893
-50.6063 173.475 508.507
-50.4533 173.859 506.969
-50.3392 174.373 505.822
-49.5544 174.333 497.936
-49.5176 175.096 497.567
-49.4076 175.597 496.462
-49.2618 175.967 494.997
-49.0086 175.945 492.453
-48.758 176.803 489.935
-48.7224 177.552 489.577
-48.6869 178.299 489.22
-48.616 178.916 488.507
-48.4044 179.009 486.382
-48.3694 179.751 486.029
-48.3694 180.623 486.029
-48.0906 180.448 483.228
-48.0214 181.054 482.533
-47.815 181.137 480.459
-47.0068 182.31 472.338
-47.0068 183.157 472.338
-47.04 184.134 472.671
-46.7435 184.658 469.692
-46.6455 185.111 468.707
-46.5479 185.563 467.727
-62.5449 -75.4555 640
-62.6046 -74.3789 640.612
-62.7845 -73.4406 642.452
-62.7845 -72.2886 642.452
-62.7845 -71.1366 642.452
-62.7845 -69.9846 642.452
-62.7845 -68.8326 642.452
-62.7845 -67.6805 642.452
-62.5449 -66.2746 640
-62.6645 -65.2515 641.224
-62.7845 -64.2245 642.452
-61.4888 -41.4626 629.194
-61.1446 -40.1086 625.672
