ply
format ascii 1.0
element vertex 1916
property float x
property float y
property float z
end_header
-44.1232 170.352 507.353
-44.0565 171.003 506.586
-44.0233 171.782 506.204
-43.9569 172.429 505.441
-43.8908 173.074 504.681
-43.6935 173.197 502.412
-43.5305 173.449 500.538
-43.5305 174.346 500.538
-43.498 175.113 500.164
-43.3364 175.356 498.306
-43.208 175.727 496.83
-42.7019 176.311 491.011
-42.6083 176.803 489.935
-42.5462 177.422 489.22
-42.5462 178.299 489.22
-42.5152 179.046 488.863
-42.5152 179.923 488.863
-42.5462 180.931 489.22
-41.8743 179.8 481.493
-41.8142 180.405 480.803
-41.7843 181.137 480.459
-41.6947 181.608 479.428
-41.5462 181.818 477.721
-41.5166 182.545 477.381
-41.4282 183.01 476.364
-41.3401 183.473 475.351
-41.3108 184.195 475.014
-41.2816 184.916 474.678
-41.2232 185.504 474.007
-41.0491 185.568 472.006
-40.8193 185.37 469.363
-40.677 185.563 467.727
-61.3621 -122.401 720.43
-61.3621 -121.109 720.43
-61.3621 -119.818 720.43
-61.3621 -118.526 720.43
-61.2963 -117.108 719.657
-61.2963 -115.818 719.657
-61.2306 -114.405 718.886
-61.165 -112.994 718.116
-60.71 -105.763 712.774
-56.008 -95.2136 657.569
-56.0629 -94.1267 658.214
-56.0629 -92.9464 658.214
-56.008 -91.6762 657.569
-56.0629 -90.5859 658.214
-56.008 -89.318 657.569
-56.0629 -88.2254 658.214
-55.7892 -86.6201 655
-55.7892 -85.4456 655
-55.7892 -84.2711 655
-56.9005 -84.7519 668.048
-57.0141 -83.7207 669.382
-57.0141 -82.5204 669.382
-56.9005 -81.1581 668.048
-56.4507 -79.3281 662.767
-56.4507 -78.1397 662.767
-56.4507 -76.9513 662.767
-56.0629 -75.2424 658.214
-56.008 -73.9895 657.569
-55.9531 -72.7391 656.925
-56.008 -71.6313 657.569
-55.9531 -70.3831 656.925
-56.0629 -69.341 658.214
-56.3394 -68.4968 661.46
-56.5066 -67.5105 663.423
-56.6186 -66.4523 664.738
-56.6186 -65.2604 664.738
-56.5625 -64.0049 664.08
-56.6186 -62.8764 664.738
-56.5066 -61.5624 663.423
-56.5625 -60.4326 664.08
-56.5625 -59.2418 664.08
-56.6747 -58.1662 665.397
-56.6186 -56.9166 664.738
-57.1281 -52.618 670.72
-57.1281 -51.4153 670.72
-57.1281 -50.2126 670.72
-56.9005 -48.8147 668.048
-56.9005 -47.6168 668.048
-56.9573 -46.4651 668.714
-57.0141 -45.3112 669.382
-57.3 -44.3321 672.739
-57.3 -43.1258 672.739
-57.3576 -41.9616 673.414
-57.3576 -40.7541 673.414
-57.2426 -39.4673 672.065
-57.1281 -38.1856 670.72
-57.0141 -36.9091 669.382
-56.9573 -35.6732 668.714
-57.1281 -34.5776 670.72
-57.3 -33.4753 672.739
-57.3576 -32.3014 673.414
-57.3 -31.0627 672.739
-57.3 -29.8563 672.739
-57.2426 -28.6213 672.065
-57.0141 -27.3068 669.382
-57.0141 -26.1065 669.382
-57.0711 -24.931 670.05
-57.0711 -23.7295 670.05
-57.0141 -22.5056 669.382
-57.0711 -21.3266 670.05
-57.0141 -20.105 669.382
-59.7575 -19.8143 701.59
-59.8827 -18.5952 703.061
-60.0085 -17.3709 704.538
-59.82 -16.057 702.325
-59.695 -14.7667 700.857
-59.5085 -13.4677 698.667
-59.4466 -12.2022 697.94
-59.4466 -10.9507 697.94
-59.6327 -9.72955 700.126
-59.695 -8.48298 700.857
-59.695 -7.22624 700.857
-59.7575 -5.97575 701.59
-59.82 -4.72263 702.325
-59.7575 -3.45964 701.59
-59.7575 -2.20159 701.59
-60.1349 -0.949498 706.021
-60.1982 0.316833 706.765
-60.1982 1.58416 706.765
-60.1982 2.8515 706.765
-60.2618 4.12317 707.511
-60.3254 5.39753 708.258
-60.6456 6.70293 712.017
-60.71 7.98816 712.774
-60.71 9.26627 712.774
-60.71 10.5444 712.774
-61.2963 11.9366 719.657
-61.3621 13.2413 720.43
-61.6269 14.5958 723.539
-61.7601 15.9276 725.103
-61.7601 17.2278 725.103
-61.7601 18.528 725.103
-61.894 19.8712 726.674
-61.9611 21.1972 727.462
-61.9611 22.5017 727.462
-62.299 23.9359 731.429
-62.9165 25.4977 738.679
-62.9165 26.8223 738.679
-62.6405 28.0234 735.439
-62.367 29.214 732.228
-62.9165 30.7959 738.679
-62.9165 32.1205 738.679
-62.299 33.1168 731.429
-62.299 34.4284 731.429
-61.7601 38.0312 725.103
-63.1948 41.5756 741.947
-63.4757 43.0967 745.245
-63.6171 44.532 746.905
-63.7591 45.9737 748.572
-64.045 47.5281 751.929
-64.045 48.8764 751.929
-64.045 50.2248 751.929
-64.3335 51.8054 755.316
-52.0293 109.809 610.857
-52.2195 111.31 613.09
-52.1242 112.204 611.971
-52.1242 113.302 611.971
-52.1242 114.399 611.971
-52.1242 115.496 611.971
-49.6766 135.173 583.235
-49.6766 136.219 583.235
-49.7199 137.384 583.743
-49.7199 138.431 583.743
-49.7632 139.599 584.251
-49.4616 139.794 580.71
-49.4616 140.835 580.71
-49.4188 141.754 580.208
-49.1636 142.057 577.212
-49.1214 142.969 576.716
-49.0792 143.879 576.22
-49.0792 144.913 576.22
-48.953 145.571 574.739
-48.7858 146.101 572.776
-48.7858 147.128 572.776
-48.3318 146.776 567.445
-48.3318 147.793 567.445
-48.1282 148.184 565.055
-48.0472 148.946 564.105
-47.806 149.205 561.272
-47.6068 149.586 558.934
-47.4092 149.963 556.615
-47.3699 150.836 556.153
-47.1743 151.206 553.857
-47.1743 152.199 553.857
-47.1354 153.066 553.4
-47.1354 154.058 553.4
-46.8263 154.034 549.771
-46.5972 154.261 547.08
-46.4834 154.863 545.745
-46.2202 154.959 542.654
-46.2202 155.932 542.654
-46.1828 156.779 542.215
-45.9599 156.989 539.598
-45.8861 157.703 538.731
-45.8125 158.415 537.867
-45.666 158.87 536.147
-45.5931 159.576 535.292
-45.4119 159.898 533.164
-45.2321 160.217 531.053
-45.0537 160.534 528.959
-45.0537 161.482 528.959
-45.0537 162.431 528.959
-45.0182 163.25 528.542
-44.9828 164.069 528.126
-44.9474 164.886 527.711
-44.7713 165.182 525.643
-44.5965 165.477 523.591
-44.2168 164.999 519.133
-44.1826 165.801 518.732
-44.1485 166.602 518.331
-44.0464 167.144 517.132
-43.9447 167.684 515.939
-43.7094 167.706 513.176
-43.6093 168.24 512
-43.6093 169.158 512
-43.3446 170.869 508.893
-43.2134 171.262 507.353
-43.1481 171.911 506.586
-43.1156 172.689 506.204
-42.9858 173.074 504.681
-42.8568 173.457 503.166
-42.7606 173.968 502.036
-42.6967 174.607 501.286
-42.6329 175.244 500.538
-42.5377 175.748 499.42
-42.3485 175.858 497.198
-41.8828 175.687 491.731
-41.669 175.668 489.22
-41.6994 176.674 489.577
-41.6994 177.552 489.577
-41.6994 178.429 489.577
-41.669 179.177 489.22
-41.669 180.054 489.22
-41.129 179.452 482.88
-41.0698 180.059 482.186
-40.9814 180.534 481.148
-40.9227 181.137 480.459
-40.8934 181.868 480.115
-40.7186 181.948 478.062
-40.6896 182.675 477.721
-40.6606 183.401 477.381
-40.5452 183.734 476.026
-40.4877 184.326 475.351
-40.459 185.047 475.014
-39.8661 184.853 468.053
-39.8106 185.433 467.401
-60.1996 -122.665 721.981
-60.1349 -121.24 721.205
-60.0703 -119.818 720.43
-60.0703 -118.526 720.43
-60.0058 -117.108 719.657
-60.0703 -115.942 720.43
-59.8773 -114.282 718.116
-59.9415 -113.115 718.886
-59.622 -111.23 715.054
-59.4951 -109.714 713.532
-59.5585 -108.55 714.292
-59.4951 -107.155 713.532
-59.4319 -105.763 712.774
-59.243 -104.153 710.509
-54.9366 -93.0378 658.861
-54.8289 -91.6762 657.569
-54.8289 -90.4971 657.569
-54.8289 -89.318 657.569
-54.7216 -87.9664 656.282
-54.4551 -86.367 653.087
-54.4551 -85.196 653.087
-54.4551 -84.0249 653.087
-54.5082 -82.9346 653.724
-54.1913 -81.287 649.923
-54.8289 -78.706 657.569
-54.9366 -77.6791 658.861
-54.8827 -76.4226 658.214
-54.8289 -75.1686 657.569
-54.7752 -73.917 656.925
-54.7216 -72.6679 656.282
-54.7752 -71.5611 656.925
-54.7752 -70.3831 656.925
-54.8289 -69.273 657.569
-54.9906 -68.2948 659.509
-55.2623 -67.4438 662.767
-55.2623 -66.2553 662.767
-55.317 -65.1312 663.423
-55.2623 -63.8785 662.767
-55.317 -62.752 663.423
-55.317 -61.5624 663.423
-55.317 -60.3728 663.423
-55.3717 -59.2418 664.08
-55.4816 -58.1662 665.397
-55.4266 -56.9166 664.738
-55.9254 -52.618 670.72
-56.0375 -51.5184 672.065
-56.0375 -50.3133 672.065
-56.0375 -49.1081 672.065
-55.8138 -47.7118 669.382
-55.8138 -46.5115 669.382
-55.7582 -45.266 668.714
-55.9254 -44.1991 670.72
-55.9254 -42.9964 670.72
-56.0375 -41.8775 672.065
-56.0375 -40.6724 672.065
-55.9254 -39.3883 670.72
-55.8138 -38.1094 669.382
-55.9254 -36.983 670.72
-55.7582 -35.6732 668.714
-56.0375 -34.6469 672.065
-56.0375 -33.4417 672.065
-56.2065 -32.3338 674.091
-56.2065 -31.1251 674.091
-56.2065 -29.9163 674.091
-56.3765 -28.7944 676.129
-56.15 -27.4713 673.414
-55.9254 -26.1587 670.72
-55.9814 -24.981 671.392
-55.9814 -23.7771 671.392
-55.8696 -21.3266 670.05
-55.8138 -20.105 669.382
-58.8689 -19.9395 706.021
-58.8689 -18.6735 706.021
-58.6221 -17.3345 703.061
-58.5607 -16.057 702.325
-58.3773 -14.7512 700.126
-58.195 -13.4537 697.94
-58.1346 -12.1895 697.215
-58.1346 -10.9393 697.215
-58.3773 -9.72955 700.126
-58.4383 -8.48298 700.857
-58.3773 -7.2187 700.126
-58.4994 -5.97575 701.59
-58.5607 -4.72263 702.325
-58.4994 -3.45964 701.59
-58.6221 -2.20621 703.061
-58.9309 -0.950499 706.765
-58.9931 0.317167 707.511
-58.9931 1.58584 707.511
-58.9931 2.8545 707.511
-58.9931 4.12317 707.511
-59.243 5.41469 710.509
-59.4951 6.71719 713.532
-60.0703 11.9495 720.43
-60.1996 13.2698 721.981
-60.4599 14.6274 725.103
-60.5254 15.9449 725.888
-60.5254 17.2465 725.888
-60.5254 18.5481 725.888
-60.6567 19.8928 727.462
-60.6567 21.1972 727.462
-60.921 22.5997 730.632
-61.054 23.962 732.228
-61.5241 25.4697 737.866
-61.5919 26.8223 738.679
-61.3218 28.0234 735.439
-61.3218 29.3421 735.439
-61.5919 30.7959 738.679
-61.8644 32.2626 741.947
-61.8644 36.2539 741.947
-61.8644 37.5843 741.947
-61.8644 41.5756 741.947
-62.4168 43.2891 748.572
-62.4168 44.6314 748.572
-62.6265 46.1281 751.087
-62.5564 47.4218 750.247
-62.9791 49.0966 755.316
-62.9791 50.451 755.316
-62.9791 51.8054 755.316
-63.2641 53.4003 758.734
-48.7155 135.408 584.251
-48.7155 136.456 584.251
-48.7155 137.504 584.251
-48.6308 138.31 583.235
-48.3784 138.633 580.208
-48.3366 139.552 579.706
-48.3366 140.592 579.706
-48.2532 141.387 578.706
-48.1286 142.057 577.212
-48.1286 143.092 577.212
-48.0872 144.003 576.716
-48.0872 145.037 576.716
-47.9635 145.696 575.232
-47.718 145.976 572.287
-47.6367 146.752 571.312
-47.2343 147.544 566.487
-46.9962 147.811 563.631
-46.8387 148.323 561.742
-46.6823 148.831 559.867
-46.4883 149.212 557.54
-46.4112 149.963 556.615
-46.4112 150.961 556.615
-46.2576 151.456 554.773
-46.1812 152.199 553.857
-46.1812 153.192 553.857
-46.1431 154.058 553.4
-45.8781 154.16 550.222
-45.803 154.893 549.321
-45.579 155.116 546.634
-45.4678 155.715 545.301
-45.2838 156.059 543.093
-45.2471 156.905 542.654
-45.0285 157.116 540.033
-44.9923 157.957 539.598
-44.92 158.669 538.731
-44.6689 158.743 535.719
-44.5621 159.322 534.439
-44.4205 159.771 532.741
-44.2798 160.217 531.053
-44.1052 160.534 528.959
-44.1052 161.482 528.959
-44.1052 162.431 528.959
-44.0705 163.25 528.542
-44.0011 163.94 527.711
-43.932 164.627 526.882
-43.6576 164.538 523.591
-43.6236 165.347 523.183
-43.5556 166.027 522.368
-43.2525 165.801 518.732
-43.219 166.602 518.331
-43.1191 167.144 517.132
-43.0196 167.684 515.939
-42.7565 167.578 512.783
-42.5612 167.728 510.442
-42.5289 169.429 510.054
-42.432 169.956 508.893
-42.432 170.869 508.893
-42.2717 171.132 506.969
-42.2398 171.911 506.586
-42.2079 172.689 506.204
-42.1443 173.335 505.441
-41.9546 173.457 503.166
-41.8291 173.838 501.661
-41.7666 174.476 500.911
-41.7354 175.244 500.538
-41.6422 175.748 499.42
-41.457 175.858 497.198
-41.1519 175.449 493.54
-40.941 175.43 491.011
-40.7917 175.668 489.22
-40.8513 176.803 489.935
-40.762 177.293 488.863
-40.8513 178.56 489.935
-40.7917 179.177 489.22
-40.762 179.923 488.863
-40.2631 178.586 482.88
-40.2631 179.452 482.88
-40.2341 180.188 482.533
-40.1763 180.793 481.839
-40.0899 181.267 480.803
-40.0612 181.998 480.459
-39.9753 182.468 479.428
-39.8613 182.805 478.062
-39.8329 183.531 477.721
-39.7763 184.126 477.042
-39.6353 184.326 475.351
-39.5792 184.916 474.678
-39.1361 185.37 469.363
-39.0268 185.692 468.053
-58.9685 -121.501 722.759
-58.7785 -118.526 720.43
-58.7154 -117.108 719.657
-58.7154 -115.818 719.657
-58.4645 -114.038 716.582
-58.4645 -112.753 716.582
-58.2157 -110.994 713.532
-58.2157 -109.714 713.532
-58.1538 -108.319 712.774
-58.1538 -107.041 712.774
-58.1538 -105.763 712.774
-58.1538 -104.485 712.774
-58.1538 -103.207 712.774
-53.7551 -91.8563 658.861
-53.7024 -90.5859 658.214
-53.5972 -89.2305 656.925
-53.4402 -87.7946 655
-53.2841 -86.367 653.087
-53.2322 -85.1131 652.452
-53.2322 -83.9431 652.452
-53.2322 -82.7732 652.452
-53.1289 -81.4448 651.185
-53.2322 -80.4333 652.452
-53.6498 -79.8851 657.569
-53.6498 -78.706 657.569
-53.6498 -77.5268 657.569
-53.6498 -76.3477 657.569
-53.5972 -75.095 656.925
-53.5448 -73.8447 656.282
-53.4924 -72.5969 655.641
-53.5972 -71.5611 656.925
-53.5972 -70.3831 656.925
-53.7024 -69.341 658.214
-53.861 -68.362 660.158
-54.0739 -67.4438 662.767
-54.1273 -66.3209 663.423
-54.1273 -65.1312 663.423
-54.0739 -63.8785 662.767
-54.1809 -62.8142 664.08
-54.1809 -61.6234 664.08
-54.1273 -60.3728 663.423
-54.1273 -59.1832 663.423
-54.1273 -57.9936 663.423
-54.1273 -56.804 663.423
-54.0739 -55.5594 662.767
-54.9425 -51.6218 673.414
-54.9425 -50.4143 673.414
-54.9425 -49.2068 673.414
-54.7227 -47.8072 670.72
-54.5591 -46.4651 668.714
-54.5591 -45.266 668.714
-54.8324 -44.2877 672.065
-54.7227 -42.9964 670.72
-54.7227 -41.7937 670.72
-54.9425 -40.7541 673.414
-54.8874 -39.5069 672.739
-54.7227 -38.1856 670.72
-54.8324 -37.0571 672.065
-54.6135 -35.7088 669.382
-54.7227 -34.5776 670.72
-54.9425 -33.5089 673.414
-55.0531 -32.3664 674.769
-55.0531 -31.1564 674.769
-54.9977 -29.9163 674.091
-54.7227 -26.1587 670.72
-54.8324 -25.006 672.065
-54.7227 -22.5506 670.72
-54.6135 -21.3053 669.382
-54.5591 -20.0849 668.714
-57.7244 -19.9815 707.511
-57.1219 -14.7512 700.126
-57.0029 -13.4677 698.667
-57.0029 -12.2149 698.667
-57.0029 -10.9621 698.667
-57.1816 -9.73971 700.857
-57.3614 -8.50965 703.061
-57.2414 -7.2338 701.59
-57.3614 -5.98827 703.061
-57.6029 -4.74749 706.021
-57.7244 -3.48884 707.511
-57.7244 -2.22017 707.511
-57.7244 -0.951501 707.511
-57.8465 0.317838 709.007
-57.969 1.59256 710.509
-58.0921 2.87269 712.017
-58.0921 4.14943 712.017
-58.1538 5.43195 712.774
-58.7785 8.07396 720.43
-58.7785 9.3658 720.43
-58.8417 10.6691 721.205
-59.0321 12.001 723.539
-59.0958 13.3128 724.32
-59.1597 14.6274 725.103
-59.2879 15.9621 726.674
-59.2879 17.2652 726.674
-59.3522 18.5883 727.462
-59.4812 19.936 729.044
-59.546 21.2664 729.837
-59.741 22.6491 732.228
-59.741 23.962 732.228
-60.003 25.3859 735.439
-60.2673 26.8223 738.679
-60.2673 29.4714 738.679
-60.534 30.9322 741.947
-60.534 32.2626 741.947
-60.534 33.593 741.947
-60.534 34.9235 741.947
-60.6682 36.3343 743.593
-60.4004 37.5013 740.31
-60.3338 38.786 739.493
-60.6682 40.3344 743.593
-60.803 41.7603 745.245
-61.0745 43.2891 748.572
-61.0745 44.6314 748.572
-61.3484 46.1798 751.929
-61.6247 47.7422 755.316
-61.9036 49.3188 758.734
-61.9036 50.6793 758.734
-62.0439 52.1578 760.454
-62.0439 53.5214 760.454
-47.6679 134.361 584.251
-47.6679 135.408 584.251
-47.6679 136.456 584.251
-47.6264 137.384 583.743
-47.6264 138.431 583.743
-47.4612 138.993 581.718
-47.379 139.794 580.71
-47.338 140.714 580.208
-47.2971 141.631 579.706
-47.2155 142.425 578.706
-47.0936 143.092 577.212
-47.0127 143.879 576.22
-47.0531 145.037 576.716
-46.9723 145.821 575.726
-46.6918 145.976 572.287
-46.4145 146.129 568.889
-46.1017 146.158 565.055
-46.0629 147.047 564.579
-45.8314 147.315 561.742
-45.7931 148.199 561.272
-45.5264 148.336 558.004
-45.4508 149.089 557.077
-45.4508 150.087 557.077
-45.4131 150.961 556.615
-45.3378 151.707 555.692
-45.2254 152.325 554.314
-45.1508 153.066 553.4
-44.9284 153.3 550.674
-44.8915 154.16 550.222
-44.818 154.893 549.321
-44.5988 155.116 546.634
-44.3458 155.21 543.534
-44.3099 156.059 543.093
-44.2383 156.779 542.215
-44.0602 157.116 540.033
-44.0247 157.957 539.598
-43.8132 158.161 537.006
-43.7083 158.743 535.719
-43.4998 158.942 533.164
-43.3276 159.265 531.053
-43.1908 159.711 529.377
-43.0888 160.281 528.126
-43.0549 161.101 527.711
-43.0888 162.175 528.126
-42.9872 162.737 526.882
-42.9198 163.425 526.055
-42.9198 164.369 526.055
-42.819 164.924 524.82
-42.7856 165.735 524.41
-42.6522 166.156 522.775
-42.3551 165.929 519.133
-42.3223 166.731 518.732
-42.1268 166.887 516.336
-41.9975 167.298 514.751
-41.6459 166.813 510.442
-41.6143 167.6 510.054
-41.5826 168.387 509.666
-41.5511 169.172 509.279
-41.3939 169.442 507.353
-41.5195 170.869 508.893
-41.3939 171.262 507.353
-41.3314 171.911 506.586
-41.1759 172.169 504.681
-41.114 172.814 503.922
-41.0831 173.588 503.544
-41.0215 174.229 502.789
-40.8989 174.607 501.286
-40.8379 175.244 500.538
-40.4156 175.208 495.362
-40.2966 175.578 493.903
-40.1782 175.945 492.453
-39.9436 175.796 489.577
-39.9728 176.803 489.935
-39.9436 177.552 489.577
-39.8273 179.661 488.152
-39.6829 179.881 486.382
-39.4256 179.581 483.228
-39.4256 180.448 483.228
-39.3689 181.054 482.533
-39.2278 181.267 480.803
-39.1997 181.998 480.459
-39.0598 182.207 478.744
-39.0041 182.805 478.062
-38.9763 183.531 477.721
-38.8932 183.995 476.703
-38.7555 184.195 475.014
-38.7281 184.916 474.678
-38.3213 184.658 469.692
-38.2944 185.37 469.363
-38.2142 185.822 468.38
-57.4866 -119.818 720.43
-57.4249 -118.399 719.657
-57.3634 -116.983 718.886
-57.4866 -115.942 720.43
-57.4866 -114.65 720.43
-57.0576 -112.512 715.054
-57.1795 -111.468 716.582
-57.1795 -110.183 716.582
-57.0576 -108.666 715.054
-56.9362 -107.155 713.532
-56.9362 -105.876 713.532
-56.9969 -104.708 714.292
-57.0576 -103.537 715.054
-52.4706 -92.8553 657.569
-52.4706 -91.6762 657.569
-52.4706 -90.4971 657.569
-52.4192 -89.2305 656.925
-52.1638 -87.6234 653.724
-52.113 -86.367 653.087
-52.113 -85.196 653.087
-52.0623 -83.9431 652.452
-52.113 -82.8538 653.087
-52.0623 -81.6033 652.452
-52.1638 -80.5901 653.724
-52.4192 -79.8068 656.925
-52.4706 -78.706 657.569
-52.4192 -77.4509 656.925
-52.4192 -76.2729 656.925
-52.4192 -75.095 656.925
-52.368 -73.8447 656.282
-52.368 -72.6679 656.282
-52.4192 -71.5611 656.925
-52.4192 -70.3831 656.925
-52.5221 -69.341 658.214
-52.7291 -68.4294 660.808
-52.8854 -67.4438 662.767
-52.8332 -66.1899 662.113
-52.8854 -65.0669 662.767
-52.8332 -63.8154 662.113
-52.8854 -62.69 662.767
-52.8854 -61.5016 662.767
-52.8854 -60.3132 662.767
-52.8854 -59.1247 662.767
-52.9377 -57.9936 663.423
-52.9377 -56.804 663.423
-53.52 -51.4153 670.72
-53.735 -50.4143 673.414
-53.6811 -49.1574 672.739
-53.4666 -47.7595 670.05
-53.4132 -46.5115 669.382
-53.36 -45.266 668.714
-53.4666 -44.155 670.05
-53.4132 -42.9106 669.382
-53.36 -41.6687 668.714
-53.6273 -40.6724 672.065
-53.4132 -39.3097 669.382
-53.3068 -35.6377 668.048
-53.36 -34.4741 668.714
-53.4666 -21.3266 670.05
-53.4132 -20.105 669.382
-55.8664 -14.7512 700.126
-55.75 -9.70928 698.667
-55.9833 -8.49185 701.59
-55.9833 -7.2338 701.59
-56.2185 -6.00085 704.538
-56.4557 -4.75751 707.511
-56.695 -3.50362 710.509
-56.4557 -2.22017 707.511
-56.4557 -0.951501 707.511
-56.9362 0.319866 713.532
-56.9362 1.59933 713.532
-57.1795 2.8911 716.582
-57.1795 4.17603 716.582
-57.302 5.47266 718.116
-57.4866 6.78213 720.43
-57.6104 8.09135 721.981
-57.5484 9.37587 721.205
-57.5484 10.6691 721.205
-57.6725 11.9881 722.759
-57.8595 13.3272 725.103
-57.8595 14.6274 725.103
-57.9849 15.9621 726.674
-57.9849 17.2652 726.674
-58.1108 18.6085 728.252
-58.3007 19.9795 730.632
-58.3643 21.3128 731.429
-58.4919 22.6738 733.028
-58.5559 24.0145 733.83
-58.9428 25.4977 738.679
-59.2036 26.941 741.947
-58.8132 28.085 737.055
-58.9428 29.4714 738.679
-59.2036 30.9322 741.947
-59.2036 32.2626 741.947
-59.2036 33.593 741.947
-59.2036 34.9235 741.947
-59.3349 36.3343 743.593
-59.2036 37.5843 741.947
-59.2036 38.9147 741.947
-59.4667 40.424 745.245
-59.4667 41.7603 745.245
-59.7322 43.2891 748.572
-59.9329 44.7813 751.087
-60.0674 46.2316 752.773
-60.2703 47.7422 755.316
-60.6803 49.4306 760.454
-60.543 50.6793 758.734
-60.8182 53.643 762.182
-46.7833 134.83 586.294
-46.7016 135.645 585.271
-46.6202 136.456 584.251
-46.5797 137.384 583.743
-46.5797 138.431 583.743
-46.5392 139.356 583.235
-46.3377 139.794 580.71
-46.2976 140.714 580.208
-46.2576 141.631 579.706
-46.138 142.302 578.207
-46.019 142.969 576.716
-45.9794 143.879 576.22
-45.9794 144.913 576.22
-45.7436 145.197 573.265
-45.6656 145.976 572.287
-45.5102 146.502 570.34
-45.2027 146.528 566.487
-45.0885 147.171 565.055
-44.8242 147.315 561.742
-44.7492 148.075 560.803
-44.4519 148.09 557.077
-44.4519 149.089 557.077
-44.4519 150.087 557.077
-44.415 150.961 556.615
-44.3414 151.707 555.692
-44.2314 152.325 554.314
-44.1585 153.066 553.4
-44.1221 153.931 552.943
-43.9409 154.287 550.674
-43.9049 155.147 550.222
-43.6542 155.242 547.08
-43.4769 155.589 544.858
-43.3361 156.059 543.093
-43.301 156.905 542.654
-43.0572 156.989 539.598
-42.988 157.703 538.731
-42.8503 158.161 537.006
-42.7476 158.743 535.719
-42.7135 159.576 535.292
-42.51 159.771 532.741
-42.4425 160.471 531.896
-42.1086 160.155 527.711
-42.0755 160.974 527.296
-42.0425 161.793 526.882
-42.0095 162.61 526.468
-41.9765 163.425 526.055
-41.9436 164.24 525.643
-41.7473 164.409 523.183
-41.7799 165.477 523.591
-41.7148 166.156 522.775
-41.3921 165.801 518.732
-41.3282 166.474 517.931
-41.201 166.887 516.336
-41.106 167.426 515.146
-40.6378 166.433 509.279
-40.423 167.369 506.586
-40.4535 168.405 506.969
-40.423 169.186 506.586
-40.4535 170.223 506.969
-40.5455 171.521 508.122
-40.4841 172.171 507.353
-40.3012 172.299 505.061
-40.2104 172.814 503.922
-40.1501 173.457 503.166
-40.12 174.229 502.789
-40.12 175.13 502.789
-40 175.506 501.286
-39.4982 175.079 494.997
-39.44 175.707 494.267
-39.2664 175.816 492.091
-39.0657 175.796 489.577
-39.1801 177.191 491.011
-39.2088 178.202 491.37
-39.0088 179.923 488.863
-38.8954 180.274 487.442
-38.5869 180.578 483.576
-38.5313 181.184 482.88
-38.3931 181.397 481.148
-38.3656 182.129 480.803
-38.2833 182.598 479.771
-38.1197 182.675 477.721
-38.1197 183.531 477.721
-37.9844 183.734 476.026
-37.9037 184.195 475.014
-37.8501 184.785 474.343
-37.4528 184.529 469.363
-37.4528 185.37 469.363
-37.4266 186.082 469.035
-56.1345 -118.399 719.657
-56.1345 -117.108 719.657
-55.6567 -108.435 713.532
-55.716 -107.269 714.292
-55.6567 -105.876 713.532
-55.716 -104.708 714.292
-55.716 -103.427 714.292
-51.2915 -92.8553 657.569
-51.1911 -91.4968 656.282
-51.2413 -90.4085 656.925
-51.1411 -89.0561 655.641
-50.9419 -87.5381 653.087
-50.9419 -86.367 653.087
-50.8924 -85.1131 652.452
-50.9419 -84.0249 653.087
-50.9916 -82.9346 653.724
-51.0413 -81.8421 654.361
-51.1411 -80.8265 655.641
-51.2413 -79.8068 656.925
-51.2413 -78.6289 656.925
-51.1911 -77.3751 656.282
-51.2915 -76.3477 657.569
-51.2915 -75.1686 657.569
-51.2915 -73.9895 657.569
-51.2915 -72.8104 657.569
-51.3419 -71.7015 658.214
-51.4428 -70.66 659.509
-51.4935 -69.5458 660.158
-51.595 -68.4968 661.46
-51.697 -67.4438 662.767
-51.595 -66.1246 661.46
-51.595 -64.9386 661.46
-51.5442 -63.6897 660.808
-51.646 -62.6281 662.113
-51.595 -61.3803 661.46
-51.646 -60.2536 662.113
-51.697 -59.1247 662.767
-51.7481 -57.9936 663.423
-51.7994 -56.8602 664.08
-51.7481 -55.6144 663.423
-52.5275 -51.6218 673.414
-52.6331 -50.5157 674.769
-52.4222 -49.1081 672.065
-52.3173 -47.8072 670.72
-52.1609 -46.4651 668.714
-52.1609 -45.266 668.714
-52.3697 -44.2434 671.392
-52.1609 -42.8678 668.714
-52.2129 -41.7103 669.382
-52.1089 -40.4293 668.048
-52.2129 -39.3097 669.382
-52.2129 -35.7088 669.382
-54.7826 -9.76011 702.325
-54.84 -8.50965 703.061
-55.1871 -4.75751 707.511
-55.4209 -3.50362 710.509
-55.1871 -2.22017 707.511
-55.2454 -0.952506 708.258
-55.4209 0.318511 710.509
-55.5386 1.59594 712.017
-55.5386 2.87269 712.017
-56.1345 4.19396 719.657
-56.1948 5.4903 720.43
-56.3765 6.80406 722.759
-56.4982 8.11756 724.32
-56.4982 9.41637 724.32
-56.5593 10.7268 725.103
-56.5593 12.027 725.103
-56.5593 13.3272 725.103
-56.6205 14.6432 725.888
-56.6819 15.9621 726.674
-56.7433 17.2839 727.462
-56.8667 18.6287 729.044
-56.9906 19.9795 730.632
-57.0527 21.3128 731.429
-57.1774 22.6738 733.028
-57.3655 24.0671 735.439
-57.6182 25.4977 738.679
-57.8732 26.941 741.947
-57.6817 28.1779 739.493
-57.8732 29.6018 741.947
-58.0015 31.0008 743.593
-58.0659 32.3701 744.418
-58.0659 33.7049 744.418
-58.1304 35.0787 745.245
-58.0659 36.3746 744.418
-58.0015 37.6676 743.593
-57.8732 38.9147 741.947
-57.8732 40.2451 741.947
-58.0015 41.6677 743.593
-58.3899 43.2891 748.572
-58.9159 45.0334 755.316
-58.9159 46.3878 755.316
-59.1825 47.9583 758.734
-59.4515 49.5429 762.182
-59.4515 50.9096 762.182
-59.723 52.515 765.663
-45.6521 134.595 585.271
-45.812 136.12 587.321
-45.6123 136.575 584.761
-45.5726 137.504 584.251
-45.5329 138.431 583.743
-45.4933 139.356 583.235
-45.2964 139.794 580.71
-45.2572 140.714 580.208
-45.2181 141.631 579.706
-44.9848 141.935 576.716
-44.9076 142.724 575.726
-44.8691 143.633 575.232
-44.8691 144.664 575.232
-44.6775 145.073 572.776
-44.6775 146.101 572.776
-44.4875 146.502 570.34
-44.2617 146.776 567.445
-44.1497 147.419 566.009
-43.9642 147.811 563.631
-43.7436 148.075 560.803
-43.5615 148.46 558.468
-43.4891 149.212 557.54
-43.4891 150.212 557.54
-43.4529 151.086 557.077
-43.4169 151.959 556.615
-43.3449 152.704 555.692
-43.2018 153.192 553.857
-43.1305 153.931 552.943
-43.0241 154.541 551.579
-42.9535 155.274 550.674
-42.848 155.878 549.321
-42.6037 155.969 546.189
-42.569 156.82 545.745
-42.3966 157.16 543.534
-42.2937 157.751 542.215
-42.0896 157.957 539.598
-41.9882 158.542 538.299
-41.8204 158.87 536.147
-41.787 159.703 535.719
-41.7537 160.536 535.292
-41.13 160.029 527.296
-41.13 160.974 527.296
-41.0977 161.793 526.882
-41.0977 162.737 526.882
-41.0332 163.425 526.055
-41.0011 164.24 525.643
-40.8092 164.409 523.183
-40.841 165.477 523.591
-40.7774 166.156 522.775
-40.6191 166.445 520.746
-40.462 166.731 518.732
-40.3061 167.016 516.734
-40.1823 167.426 515.146
-39.7851 166.686 510.054
-39.6644 168.004 508.507
-39.6644 168.916 508.507
-39.5744 169.442 507.353
-39.5744 171.262 507.353
-39.1304 172.938 501.661
-39.1012 173.708 501.286
-39.1304 174.737 501.661
-38.7823 174.966 497.198
-38.6677 175.338 495.728
-38.5253 175.578 493.903
-38.3558 175.687 491.731
-38.1878 175.796 489.577
-38.2717 177.061 490.651
-38.2717 177.941 490.651
-38.049 179.53 487.797
-37.6926 180.448 483.228
-37.423 181.738 479.771
-37.3429 182.207 478.744
-37.2631 182.675 477.721
-37.2365 183.401 477.381
-37.0782 183.473 475.351
-37.0519 184.195 475.014
-37.0257 184.916 474.678
-36.6368 185.5 469.692
-36.6112 186.212 469.363
-55.0804 -118.909 722.759
-55.1994 -117.867 724.32
-54.3773 -109.714 713.532
-54.3773 -108.435 713.532
-54.3773 -107.155 713.532
-54.3773 -105.876 713.532
-54.3773 -104.596 713.532
-54.2618 -103.097 712.017
-50.0143 -91.4968 656.282
-49.8193 -89.9679 653.724
-49.868 -88.8823 654.361
-49.7708 -87.5381 653.087
-49.7224 -86.283 652.452
-49.7224 -85.1131 652.452
-49.7708 -84.0249 653.087
-49.7708 -82.8538 653.087
-49.7224 -81.6033 652.452
-49.7708 -80.5117 653.087
-49.9167 -79.573 655
-49.9654 -78.4751 655.641
-49.9167 -77.224 655
-50.0633 -76.2729 656.925
-50.0633 -75.095 656.925
-50.0633 -73.917 656.925
-50.0633 -72.7391 656.925
-50.1124 -71.6313 657.569
-50.1124 -70.4521 657.569
-50.1124 -69.273 657.569
-50.2109 -68.2277 658.861
-50.2109 -67.0463 658.861
-50.1616 -65.8002 658.214
-50.2109 -64.6834 658.861
-50.2602 -63.5644 659.509
-50.3593 -62.5047 660.808
-50.3593 -61.3198 660.808
-50.4587 -60.2536 662.113
-50.5086 -59.1247 662.767
-50.6587 -58.1085 664.738
-50.7593 -57.0296 666.058
-50.8098 -55.8908 666.72
-50.8098 -51.1087 666.72
-51.4232 -50.5157 674.769
-51.1147 -49.0099 670.72
-50.9618 -47.6642 668.714
-50.911 -46.4189 668.048
-50.8604 -45.176 667.384
-51.0126 -44.1109 669.382
-50.9618 -42.8678 668.714
-51.0126 -41.7103 669.382
-51.0126 -40.51 669.382
-51.0126 -39.3097 669.382
-50.911 -38.0335 668.048
-54.1469 -3.50362 710.509
-54.3773 -2.23906 713.532
-54.3773 -0.959599 713.532
-54.4352 0.320207 714.292
-54.6097 1.60617 716.582
-54.844 2.90351 719.657
-54.844 4.19396 719.657
-54.903 5.4903 720.43
-55.1994 6.81875 724.32
-55.2591 8.12634 725.103
-55.2591 9.42655 725.103
-55.2591 10.7268 725.103
-55.2591 12.027 725.103
-55.2591 13.3272 725.103
-55.3189 14.6432 725.888
-55.3788 15.9621 726.674
-55.4389 17.2839 727.462
-55.5594 18.6287 729.044
-55.6804 19.9795 730.632
-55.802 21.3361 732.228
-55.863 22.6738 733.028
-56.0468 24.0671 735.439
-56.2937 25.4977 738.679
-56.4179 26.8815 740.31
-56.3557 28.1779 739.493
-56.5428 29.6018 741.947
-56.6681 31.0008 743.593
-56.7941 32.406 745.245
-56.7941 33.7424 745.245
-56.7941 35.0787 745.245
-56.7941 36.415 745.245
-56.8572 37.7933 746.074
-56.9205 39.1747 746.905
-56.9205 40.514 746.905
-56.7941 41.7603 745.245
-57.0476 43.2891 748.572
-57.5615 45.0334 755.316
-57.822 46.5977 758.734
-57.9531 48.067 760.454
-58.3501 49.7692 765.663
-58.0848 50.9096 762.182
-44.6806 134.83 586.294
-44.8374 136.358 588.351
-44.525 136.456 584.251
-44.525 137.504 584.251
-44.525 138.551 584.251
-44.4862 139.477 583.743
-44.2935 139.915 581.214
-44.2168 140.714 580.208
-44.1786 141.631 579.706
-44.0264 142.179 577.709
-43.9129 142.846 576.22
-43.8752 143.756 575.726
-43.8752 144.788 575.726
-43.6877 145.197 573.265
-43.6504 146.101 572.776
-43.6504 147.128 572.776
-43.1347 147.419 566.009
-42.9896 147.935 564.105
-42.8814 148.572 562.685
-42.6667 148.831 559.867
-42.454 149.089 557.077
-42.4188 149.963 556.615
-42.4188 150.961 556.615
-42.4188 151.959 556.615
-42.4188 152.957 556.615
-42.2785 153.446 554.773
-42.1738 154.058 553.4
-42.1043 154.795 552.488
-42.0005 155.402 551.126
-41.5566 155.715 545.301
-41.4892 156.439 544.416
-41.3884 157.032 543.093
-41.3215 157.751 542.215
-41.2215 158.339 540.904
-41.0559 158.669 538.731
-40.9245 159.124 537.006
-40.859 159.831 536.147
-40.8264 160.664 535.719
-40.2161 160.155 527.711
-40.1214 160.722 526.468
-40.1214 161.666 526.468
-40.0899 162.482 526.055
-40.0585 163.297 525.643
-40.0271 164.111 525.231
-39.9333 164.666 524
-39.9333 165.606 524
-39.8399 166.156 522.775
-39.5624 165.929 519.133
-39.5624 166.86 519.133
-39.3795 167.016 516.734
-39.2586 167.426 515.146
-39.0785 167.578 512.783
-38.8114 168.259 509.279
-38.7526 168.916 508.507
-38.6939 169.57 507.737
-38.6062 170.095 506.586
-38.6646 171.262 507.353
-38.6354 172.041 506.969
-38.1453 172.551 500.538
-38.1453 173.449 500.538
-38.1453 174.346 500.538
-37.7788 174.449 495.728
-37.723 175.079 494.997
-37.612 175.449 493.54
-37.5016 175.816 492.091
-37.4466 176.44 491.37
-37.4466 177.321 491.37
-37.3372 177.681 489.935
-37.2013 179.661 488.152
-37.0396 179.751 486.029
-36.8261 179.581 483.228
-36.8261 180.448 483.228
-36.7996 181.184 482.88
-36.6413 181.267 480.803
-36.6151 181.998 480.459
-36.6151 182.86 480.459
-36.6151 183.722 480.459
-36.3805 183.401 477.381
-36.2515 183.603 475.688
-36.2002 184.195 475.014
-36.1746 184.916 474.678
-35.8699 184.203 470.681
-35.8448 184.917 470.351
-35.8197 185.63 470.021
-35.7946 186.342 469.692
-53.211 -109.948 715.054
-53.1544 -108.55 714.292
-53.1544 -107.269 714.292
-53.0978 -105.876 713.532
-53.0978 -104.596 713.532
-52.9851 -103.097 712.017
-48.8375 -91.4968 656.282
-48.7898 -90.2317 655.641
-48.7421 -88.9691 655
-48.6471 -87.6234 653.724
-48.6471 -86.4512 653.724
-48.6471 -85.279 653.724
-48.6946 -84.1888 654.361
-48.6946 -83.0155 654.361
-48.5998 -81.6827 653.087
-48.6471 -80.5901 653.724
-48.6946 -79.4954 654.361
-48.8375 -78.5519 656.282
-48.7421 -77.224 655
-48.8854 -76.2729 656.925
-48.8854 -75.095 656.925
-48.8854 -73.917 656.925
-48.8854 -72.7391 656.925
-48.9333 -71.6313 657.569
-48.9333 -70.4521 657.569
-48.9333 -69.273 657.569
-48.9813 -68.1607 658.214
-48.9813 -66.9805 658.214
-48.9333 -65.7357 657.569
-48.9333 -64.5566 657.569
-48.9813 -63.4396 658.214
-49.0294 -62.3205 658.861
-49.0294 -61.1391 658.861
-49.3201 -60.3132 662.767
-49.4178 -59.2418 664.08
-49.6636 -58.3398 667.384
-49.6636 -55.9464 667.384
-49.5158 -52.2004 665.397
-49.4178 -50.9063 664.08
-49.5158 -49.8141 665.397
-49.4178 -48.5247 664.08
-49.3201 -47.2404 662.767
-49.3689 -46.0975 663.423
-49.6143 -45.1311 666.72
-49.6636 -43.9792 667.384
-49.7627 -42.8678 668.714
-49.7627 -41.6687 668.714
-49.7131 -40.4293 668.048
-49.7131 -39.2314 668.048
-49.7627 -38.0714 668.714
-53.0978 -3.51853 713.532
-53.211 -2.24384 715.054
-53.1544 -0.960621 714.292
-53.3247 0.321233 716.582
-53.4389 1.60961 718.116
-53.6688 2.90975 721.205
-53.6688 4.20298 721.205
-53.7844 5.50804 722.759
-54.0173 6.83351 725.888
-54.0173 8.13513 725.888
-54.0173 9.43675 725.888
-54.0173 10.7384 725.888
-54.0173 12.04 725.888
-54.0758 13.3561 726.674
-54.0758 14.6591 726.674
-54.1344 15.9794 727.462
-54.2521 17.3215 729.044
-54.3703 18.6693 730.632
-54.489 20.0231 732.228
-54.489 21.3361 732.228
-54.728 22.7484 735.439
-54.728 24.0671 735.439
-54.9691 25.4977 738.679
-55.0905 26.8815 740.31
-55.2123 28.2714 741.947
-55.0905 29.5364 740.31
-55.2123 30.9322 741.947
-55.3348 32.3342 743.593
-55.2123 33.593 741.947
-55.3348 35.0009 743.593
-55.3348 36.3343 743.593
-55.4577 37.7513 745.245
-56.2072 43.6791 755.316
-56.2072 45.0334 755.316
-56.7181 48.1762 762.182
-43.7057 137.173 587.321
-43.5152 137.623 584.761
-43.4773 138.551 584.251
-43.4395 139.477 583.743
-43.2888 140.037 581.718
-43.1764 140.714 580.208
-43.0647 141.387 578.706
-42.8429 141.691 575.726
-42.6963 142.235 573.756
-42.6963 143.264 573.756
-42.6234 144.046 572.776
-42.5507 144.826 571.799
-42.4421 145.479 570.34
-42.2983 146.005 568.407
-42.2624 146.9 567.926
-42.0843 147.295 565.532
-42.0134 148.059 564.579
-41.9781 148.946 564.105
-41.7673 149.205 561.272
-41.6975 149.96 560.335
-41.4896 150.212 557.54
-41.4896 151.212 557.54
-41.4551 152.085 557.077
-41.4551 153.084 557.077
-41.3521 153.7 555.692
-41.1815 154.058 553.4
-41.1475 154.923 552.943
-41.0123 155.402 551.126
-40.4801 155.336 543.974
-40.3818 155.932 542.654
-40.3818 156.905 542.654
-40.3492 157.751 542.215
-40.3492 158.723 542.215
-40.0256 158.415 537.867
-39.8976 158.87 536.147
-39.8658 159.703 535.719
-39.834 160.536 535.292
-39.6756 160.854 533.164
-39.1466 159.652 526.055
-39.1466 160.596 526.055
-39.1466 161.539 526.055
-39.1466 162.482 526.055
-39.1159 163.297 525.643
-39.1159 164.24 525.643
-39.0547 164.924 524.82
-38.9329 165.347 523.183
-38.8118 165.768 521.556
-38.6315 165.929 519.133
-38.6615 166.99 519.536
-38.4234 166.887 516.336
-38.276 167.169 514.356
-37.9559 167.6 510.054
-37.927 168.387 509.666
-37.8982 169.172 509.279
-37.8408 169.827 508.507
-37.7263 170.223 506.969
-37.6978 171.003 506.586
-37.2199 173.319 500.164
-36.8898 174.449 495.728
-36.8626 175.208 495.362
-36.8082 175.837 494.632
-36.754 176.464 493.903
-36.5923 176.569 491.731
-36.5923 177.451 491.731
-36.512 177.941 490.651
-36.1681 178.88 486.029
-36.0896 179.361 484.975
-35.9596 179.581 483.228
-35.9596 180.448 483.228
-35.9337 181.184 482.88
-35.8048 182.26 481.148
-35.8048 183.122 481.148
-35.8305 184.117 481.493
-35.5498 183.531 477.721
-35.3985 183.603 475.688
-35.3484 184.195 475.014
-35.3484 185.047 475.014
-35.0505 184.332 471.012
-35.0259 185.047 470.681
-34.9768 185.63 470.021
-34.9524 186.342 469.692
-48.9049 -105.961 673.414
-48.954 -104.858 674.091
-48.9049 -103.546 673.414
-51.8184 -108.435 713.532
-51.8735 -107.269 714.292
-51.8735 -105.989 714.292
-51.8184 -104.596 713.532
-51.7633 -103.207 712.774
-47.848 -91.8563 658.861
-47.801 -90.5859 658.214
-47.6607 -89.1432 656.282
-47.6141 -87.8804 655.641
-47.5676 -86.6201 655
-47.5212 -85.3622 654.361
-47.5212 -84.1888 654.361
-47.4749 -82.9346 653.724
-47.4287 -81.6827 653.087
-47.4287 -80.5117 653.087
-47.6141 -79.6508 655.641
-47.7074 -78.6289 656.925
-47.7074 -77.4509 656.925
-47.801 -76.4226 658.214
-47.801 -75.2424 658.214
-47.7542 -73.9895 657.569
-47.6141 -72.5969 655.641
-47.4749 -71.2124 653.724
-47.5212 -70.1085 654.361
-47.5212 -68.9351 654.361
-47.5676 -67.8279 655
-47.6141 -66.7186 655.641
-47.7542 -65.7357 657.569
-47.801 -64.6199 658.214
-47.7542 -63.3775 657.569
-47.848 -62.3205 658.861
-47.895 -61.1992 659.509
-48.1793 -60.3728 663.423
-48.1317 -59.1247 662.767
-48.4187 -58.2818 666.72
-48.4669 -57.1431 667.384
-48.4187 -55.8908 666.72
-48.1793 -52.0455 663.423
-48.1317 -50.8057 662.767
-48.1317 -49.6172 662.767
-48.1793 -48.4767 663.423
-48.1793 -47.2871 663.423
-48.227 -46.1431 664.08
-48.4669 -45.176 667.384
-48.4669 -43.9792 667.384
-48.4669 -42.7825 667.384
-48.1317 -40.1097 662.767
-48.0842 -38.8829 662.113
-48.0367 -37.6584 661.46
-52.0398 -2.24863 716.582
-51.9288 -0.961645 715.054
-51.9288 0.320548 715.054
-52.0398 1.60617 716.582
-52.2631 2.90351 719.657
-52.3193 4.19846 720.43
-52.4884 5.50804 722.759
-52.7156 6.83351 725.888
-52.6587 8.12634 725.103
-52.7156 9.43675 725.888
-52.7156 10.7384 725.888
-52.7156 12.04 725.888
-52.7728 13.3561 726.674
-52.7728 14.6591 726.674
-52.9448 16.0142 729.044
-53.0602 17.3592 730.632
-53.1181 18.6897 731.429
-53.176 20.0231 732.228
-53.2342 21.3594 733.028
-53.2924 22.6986 733.83
-53.4093 24.0671 735.439
-53.4093 25.3859 735.439
-53.6446 26.8223 738.679
-53.8819 28.2714 741.947
-53.763 29.5364 740.31
-53.763 30.8639 740.31
-53.8819 32.2626 741.947
-54.1214 35.0787 745.245
-54.1214 36.415 745.245
-55.3514 44.0761 762.182
-55.3514 45.4428 762.182
-55.6042 47.0233 765.663
-55.6042 48.3962 765.663
-55.6042 49.7692 765.663
-42.69 137.293 587.836
-42.4667 137.623 584.761
-42.4297 138.551 584.251
-42.2823 139.114 582.223
-42.1725 139.794 580.71
-42.0996 140.592 579.706
-42.027 141.387 578.706
-41.8824 141.935 576.716
-41.7747 142.601 575.232
-41.6675 143.264 573.756
-41.5608 143.924 572.287
-41.49 144.703 571.312
-41.3491 145.232 569.372
-41.279 146.005 568.407
-41.2092 146.776 567.445
-41.2441 147.919 567.926
-41.1049 148.434 566.009
-40.6928 147.951 560.335
-40.6588 148.831 559.867
-40.6249 149.71 559.4
-40.4898 150.212 557.54
-40.4898 151.212 557.54
-40.4562 152.085 557.077
-40.4562 153.084 557.077
-40.2889 153.446 554.773
-40.156 153.931 552.943
-39.9584 154.16 550.222
-39.9256 155.02 549.771
-39.5047 155.336 543.974
-39.4407 156.059 543.093
-39.1553 155.896 539.164
-39.1869 156.989 539.598
-39.1553 157.83 539.164
-39.0612 158.415 537.867
-38.9363 158.87 536.147
-38.9052 159.703 535.719
-38.8431 160.408 534.865
-38.6581 160.598 532.318
-38.2634 159.903 526.882
-38.2634 160.848 526.882
-38.2033 161.539 526.055
-38.1734 162.355 525.643
-38.1734 163.297 525.643
-38.1435 164.111 525.231
-38.1137 164.924 524.82
-38.0839 165.735 524.41
-37.9651 166.156 522.775
-37.9651 167.093 522.775
-37.9356 167.9 522.368
-37.4975 166.887 516.336
-37.4399 167.555 515.542
-37.2965 167.834 513.568
-37.2395 168.497 512.783
-37.126 168.9 511.22
-37.0131 169.301 509.666
-36.9569 169.956 508.893
-36.8451 170.352 507.353
-36.7895 171.003 506.586
-35.5542 168.773 489.577
-35.6844 170.272 491.37
-35.7106 171.279 491.731
-35.9478 175.079 494.997
-35.9213 175.837 494.632
-35.8948 176.594 494.267
-35.763 176.828 492.453
-35.7368 177.581 492.091
-35.5024 177.293 488.863
-35.271 178.75 485.677
-35.22 179.361 484.975
-35.1438 179.841 483.925
-35.1438 180.708 483.925
-35.1184 181.445 483.576
-34.6439 183.27 477.042
-34.5211 183.473 475.351
-34.4722 184.065 474.678
-34.3023 184.004 472.338
-34.254 185.437 471.674
-34.2059 186.021 471.012
-34.134 186.473 470.021
-48.0349 -110.359 678.18
-47.9864 -109.032 677.495
-47.8414 -107.492 675.449
-47.8414 -106.281 675.449
-47.7933 -104.964 674.769
-47.8897 -103.963 676.129
-50.5389 -108.435 713.532
-50.5389 -107.155 713.532
-50.5927 -105.989 714.292
-50.5389 -104.596 713.532
-47.1295 -92.7676 665.397
-46.5751 -89.318 657.569
-46.4839 -87.9664 656.282
-46.4385 -86.7047 655.641
-46.3931 -85.4456 655
-46.3027 -84.1068 653.724
-46.3027 -82.9346 653.724
-46.2576 -81.6827 653.087
-46.2576 -80.5117 653.087
-46.5294 -73.917 656.925
-46.4839 -72.6679 656.282
-46.5751 -64.5566 657.569
-46.5751 -63.3775 657.569
-46.6666 -62.3205 658.861
-46.7124 -61.1992 659.509
-46.8045 -58.95 660.808
-47.1295 -58.1662 665.397
-47.2702 -57.1431 667.384
-47.2702 -55.9464 667.384
-47.2232 -54.6952 666.72
-47.2702 -53.553 667.384
-47.1295 -52.2004 665.397
-46.9897 -50.8559 663.423
-46.9432 -49.6172 662.767
-46.9432 -48.4288 662.767
-46.9432 -47.2404 662.767
-46.8969 -46.0065 662.113
-46.9432 -44.8635 662.767
-47.0362 -43.7615 664.08
-47.0362 -42.5707 664.08
-47.1295 -41.462 665.397
-46.9897 -37.7702 663.423
-47.2232 -12.8519 666.72
-50.7549 -0.9637 716.582
-50.7549 0.321233 716.582
-50.7549 1.60617 716.582
-51.0823 2.90975 721.205
-51.1924 4.21203 722.759
-51.1924 5.50804 722.759
-51.303 6.81875 724.32
-51.414 8.13513 725.888
-51.414 9.43675 725.888
-47.6495 9.95211 672.739
-47.6495 11.1584 672.739
-47.6495 12.3647 672.739
-47.6018 13.5575 672.065
-47.5541 14.7478 671.392
-47.6495 15.9837 672.739
-47.6018 17.1728 672.065
-47.6018 18.3779 672.065
-51.9765 21.3828 733.83
-52.32 24.1732 738.679
-52.32 25.4977 738.679
-53.7405 43.8767 758.734
-53.9847 45.4428 762.182
-41.6724 137.413 588.351
-41.4181 137.623 584.761
-41.346 138.431 583.743
-41.1669 138.873 581.214
-41.1312 139.794 580.71
-41.0601 140.592 579.706
-40.9893 141.387 578.706
-40.9187 142.179 577.709
-40.6734 142.357 574.247
-40.6039 143.142 573.265
-40.5346 143.924 572.287
-40.4311 144.58 570.826
-40.3281 145.232 569.372
-40.2598 146.005 568.407
-40.1917 146.776 567.445
-40.2598 148.044 568.407
-40.0224 148.184 565.055
-39.688 147.951 560.335
-39.688 148.956 560.335
-39.6218 149.71 559.4
-39.4901 150.212 557.54
-39.4573 151.086 557.077
-39.4573 152.085 557.077
-39.4245 152.957 556.615
-39.2941 153.446 554.773
-39.1968 154.058 553.4
-39.0037 154.287 550.674
-38.8761 154.766 548.871
-38.4357 153.986 542.654
-38.4357 154.959 542.654
-38.4357 155.932 542.654
-38.1885 155.896 539.164
-38.1885 156.863 539.164
-38.1579 157.703 538.731
-38.0357 158.161 537.006
-37.9749 158.87 536.147
-37.9445 159.703 535.719
-37.8538 160.28 534.439
-37.7036 160.598 532.318
-37.26 159.652 526.055
-37.2893 160.722 526.468
-37.26 161.539 526.055
-37.26 162.482 526.055
-37.2893 163.554 526.468
-37.3479 164.756 527.296
-37.2308 165.182 525.643
-37.2017 165.995 525.231
-37.0855 166.415 523.591
-36.9701 166.833 521.961
-36.8268 167.119 519.938
-36.5716 166.887 516.336
-36.5435 167.684 515.939
-36.4874 168.35 515.146
-36.3478 168.626 513.176
-36.32 169.417 512.783
-36.2093 169.817 511.22
-36.0992 170.215 509.666
-36.0444 170.869 508.893
-35.9354 171.262 507.353
-35.9082 172.041 506.969
-34.6258 168.527 488.863
-34.7016 169.775 489.935
-34.9313 171.782 493.177
-35.0343 173.176 494.632
-35.0602 174.191 494.997
-35.0343 174.95 494.632
-35.0085 175.707 494.267
-34.9827 176.464 493.903
-34.957 177.219 493.54
-34.8544 177.581 492.091
-34.6763 177.552 489.577
-34.4001 178.75 485.677
-34.3504 179.361 484.975
-34.3008 180.839 484.275
-34.2513 181.445 483.576
-33.6449 183.343 475.014
-33.6211 184.065 474.678
-33.5498 184.524 473.673
-33.4553 184.851 472.338
-33.4553 185.698 472.338
-33.4318 186.414 472.006
-33.2912 186.473 470.021
-46.8663 -111.688 678.867
-46.8189 -110.359 678.18
-46.7716 -109.032 677.495
-46.8189 -107.927 678.18
-46.8189 -106.711 678.18
-46.8189 -105.494 678.18
-46.9137 -104.49 679.555
-46.8663 -103.167 678.867
-46.4432 -97.4101 672.739
-46.3502 -96.0111 671.392
-46.1654 -94.4291 668.714
-46.1194 -93.1372 668.048
-45.3515 -89.2305 656.925
-45.1745 -87.7089 654.361
-45.2628 -86.7047 655.641
-45.2186 -85.4456 655
-45.1305 -84.1068 653.724
-45.0865 -82.8538 653.087
-45.0865 -81.6827 653.087
-45.0427 -80.4333 652.452
-45.3515 -64.4933 656.925
-45.3959 -63.3775 657.569
-45.4405 -62.2594 658.214
-45.4405 -61.0791 658.214
-45.5299 -60.0166 659.509
-45.3959 -58.661 657.569
-46.0735 -57.1431 667.384
-46.1194 -53.6063 668.048
-45.982 -52.2523 666.058
-45.8001 -50.8559 663.423
-45.7548 -49.6172 662.767
-45.7548 -48.4288 662.767
-45.7096 -47.1937 662.113
-45.3959 -45.6907 657.569
-45.7548 -43.675 662.767
-45.8001 -42.5286 663.423
-45.7096 -40.0701 662.113
-45.7548 -38.9213 662.767
-45.7096 -37.6956 662.113
-45.9364 -14.0195 665.397
-45.9364 -12.8264 665.397
-46.0277 -11.6564 666.72
-45.7548 -10.3988 662.767
-49.6823 2.90351 719.657
-49.8964 4.21203 722.759
-49.8964 5.50804 722.759
-50.1124 6.83351 725.888
-50.1124 8.13513 725.888
-46.8663 8.82546 678.867
-46.6773 10.0023 676.129
-46.5365 11.1809 674.091
-46.4898 12.3772 673.414
-46.4432 13.5711 672.739
-46.3967 14.7626 672.065
-46.3967 15.9677 672.065
-46.3039 17.1384 670.72
-46.3039 18.3411 670.72
-46.3967 19.583 672.065
-46.4432 20.809 672.739
-46.3967 21.9932 672.065
-46.3039 23.1519 670.72
-46.3967 24.4034 672.065
-52.618 44.0761 762.182
-52.618 45.4428 762.182
-52.8583 47.0233 765.663
-52.8583 48.3962 765.663
-52.8583 49.7692 765.663
-52.8583 51.1421 765.663
-40.8323 137.08 591.464
-40.5463 137.173 587.321
-40.3695 137.623 584.761
-40.3344 138.551 584.251
-40.1247 138.873 581.214
-40.0899 139.794 580.71
-40.0206 140.592 579.706
-39.9861 141.509 579.206
-39.8484 142.057 577.212
-39.6777 142.479 574.739
-39.576 143.142 573.265
-39.4747 143.801 571.799
-39.4075 144.58 570.826
-39.3072 145.232 569.372
-39.2738 146.129 568.889
-39.2073 146.9 567.926
-39.042 148.309 565.532
-38.7156 148.075 560.803
-38.6833 148.956 560.335
-38.651 149.835 559.867
-38.4903 150.212 557.54
-38.4584 151.086 557.077
-38.4264 151.959 556.615
-38.3946 152.83 556.153
-38.2677 153.319 554.314
-38.2045 154.058 553.4
-38.0788 154.541 551.579
-37.8299 154.513 547.974
-37.6148 154.612 544.858
-37.5234 155.21 543.534
-37.493 156.059 543.093
-37.3418 156.399 540.904
-37.2517 156.989 539.598
-37.2218 157.83 539.164
-37.1322 158.415 537.867
-37.0135 158.87 536.147
-36.9839 159.703 535.719
-36.8955 160.28 534.439
-36.7491 160.598 532.318
-36.4024 160.029 527.296
-36.431 161.101 527.711
-36.3738 161.793 526.882
-36.3738 162.737 526.882
-36.4597 164.069 528.126
-36.4885 165.146 528.542
-36.2883 165.182 525.643
-36.2883 166.125 525.643
-36.0622 166.027 522.368
-35.9502 166.445 520.746
-35.8389 166.86 519.133
-35.7283 167.273 517.531
-35.6184 167.684 515.939
-35.5636 168.35 515.146
-35.4547 168.755 513.568
-35.4276 169.546 513.176
-35.4005 170.336 512.783
-35.2389 170.474 510.442
-35.1853 171.129 509.666
-35.0256 171.262 507.353
-34.9991 172.041 506.969
-34.1726 171.529 494.997
-34.1474 172.289 494.632
-34.1978 173.432 495.362
-34.1726 174.191 494.997
-34.1726 175.079 494.997
-34.1474 175.837 494.632
-34.1222 176.594 494.267
-34.0219 176.958 492.814
-33.9471 177.451 491.731
-33.7738 177.422 489.22
-33.4324 179.102 484.275
-33.3842 179.711 483.576
-33.3842 180.578 483.576
-33.3842 181.445 483.576
-32.8629 183.734 476.026
-32.7931 184.195 475.014
-32.7005 184.524 473.673
-32.6084 184.851 472.338
-32.6084 185.698 472.338
-32.5854 186.414 472.006
-32.5168 186.866 471.012
-45.4191 -112.337 675.449
-45.4191 -111.125 675.449
-45.4191 -109.914 675.449
-45.5108 -108.922 676.812
-45.5567 -107.818 677.495
-45.5567 -106.603 677.495
-45.4649 -105.175 676.129
-45.3734 -103.754 674.769
-45.6028 -103.062 678.18
-45.2823 -101.13 673.414
-45.2369 -98.6164 672.739
-45.2369 -97.4101 672.739
-45.1915 -96.1074 672.065
-45.0561 -94.6178 670.05
-45.0111 -93.3231 669.382
-44.9215 -91.9393 668.048
-44.0441 -88.9691 655
-43.9154 -87.5381 653.087
-44.0011 -86.5356 654.361
-43.9582 -85.279 653.724
-43.9154 -84.0249 653.087
-43.9154 -82.8538 653.087
-43.8727 -81.6033 652.452
-43.8727 -80.4333 652.452
-44.1735 -64.4933 656.925
-44.2168 -63.3775 657.569
-44.2602 -62.2594 658.214
-44.3037 -61.1391 658.861
-44.4346 -60.1349 660.808
-44.3037 -58.7762 658.861
-44.8768 -57.1431 667.384
-44.9663 -53.6597 668.714
-44.7432 -52.2004 665.397
-44.6104 -50.8559 663.423
-44.5224 -49.5682 662.113
-44.4785 -48.3333 661.46
-44.3473 -47.0081 659.509
-44.2168 -45.6907 657.569
-44.1303 -44.4245 656.282
-43.9582 -43.0791 653.724
-44.2168 -42.1534 657.569
-44.3037 -41.0548 658.861
-44.4785 -40.0306 661.46
-44.5224 -38.8829 662.113
-44.5224 -37.6956 662.113
-44.8322 -14.0474 666.72
-44.9215 -12.8775 668.048
-44.9215 -11.6796 668.048
-44.7432 -10.4401 665.397
-44.9215 -9.28377 668.048
-48.6004 2.91602 722.759
-48.6004 4.21203 722.759
-48.6004 5.50804 722.759
-48.3918 6.77485 719.657
-48.6004 8.10007 722.759
-45.6489 10.0428 678.867
-45.2823 11.1696 673.414
-45.1915 12.3524 672.065
-45.0561 13.5168 670.05
-45.0561 14.7183 670.05
-45.1463 15.9517 671.392
-45.0111 17.1042 669.382
-44.9663 18.2863 668.714
-45.0111 19.5048 669.382
-45.1463 20.7673 671.392
-45.1012 21.9492 670.72
-45.1915 23.1983 672.065
-45.2369 24.4279 672.739
-45.2369 25.6342 672.739
-45.2369 26.8405 672.739
-45.1012 27.9627 670.72
-51.4853 45.6503 765.663
