ply
format ascii 1.0
element vertex 1926
property float x
property float y
property float z
end_header
-292.762 -49.9925 802.297
-290.676 -48.2079 796.58
-290.331 -46.724 795.635
-289.644 -45.1901 793.752
-287.602 -43.4582 788.156
-287.264 -41.9956 787.231
-288.619 -40.7754 790.944
-285.922 -38.9893 783.552
-284.592 -37.4095 779.907
-284.592 -36.011 779.907
-284.592 -34.6125 779.907
-281.644 -32.87 771.83
-280.354 -31.3418 768.294
-279.394 -29.8615 765.663
-278.44 -28.3913 763.049
-276.553 -26.8399 757.876
-275.929 -25.4234 756.167
-275.308 -24.0134 754.466
-274.69 -22.6096 752.773
-274.382 -21.236 751.929
-274.075 -19.8654 751.087
-272.853 -18.436 747.737
-271.943 -17.0382 745.245
-271.943 -15.7019 745.245
-270.74 -14.302 741.947
-269.251 -12.9002 737.866
-267.485 -11.5012 733.028
-267.193 -10.1757 732.228
-266.611 -8.84336 730.632
-266.321 -7.52504 729.837
-265.167 -6.1894 726.674
-263.738 -4.86004 722.759
-264.593 -3.57559 725.103
-263.738 -0.972008 722.759
-262.325 0.322266 718.886
-262.325 1.61133 718.886
-260.926 2.88494 715.054
-260.095 4.15384 712.774
-258.447 5.39753 708.258
-257.902 6.65349 706.765
-256.282 7.87106 702.325
-255.479 9.10183 700.126
-255.213 10.3465 699.396
-255.479 11.6127 700.126
-255.479 12.8681 700.126
-251.799 15.1575 690.042
-251.541 16.3779 689.332
-250.255 17.524 685.808
-249.489 18.6964 683.711
-247.973 19.8013 679.555
-247.471 20.9773 678.18
-245.732 22.0374 673.414
-245.732 23.2449 673.414
-244.017 24.2818 668.714
-243.531 25.4302 667.384
-243.531 26.6269 667.384
-243.289 27.7959 666.72
-243.048 28.9627 666.058
-242.326 30.0674 664.08
-241.847 31.1965 662.767
-240.421 32.194 658.861
-239.95 33.31 657.569
-238.547 34.2874 653.724
-237.851 35.3563 651.818
-237.851 36.5251 651.818
-237.39 37.6208 650.553
-236.93 38.7122 649.294
-236.472 39.7994 648.039
-236.244 40.9219 647.414
-236.016 42.0422 646.789
-235.336 43.0774 644.923
-234.21 44.0222 641.838
-233.539 45.0438 640
-232.43 45.9721 636.961
-231.77 46.9804 635.152
-231.113 47.983 633.353
-230.027 48.8879 630.376
-228.951 49.7843 627.428
-228.951 50.9093 627.428
-227.673 51.744 623.926
-227.251 52.7646 622.767
-225.992 53.5828 619.317
-225.575 54.5925 618.175
-224.335 55.3946 614.776
-224.129 56.4453 614.213
-224.129 57.5467 614.213
-223.108 58.3807 611.413
-222.499 59.3149 609.746
-222.297 60.3534 609.192
-219.309 60.6198 601.004
-218.917 61.5872 599.929
-217.942 62.3839 597.258
-217.942 63.4549 597.258
-217.748 64.4685 596.726
-217.361 65.4221 595.666
-214.692 66.7286 588.351
-214.129 67.6057 586.807
-213.568 68.4782 585.271
-213.382 69.4671 584.761
-213.196 70.4542 584.251
-213.382 71.5642 584.761
-213.382 72.6127 584.761
-213.196 73.5971 584.251
-209.009 75.2328 572.776
-209.009 76.2599 572.776
-208.83 77.221 572.287
-209.009 78.314 572.776
-208.83 79.2734 572.287
-208.297 80.0945 570.826
-207.239 80.706 567.926
-206.714 81.5173 566.487
-206.018 82.2552 564.579
-205.499 83.0578 563.157
-205.154 83.9267 562.213
-205.154 84.9349 562.213
-204.811 85.7991 561.272
-204.811 86.8056 561.272
-204.811 87.812 561.272
-204.811 88.8185 561.272
-204.64 89.7498 560.803
-203.788 90.3776 558.468
-202.943 91.0001 556.153
-201.274 91.2408 551.579
-200.778 92.0029 550.222
-200.614 92.9133 549.771
-200.614 93.8991 549.771
-200.45 94.8073 549.321
-199.958 95.5575 547.974
-199.469 96.304 546.634
-197.857 98.4423 542.215
-197.378 99.1741 540.904
-197.219 100.063 540.468
-197.06 100.951 540.033
-194.091 101.338 531.896
-194.091 102.291 531.896
-194.091 103.245 531.896
-194.091 104.199 531.896
-193.477 104.82 530.214
-192.868 105.437 528.542
-192.868 106.385 528.542
-192.564 107.164 527.711
-191.21 108.29 524
-190.614 108.889 522.368
-190.17 109.57 521.15
-189.875 110.333 520.342
-189.434 111.007 519.133
-189.288 111.852 518.732
-189.141 112.695 518.331
-188.413 113.187 516.336
-187.404 113.501 513.568
-186.974 114.16 512.391
-186.546 114.815 511.22
-186.404 115.644 510.831
-186.546 116.649 511.22
-186.121 117.297 510.054
-185.838 118.032 509.279
-185.135 118.496 507.353
-184.856 119.225 506.586
-183.884 119.502 503.922
-183.333 120.045 502.412
-182.648 120.494 500.538
-182.648 121.392 500.538
-182.512 122.198 500.164
-182.376 123.003 499.792
-181.699 123.439 497.936
-181.699 124.332 497.936
-180.627 125.373 494.997
-180.095 125.889 493.54
-179.83 126.588 492.814
-179.698 127.378 492.453
-177.483 127.552 486.382
-176.587 128.644 483.925
-176.332 129.325 483.228
-176.332 130.191 483.228
-176.332 131.058 483.228
-176.205 131.829 482.88
-176.078 132.6 482.533
-175.952 133.369 482.186
-176.078 134.33 482.533
-176.078 135.195 482.533
-175.825 135.865 481.839
-175.825 136.729 481.839
-170.914 136.269 468.38
-171.393 137.493 469.692
-171.393 138.336 469.692
-171.513 139.275 470.021
-171.513 140.118 470.021
-171.513 140.961 470.021
-171.513 141.804 470.021
-171.393 142.547 469.692
-171.153 143.188 469.035
-169.494 142.633 464.488
-169.494 143.466 464.488
-169.494 144.299 464.488
-169.142 144.831 463.525
-168.676 145.26 462.247
-168.56 145.989 461.929
-167.636 146.836 459.398
-167.522 147.559 459.083
-168.097 148.892 460.66
-168.097 149.718 460.66
-166.609 149.211 456.583
-166.157 149.623 455.343
-164.814 149.224 451.664
-164.592 149.832 451.056
-164.592 150.641 451.056
-164.592 151.449 451.056
-164.371 152.054 450.45
-164.041 152.554 449.545
-163.275 152.644 447.445
-162.84 153.038 446.254
-162.516 153.532 445.365
-162.624 154.433 445.661
-162.516 155.129 445.365
-162.408 155.824 445.07
-162.408 156.622 445.07
-160.596 155.664 440.105
-160.491 156.351 439.817
-160.176 156.831 438.953
-159.654 157.104 437.521
-159.862 158.095 438.093
-159.862 158.88 438.093
-159.654 159.457 437.521
-159.55 160.138 437.236
-159.446 160.817 436.951
-158.825 160.971 435.25
-158.516 161.437 434.404
-158.209 161.902 433.562
-158.107 162.574 433.282
-157.801 163.035 432.444
-156.689 163.427 429.398
-156.489 163.987 428.849
-155.693 163.917 426.667
-155.693 164.682 426.667
-154.416 164.849 423.167
-154.318 165.504 422.901
-154.124 166.053 422.368
-153.448 166.078 420.514
-153.351 166.727 420.251
-296.285 -56.6965 815.962
-294.85 -54.9659 812.01
-294.494 -53.4451 811.028
-293.783 -51.8654 809.072
-290.975 -49.9328 801.339
-288.904 -48.1507 795.635
-288.562 -46.6687 794.692
-288.22 -45.1901 793.752
-287.54 -43.6635 791.878
-286.863 -42.144 790.012
-287.88 -40.8718 792.814
-285.852 -39.1724 787.231
-285.517 -37.7165 786.308
-285.183 -36.264 785.387
-277.388 -28.4237 763.918
-275.194 -26.8399 757.876
-274.883 -25.4521 757.021
-274.264 -24.0404 755.316
-273.647 -22.635 753.618
-273.034 -21.236 751.929
-273.034 -19.8877 751.929
-270.908 -18.395 746.074
-270.607 -17.0382 745.245
-270.007 -15.6671 743.593
-268.815 -14.2704 740.31
-268.223 -12.9144 738.679
-266.754 -11.5264 734.634
-266.462 -10.1979 733.83
-266.171 -8.87236 733.028
-265.88 -7.54969 732.228
-264.724 -6.20958 729.044
-262.442 -4.86004 722.759
-261.878 -3.55636 721.205
-263.009 -2.27292 724.32
-261.596 -0.968876 720.43
-261.036 0.322266 718.886
-261.596 1.61479 720.43
-261.316 2.90351 719.657
-258.268 4.14503 711.262
-257.177 5.39753 708.258
-255.826 6.63252 704.538
-255.022 7.87106 702.325
-254.489 9.11135 700.857
-254.489 10.3681 700.857
-254.756 11.637 701.59
-254.489 12.8816 700.857
-250.305 15.1419 689.332
-249.791 16.3444 687.918
-248.77 17.5061 685.108
-248.263 18.6964 683.711
-246.754 19.8013 679.555
-246.255 20.9773 678.18
-244.77 22.0595 674.091
-244.524 23.2449 673.414
-244.034 24.4034 672.065
-242.818 25.4809 668.714
-242.335 26.6269 667.384
-242.094 27.7959 666.72
-241.853 28.9627 666.058
-241.135 30.0674 664.08
-240.421 31.1657 662.113
-239.24 32.194 658.861
-238.771 33.31 657.569
-237.838 34.3544 655
-236.913 35.3907 652.452
-236.913 36.5606 652.452
-236.913 37.7305 652.452
-236.682 38.8627 651.818
-236.223 39.9538 650.553
-235.766 41.0407 649.294
-234.63 42.0017 646.166
-233.282 42.9123 642.452
-232.391 43.8962 640
-232.836 45.1299 641.224
-229.328 45.5825 631.564
-228.897 46.6271 630.376
-227.826 47.5341 627.428
-227.613 48.6137 626.842
-226.766 49.5525 624.507
-226.977 50.7195 625.089
-226.555 51.744 623.926
-226.344 52.8136 623.346
-225.924 53.8313 622.19
-224.881 54.6933 619.317
-222.824 55.2933 613.651
-222.214 56.2393 611.971
-222.214 57.3366 611.971
-221.406 58.2215 609.746
-221.205 59.261 609.192
-221.004 60.2986 608.639
-218.036 60.5656 600.466
-217.841 61.5872 599.929
-216.871 62.3839 597.258
-216.678 63.3984 596.726
-216.678 64.4685 596.726
-213.45 66.6701 587.836
-212.89 67.5466 586.294
-212.148 68.3589 584.251
-212.148 69.4065 584.251
-211.964 70.3929 583.743
-211.779 71.3775 583.235
-211.779 72.4233 583.235
-211.779 73.4691 583.235
-208.516 73.3666 574.247
-208.159 74.2691 573.265
-207.627 75.1045 571.799
-207.45 76.065 571.312
-207.097 76.9583 570.34
-207.097 77.981 570.34
-207.097 79.0037 570.34
-204.317 78.9523 562.685
-204.833 80.163 564.105
-204.833 81.1745 564.105
-205.005 82.2552 564.579
-204.489 83.0578 563.157
-203.804 83.7863 561.272
-203.804 84.7927 561.272
-203.634 85.7274 560.803
-203.634 86.733 560.803
-203.294 87.5921 559.867
-203.294 88.5961 559.867
-202.618 89.3018 558.004
-201.611 89.8539 555.232
-200.946 90.5496 553.4
-200.78 91.4665 552.943
-200.12 92.1541 551.126
-200.12 93.1424 551.126
-200.285 94.208 551.579
-199.956 95.0408 550.674
-199.628 95.8708 549.771
-199.465 96.7773 549.321
-197.203 98.6017 543.093
-196.567 99.2541 541.34
-196.25 100.063 540.468
-195.934 100.87 539.598
-195.149 101.429 537.436
-193.291 101.418 532.318
-192.375 101.887 529.795
-192.223 102.756 529.377
-192.223 103.705 529.377
-192.223 104.655 529.377
-192.071 105.521 528.959
-190.718 108.544 525.231
-189.678 108.889 522.368
-189.53 109.74 521.961
-189.383 110.59 521.556
-188.649 111.093 519.536
-188.503 111.938 519.133
-188.503 112.869 519.133
-187.922 113.449 517.531
-186.626 113.588 513.962
-186.055 114.16 512.391
-185.771 114.903 511.61
-185.63 115.732 511.22
-185.488 116.56 510.831
-185.206 117.297 510.054
-185.066 118.122 509.666
-184.226 118.496 507.353
-183.67 119.045 505.822
-182.843 119.412 503.544
-182.432 120.045 502.412
-181.887 120.584 500.911
-181.751 121.392 500.538
-181.615 122.198 500.164
-181.615 123.095 500.164
-181.48 123.899 499.792
-180.806 124.332 497.936
-179.872 124.578 495.362
-179.739 125.373 494.997
-179.474 126.075 494.267
-179.474 126.961 494.267
-179.474 127.848 494.267
-176.355 127.368 485.677
-176.355 128.238 485.677
-176.1 128.923 484.975
-175.846 129.605 484.275
-175.466 131.924 483.228
-175.339 132.695 482.88
-175.339 133.561 482.88
-175.339 134.427 482.88
-175.339 135.293 482.88
-174.585 135.573 480.803
-171.996 134.412 473.673
-171.632 135.823 472.671
-170.312 137.301 469.035
-170.193 138.045 468.707
-170.551 139.178 469.692
-170.551 140.02 469.692
-170.551 140.862 469.692
-170.551 141.704 469.692
-170.551 142.547 469.692
-169.719 142.689 467.401
-169.247 143.129 466.102
-168.895 143.665 465.132
-168.778 144.399 464.81
-168.544 145.031 464.166
-168.079 145.461 462.885
-166.813 146.836 459.398
-166.584 147.458 458.769
-165.678 148.292 456.272
-165.791 149.211 456.583
-165.116 149.42 454.726
-164.004 149.224 451.664
-163.674 149.731 450.753
-163.564 150.438 450.45
-163.564 151.246 450.45
-163.344 151.85 449.846
-163.235 152.554 449.545
-162.907 153.052 448.642
-161.932 152.936 445.958
-161.717 153.532 445.365
-161.932 154.535 445.958
-161.932 155.335 445.958
-161.61 155.824 445.07
-161.076 156.104 443.598
-160.439 156.279 441.845
-159.912 156.556 440.394
-159.807 157.242 440.105
-158.869 157.104 437.521
-158.973 157.991 437.807
-158.973 158.777 437.807
-158.765 159.354 437.236
-158.559 159.929 436.667
-157.431 161.124 433.562
-157.127 161.588 432.723
-156.521 161.738 431.054
-155.92 161.887 429.398
-155.92 162.657 429.398
-155.72 163.218 428.849
-155.621 163.882 428.575
-155.026 164.022 426.939
-154.928 164.682 426.667
-153.463 164.642 422.634
-153.367 165.295 422.368
-153.174 165.844 421.837
-152.885 166.286 421.042
-152.789 166.937 420.778
-295.181 -56.7656 816.955
-294.106 -55.0993 813.981
-292.685 -53.3806 810.049
-290.58 -51.5545 804.221
-289.885 -49.9925 802.297
-289.538 -48.4959 801.339
-288.848 -46.9468 799.428
-288.504 -45.4591 798.477
-287.137 -43.8187 794.692
-286.458 -42.2934 792.814
-286.458 -40.8718 792.814
-284.441 -39.1724 787.231
-284.775 -37.8051 788.156
-284.775 -36.3918 788.156
-276.648 -29.8615 765.663
-274.144 -28.2307 758.734
-273.525 -26.8096 757.021
-273.525 -25.4521 757.021
-273.217 -24.0675 756.167
-272.602 -22.6605 754.466
-271.991 -21.2598 752.773
-271.686 -19.8877 751.929
-269.87 -18.4155 746.905
-269.57 -17.0572 746.074
-268.972 -15.6845 744.418
-267.487 -14.2704 740.31
-266.898 -12.9144 738.679
-266.605 -11.5771 737.866
-266.605 -10.254 737.866
-265.437 -8.8918 734.634
-265.146 -7.5662 733.83
-264.856 -6.24351 733.028
-260.865 -4.85481 721.981
-260.584 -3.55636 721.205
-261.146 -2.26802 722.759
-260.305 -0.968876 720.43
-259.747 0.322266 718.886
-260.305 1.61479 720.43
-255.637 4.12317 707.511
-254.029 5.35793 703.061
-253.497 6.60477 701.59
-253.497 7.86282 701.59
-253.233 9.11135 700.857
-253.233 10.3681 700.857
-253.497 11.637 701.59
-253.233 12.8816 700.857
-248.558 15.1108 687.918
-248.049 16.3109 686.51
-247.542 17.5061 685.108
-247.289 18.7154 684.409
-246.535 19.8818 682.32
-245.536 21.0198 679.555
-244.544 22.1486 676.812
-243.806 23.2917 674.769
-243.317 24.4524 673.414
-243.073 25.6342 672.739
-241.378 26.6534 668.048
-241.138 27.8236 667.384
-240.898 28.9915 666.72
-240.42 30.1271 665.397
-239.47 31.1965 662.767
-238.998 32.321 661.46
-238.762 33.4741 660.808
-237.127 34.4216 656.282
-235.285 35.3219 651.185
-234.829 36.4189 649.923
-234.602 37.5479 649.294
-234.375 38.6748 648.666
-233.922 39.761 647.414
-233.922 40.9219 647.414
-233.023 41.9209 644.923
-231.244 42.7486 640
-230.146 43.6877 636.961
-230.146 44.8299 636.961
-228.411 45.6254 632.159
-227.767 46.6271 630.376
-226.701 47.5341 627.428
-226.067 48.523 625.672
-225.226 49.4604 623.346
-225.436 50.6252 623.926
-225.436 51.744 623.926
-225.226 52.8136 623.346
-224.809 53.8313 622.19
-224.392 54.8452 621.037
-221.521 55.2427 613.09
-221.318 56.2906 612.53
-221.521 57.4415 613.09
-220.513 58.2745 610.301
-220.312 59.3149 609.746
-219.514 60.1894 607.537
-216.378 60.4033 598.858
-215.608 61.2584 596.726
-215.417 62.273 596.196
-215.225 63.2858 595.666
-214.844 64.2398 594.61
-212.396 65.6161 587.836
-211.654 66.4372 585.782
-211.285 67.3699 584.761
-211.285 68.4185 584.761
-211.285 69.4671 584.761
-211.101 71.5018 584.251
-206.074 72.8675 570.34
-206.778 74.1424 572.287
-206.778 75.1686 572.287
-206.602 76.1298 571.799
-206.074 76.9583 570.34
-206.074 77.981 570.34
-206.074 79.0037 570.34
-205.376 79.7552 568.407
-204.682 80.5015 566.487
-203.993 81.2428 564.579
-203.821 82.186 564.105
-203.138 82.9186 562.213
-202.798 83.7863 561.272
-202.798 84.7927 561.272
-202.628 85.7274 560.803
-202.628 86.733 560.803
-201.449 87.2281 557.54
-201.282 88.1545 557.077
-200.948 89.0056 556.153
-199.953 89.5573 553.4
-200.119 90.6244 553.857
-199.953 91.542 553.4
-199.789 92.458 552.943
-199.789 93.4495 552.943
-199.953 94.5189 553.4
-199.953 95.5113 553.4
-199.296 96.1861 551.579
-199.296 97.1752 551.579
-198.968 98.0031 550.674
-196.071 98.522 542.654
-195.124 99.0144 540.033
-194.967 99.9023 539.598
-194.497 100.627 538.299
-193.565 101.105 535.719
-192.184 101.338 531.896
-191.425 101.887 529.795
-191.274 102.756 529.377
-191.576 103.869 530.214
-191.576 104.82 530.214
-191.576 105.771 530.214
-188.594 108.804 521.961
-188.301 109.57 521.15
-188.155 110.418 520.746
-187.863 111.18 519.938
-187.718 112.025 519.536
-187.718 112.957 519.536
-187.572 113.8 519.133
-186.275 113.937 515.542
-185.278 114.247 512.783
-185.136 115.079 512.391
-184.995 115.909 512
-184.995 116.827 512
-184.432 117.387 510.442
-184.012 118.032 509.279
-183.316 118.496 507.353
-183.039 119.225 506.586
-182.763 119.952 505.822
-180.988 120.584 500.911
-180.719 121.301 500.164
-180.719 122.198 500.164
-180.719 123.095 500.164
-180.315 123.715 499.048
-179.914 124.332 497.936
-179.381 125.745 496.462
-178.851 126.261 494.997
-178.851 127.149 494.997
-178.588 127.848 494.267
-175.104 127.96 484.625
-175.104 128.829 484.625
-175.23 129.792 484.975
-174.725 130.285 483.576
-175.484 131.722 485.677
-175.104 134.043 484.625
-174.348 135.195 482.533
-173.848 135.67 481.148
-170.905 134.222 473.005
-170.785 134.975 472.671
-170.544 135.631 472.006
-168.881 135.984 467.401
-169.708 137.493 469.692
-169.708 138.336 469.692
-169.827 139.275 470.021
-169.827 140.118 470.021
-169.708 140.862 469.692
-169.708 141.704 469.692
-169.59 142.447 469.363
-168.998 142.789 467.727
-168.763 143.428 467.075
-168.528 144.064 466.426
-167.944 144.399 464.81
-167.596 144.931 463.845
-167.133 145.361 462.566
-166.903 145.989 461.929
-166.445 146.414 460.66
-165.309 146.235 457.517
-165.197 146.955 457.205
-164.86 147.474 456.272
-164.412 147.889 455.034
-164.301 148.605 454.726
-164.078 149.218 454.11
-163.194 149.224 451.664
-162.975 149.832 451.056
-162.865 150.539 450.753
-162.975 151.449 451.056
-162.647 151.952 450.148
-162.429 152.554 449.545
-162.211 153.155 448.943
-161.24 153.038 446.254
-160.812 153.43 445.07
-160.705 154.126 444.775
-160.812 155.026 445.07
-160.705 155.721 444.775
-159.963 155.795 442.72
-159.542 156.176 441.554
-159.122 156.556 440.394
-159.018 157.242 440.105
-158.395 157.412 438.379
-158.706 158.509 439.241
-158.188 158.777 437.807
-157.776 159.146 436.667
-157.673 159.825 436.383
-155.848 160.295 431.331
-155.848 161.069 431.331
-155.848 161.842 431.331
-155.848 162.616 431.331
-155.848 163.389 431.331
-155.15 163.427 429.398
-154.852 163.882 428.575
-154.753 164.545 428.302
-154.359 164.892 427.21
-154.065 165.342 426.396
-153.188 165.162 423.97
-152.898 165.608 423.167
-152.609 166.053 422.368
-152.609 166.81 422.368
-152.322 167.251 421.572
-291.938 -57.878 812.01
-291.233 -56.2857 810.049
-291.233 -54.8331 810.049
-289.833 -53.124 806.154
-288.791 -51.4927 803.258
-288.101 -49.9328 801.339
-288.101 -48.4959 801.339
-287.758 -47.0028 800.382
-286.731 -45.4051 797.527
-285.036 -43.7151 792.814
-284.364 -42.1937 790.944
-283.029 -40.584 787.231
-283.029 -39.1724 787.231
-283.029 -37.7608 787.231
-283.029 -36.3491 787.231
-283.029 -34.9375 787.231
-277.812 -32.9079 772.719
-275.275 -31.2344 765.663
-274.024 -29.7258 762.182
-273.402 -28.2948 760.454
-272.784 -26.8702 758.734
-272.476 -25.4809 757.876
-272.476 -24.1219 757.876
-272.168 -22.7372 757.021
-271.25 -21.3076 754.466
-270.641 -19.91 752.773
-270.035 -18.5186 751.087
-269.431 -17.1334 749.408
-268.531 -15.7369 746.905
-267.637 -14.3496 744.418
-265.866 -12.9287 739.493
-265.281 -11.5771 737.866
-265.281 -10.254 737.866
-263.542 -8.87236 733.028
-263.254 -7.54969 732.228
-260.975 -6.1827 725.888
-260.13 -4.86528 723.539
-259.013 -3.55254 720.43
-259.013 -2.26071 720.43
-258.735 -0.967836 719.657
-257.629 0.321233 716.582
-257.08 1.60274 715.054
-254.906 2.86054 709.007
-254.1 4.11883 706.765
-252.504 5.35232 702.325
-252.239 6.60477 701.59
-252.239 7.86282 701.59
-252.239 9.12088 701.59
-252.239 10.3789 701.59
-251.976 11.6248 700.857
-251.713 12.8681 700.126
-249.628 14.0066 694.328
-247.832 15.1419 689.332
-247.324 16.3444 687.918
-246.565 17.524 685.808
-246.313 18.7346 685.108
-246.062 19.9427 684.409
-244.07 20.9985 678.867
-242.841 22.104 675.449
-242.353 23.2683 674.091
-242.353 24.477 674.091
-242.109 25.66 673.414
-240.42 26.68 668.714
-239.941 27.8236 667.384
-238.753 28.8766 664.08
-238.282 30.008 662.767
-237.812 31.1349 661.46
-237.11 32.2257 659.509
-236.413 33.31 657.569
-235.489 34.3544 655
-234.345 35.3563 651.818
-234.117 36.4896 651.185
-233.212 37.5116 648.666
-232.986 38.6374 648.039
-232.537 39.7227 646.789
-231.643 40.7254 644.304
-230.978 41.7603 642.452
-229.221 42.586 637.567
-229.004 43.6877 636.961
-228.353 44.7025 635.152
-227.277 45.6254 632.159
-226.636 46.6271 630.376
-225.576 47.5341 627.428
-224.317 48.3876 623.926
-224.109 49.4604 623.346
-223.901 50.5312 622.767
-224.109 51.6959 623.346
-223.693 52.7156 622.19
-222.66 53.5828 619.317
-220.019 55.1419 611.971
-220.019 56.2393 611.971
-220.421 57.4415 613.09
-219.418 58.2745 610.301
-218.425 59.1 607.537
-214.921 60.2957 597.79
-214.729 61.313 597.258
-214.729 62.3839 597.258
-214.538 63.3984 596.726
-214.538 64.4685 596.726
-211.527 65.6736 588.351
-210.787 66.4953 586.294
-210.236 67.3699 584.761
-210.053 68.3589 584.251
-210.053 69.4065 584.251
-205.927 74.2057 572.776
-205.752 75.1686 572.287
-205.752 76.1948 572.287
-205.052 76.9583 570.34
-205.576 78.1805 571.799
-204.704 78.8696 569.372
-204.357 79.7552 568.407
-202.299 79.9612 562.685
-202.299 80.9702 562.685
-202.299 81.9792 562.685
-201.792 82.7798 561.272
-201.623 83.7162 560.803
-201.623 84.7218 560.803
-201.623 85.7274 560.803
-201.454 86.6606 560.335
-200.45 87.2281 557.54
-200.45 88.2278 557.54
-200.117 89.0795 556.615
-199.125 89.6313 553.857
-199.125 90.6244 553.857
-198.961 91.542 553.4
-198.797 92.458 552.943
-198.961 93.5266 553.4
-198.961 94.5189 553.4
-199.125 95.5901 553.857
-197.981 96.0282 550.674
-198.307 97.1752 551.579
-197.656 97.8424 549.771
-195.256 97.6279 543.093
-195.098 98.522 542.654
-194.625 99.2541 541.34
-194.312 100.063 540.468
-193.843 100.789 539.164
-192.605 101.105 535.719
-191.078 101.257 531.474
-190.174 101.727 528.959
-190.324 102.756 529.377
-190.475 103.787 529.795
-190.024 104.49 528.542
-189.576 105.189 527.296
-190.024 106.385 528.542
-190.024 107.333 528.542
-189.13 107.771 526.055
-188.097 108.121 523.183
-187.658 108.804 521.961
-187.658 109.74 521.961
-186.931 110.247 519.938
-186.786 111.093 519.536
-186.786 112.025 519.536
-186.786 112.957 519.536
-186.065 113.449 517.531
-184.782 113.588 513.962
-184.218 114.16 512.391
-184.218 115.079 512.391
-184.077 115.909 512
-183.937 116.738 511.61
-183.517 117.387 510.442
-183.377 118.212 510.054
-183.238 119.036 509.666
-183.099 119.859 509.279
-182.268 120.224 506.969
-182.131 121.042 506.586
-179.956 120.494 500.538
-179.822 121.301 500.164
-179.822 122.198 500.164
-179.822 123.095 500.164
-179.688 123.899 499.792
-179.554 124.703 499.42
-179.287 125.411 498.677
-178.888 126.025 497.567
-178.359 126.541 496.095
-177.964 127.149 494.997
-175.375 126.174 487.797
-174.74 126.588 486.029
-174.613 127.368 485.677
-174.613 128.238 485.677
-174.613 129.109 485.677
-174.74 130.074 486.029
-174.613 130.851 485.677
-174.74 131.817 486.029
-173.858 133.754 483.576
-170.538 134.602 474.343
-170.057 135.07 473.005
-169.818 135.727 472.338
-168.042 135.984 467.401
-168.394 137.109 468.38
-168.394 137.949 468.38
-168.866 139.178 469.692
-168.748 139.922 469.363
-168.748 140.764 469.363
-168.748 141.605 469.363
-168.63 142.347 469.035
-168.16 142.789 467.727
-167.925 143.428 467.075
-167.809 144.165 466.75
-166.995 144.299 464.488
-166.764 144.931 463.845
-166.419 145.461 462.885
-166.304 146.19 462.566
-166.189 146.918 462.247
-164.265 146.036 456.894
-164.153 146.755 456.583
-163.93 147.373 455.962
-163.485 147.789 454.726
-163.596 148.705 455.034
-162.166 149.023 451.056
-161.84 149.53 450.148
-161.731 150.236 449.846
-161.623 150.942 449.545
-161.623 151.748 449.545
-161.406 152.35 448.943
-160.868 152.644 447.445
-160.226 152.835 445.661
-160.333 153.736 445.958
-159.908 154.126 444.775
-159.908 154.923 444.775
-159.802 155.617 444.48
-158.959 155.59 442.136
-158.541 155.971 440.973
-158.333 156.556 440.394
-158.125 157.139 439.817
-157.712 157.515 438.666
-158.022 158.613 439.528
-157.505 158.88 438.093
-157.3 159.457 437.521
-157.403 160.347 437.807
-157.3 161.027 437.521
-155.575 160.036 432.723
-155.174 160.398 431.609
-155.174 161.172 431.609
-155.174 161.946 431.609
-155.075 162.616 431.331
-154.975 163.284 431.054
-154.38 163.427 429.398
-154.182 163.987 428.849
-154.084 164.65 428.575
-153.593 164.892 427.21
-153.398 165.447 426.667
-152.621 165.371 424.507
-152.428 165.922 423.97
-151.948 166.157 422.634
-151.756 166.705 422.102
-151.186 166.832 420.514
-289.78 -57.7382 810.049
-289.78 -56.2857 810.049
-289.431 -54.767 809.072
-288.387 -53.124 806.154
-287.007 -51.4312 802.297
-286.665 -49.9328 801.339
-285.641 -48.3227 798.477
-285.301 -46.8351 797.527
-284.287 -45.2437 794.692
-283.615 -43.7151 792.814
-283.28 -42.2435 791.878
-283.615 -40.8718 792.814
-282.613 -39.3108 790.012
-282.613 -37.8942 790.012
-281.618 -36.3491 787.231
-278.351 -34.5322 778.098
-276.108 -32.87 771.83
-274.529 -31.3059 767.415
-273.902 -29.8615 765.663
-273.59 -28.4561 764.79
-271.731 -26.9007 759.593
-271.423 -25.5097 758.734
-271.423 -24.1492 758.734
-271.117 -22.7629 757.876
-270.505 -21.3557 756.167
-270.505 -19.9998 756.167
-269.291 -18.5602 752.773
-269.291 -17.2103 752.773
-268.989 -15.8427 751.929
-266.895 -14.3815 746.074
-265.418 -12.9716 741.947
-263.958 -11.5771 737.866
-263.958 -10.254 737.866
-262.228 -8.87236 733.028
-261.941 -7.54969 732.228
-261.371 -6.22311 730.632
-259.673 -4.88108 725.888
-258.554 -3.56403 722.759
-257.721 -2.26071 720.43
-257.168 -0.966799 718.886
-255.798 0.320548 715.054
-255.525 1.60104 714.292
-252.833 2.8515 706.765
-252.301 4.11017 705.279
-251.244 5.35232 702.325
-250.981 6.60477 701.59
-250.981 7.86282 701.59
-250.981 9.12088 701.59
-250.719 10.3681 700.857
-250.719 11.6248 700.857
-249.936 12.8413 698.667
-248.899 14.0356 695.768
-246.85 15.1575 690.042
-246.596 16.3779 689.332
-245.838 17.5599 687.214
-245.085 18.7346 685.108
-244.835 19.9427 684.409
-243.098 21.0198 679.555
-241.873 22.1262 676.129
-241.386 23.2917 674.769
-241.386 24.5016 674.769
-240.902 25.66 673.414
-238.982 26.6534 668.048
-238.507 27.7959 666.72
-237.563 28.8766 664.08
-237.093 30.008 662.767
-236.625 31.1349 661.46
-235.464 32.1624 658.214
-235.234 33.31 657.569
-234.315 34.3544 655
-233.176 35.3563 651.818
-232.95 36.4896 651.185
-232.049 37.5116 648.666
-231.824 38.6374 648.039
-231.154 39.6844 646.166
-230.267 40.6863 643.686
-229.826 41.7603 642.452
-228.949 42.7486 640
-227.645 43.6463 636.357
-227.214 44.7025 635.152
-226.571 45.7116 633.353
-226.143 46.759 632.159
-224.661 47.5786 628.015
-222.991 48.3426 623.346
-222.991 49.4604 623.346
-222.784 50.5312 622.767
-222.784 51.6479 622.767
-222.165 52.618 621.037
-221.55 53.5828 619.317
-218.922 56.2393 611.971
-219.724 57.5467 614.213
-201.29 80.9702 562.685
-200.785 81.7734 561.272
-200.617 82.7106 560.803
-200.282 83.5764 559.867
-200.617 84.7218 560.803
-200.282 85.5843 559.867
-199.782 86.3719 558.468
-199.45 87.2281 557.54
-199.45 88.2278 557.54
-199.284 89.1535 557.077
-198.954 90.0029 556.153
-198.624 90.8495 555.232
-197.969 91.542 553.4
-197.643 92.3818 552.488
-197.643 93.3725 552.488
-197.155 94.1306 551.126
-196.671 94.885 549.771
-196.671 95.8708 549.771
-196.671 96.8566 549.771
-196.188 97.6024 548.422
-194.597 97.7862 543.974
-194.125 98.522 542.654
-193.343 99.0941 540.468
-193.187 99.9827 540.033
-192.876 100.789 539.164
-191.951 101.267 536.576
-190.427 101.418 532.318
-189.525 101.887 529.795
-189.525 102.837 529.795
-189.825 103.952 530.633
-189.226 104.572 528.959
-189.226 105.521 528.959
-188.187 107.771 526.055
-187.159 108.121 523.183
-186.868 108.889 522.368
-186.868 109.826 522.368
-186.432 110.504 521.15
-185.855 111.093 519.536
-185.567 111.852 518.732
-184.71 112.261 516.336
-184.426 113.013 515.542
-183.861 113.588 513.962
-183.439 114.247 512.783
-183.439 115.167 512.783
-183.159 115.909 512
-183.019 116.738 511.61
-182.463 117.297 510.054
-182.463 118.212 510.054
-182.185 118.946 509.279
-181.771 119.586 508.122
-181.222 120.134 506.586
-180.134 120.315 503.544
-179.192 120.584 500.911
-178.925 121.301 500.164
-179.058 122.289 500.538
-178.925 123.095 500.164
-178.925 123.992 500.164
-178.791 124.796 499.792
-177.996 125.132 497.567
-177.864 125.931 497.198
-176.946 126.168 494.632
-175.01 126.542 489.22
-174.501 127.049 487.797
-174.121 127.645 486.735
-173.994 128.424 486.382
-173.994 129.297 486.382
-173.868 130.074 486.029
-173.742 130.851 485.677
-174.121 132.009 486.735
-172.742 133.561 482.88
-169.568 135.357 474.007
-168.971 135.727 472.338
-168.733 136.382 471.674
-168.26 136.843 470.351
-168.26 137.686 470.351
-168.142 138.432 470.021
-168.26 139.373 470.351
-168.142 140.118 470.021
-167.906 140.764 469.363
-167.906 141.605 469.363
-167.789 142.347 469.035
-167.321 142.789 467.727
-167.204 143.527 467.401
-167.088 144.265 467.075
-166.393 144.499 465.132
-165.818 144.831 463.525
-165.589 145.461 462.885
-164.341 145.189 459.398
-163.669 145.415 457.517
-163.446 146.036 456.894
-163.334 146.755 456.583
-162.78 147.073 455.034
-162.67 147.789 454.726
-162.56 148.504 454.418
-161.14 148.823 450.45
-161.032 149.53 450.148
-160.816 150.136 449.545
-160.924 151.043 449.846
-160.816 151.748 449.545
-160.709 152.452 449.243
-160.172 152.746 447.744
-159.64 153.038 446.254
-159.746 153.94 446.552
-159.64 154.638 446.254
-159.322 155.129 445.365
-159.11 155.721 444.775
-158.062 156.279 441.845
-157.854 156.865 441.263
-157.44 157.242 440.105
-157.337 157.928 439.817
-157.233 158.613 439.528
-156.618 158.777 437.807
-156.007 158.939 436.099
-155.905 159.617 435.816
-155.4 159.879 434.404
-154.899 160.14 433.002
-154.799 160.812 432.723
-154.899 161.693 433.002
-154.999 162.574 433.282
-154.799 163.14 432.723
-154.599 163.705 432.165
-153.315 163.113 428.575
-153.119 163.673 428.028
-152.924 164.231 427.483
-152.73 164.787 426.939
-152.73 165.553 426.939
-151.956 165.476 424.775
-151.764 166.027 424.238
-151.095 166.053 422.368
-150.337 166.727 420.251
-289.728 -58.0185 813.981
-287.98 -56.2178 809.072
-286.942 -54.5695 806.154
-286.942 -53.124 806.154
-285.911 -51.4927 803.258
-285.228 -49.9328 801.339
-284.548 -48.3803 799.428
-283.534 -46.7795 796.58
-283.198 -45.2973 795.635
-282.527 -43.7668 793.752
-282.193 -42.2934 792.814
-282.527 -40.9202 793.752
-281.196 -39.3108 790.012
-281.196 -37.8942 790.012
-279.878 -36.3065 786.308
-276.955 -34.5322 778.098
-275.358 -32.9459 773.611
-273.153 -31.3059 767.415
-272.218 -29.8274 764.79
-272.218 -28.4561 764.79
-270.369 -26.9007 759.593
-270.063 -25.5097 758.734
-270.063 -24.1492 758.734
-269.758 -22.7629 757.876
-269.453 -21.3798 757.021
-269.453 -20.0223 757.021
-268.544 -18.6019 754.466
-268.544 -17.249 754.466
-268.544 -15.8962 754.466
-268.242 -14.527 753.618
-262.347 -12.886 737.055
-261.485 -11.5264 734.634
-261.485 -10.2091 734.634
-260.628 -8.86267 732.228
-260.344 -7.54145 731.429
-258.372 -6.1827 725.888
-257.536 -4.86528 723.539
-256.429 -3.55254 720.43
-256.154 -2.25828 719.657
-255.605 -0.965764 718.116
-253.974 0.319866 713.532
-253.704 1.59763 712.774
-251.565 2.8515 706.765
-251.831 4.12317 707.511
-250.773 5.36919 704.538
-249.985 6.61169 702.325
-249.985 7.87106 702.325
-249.723 9.12088 701.59
-249.462 10.3681 700.857
-249.202 11.6127 700.126
-248.166 12.8146 697.215
-246.119 13.9488 691.464
-245.108 15.1263 688.625
-245.108 16.3611 688.625
-244.356 17.5419 686.51
-243.857 18.7346 685.108
-243.112 19.9021 683.015
-241.391 20.9773 678.18
-240.418 22.104 675.449
-240.418 23.3151 675.449
-240.177 24.5016 674.769
-239.935 25.6858 674.091
-237.784 26.6534 668.048
-237.076 27.7683 666.058
-236.138 28.8481 663.423
-235.672 29.9784 662.113
-235.207 31.1042 660.808
-234.514 32.194 658.861
-234.284 33.3427 658.214
-233.596 34.4216 656.282
-232.233 35.3907 652.452
-231.782 36.4896 651.185
-230.885 37.5116 648.666
-230.44 38.6001 647.414
-229.333 39.57 644.304
-228.893 40.6473 643.068
-228.237 41.6805 641.224
-226.719 42.5456 636.961
-226.719 43.6877 636.961
-225.861 44.6602 634.551
-225.222 45.6685 632.755
-225.01 46.759 632.159
-224.375 47.7575 630.376
-221.051 48.1636 621.037
-221.051 49.2772 621.037
-221.051 50.3908 621.037
-221.051 51.5044 621.037
-221.051 52.618 621.037
-199.612 81.705 560.803
-199.445 82.6415 560.335
-198.946 83.4371 558.934
-199.278 84.5804 559.867
-198.781 85.3705 558.468
-198.615 86.3001 558.004
-198.285 87.1556 557.077
-198.285 88.1545 557.077
-197.956 89.0056 556.153
-197.302 89.7053 554.314
-196.976 90.5496 553.4
-196.49 91.3159 552.033
-195.845 92.0029 550.222
-195.845 92.9895 550.222
-195.845 93.9762 550.222
-195.685 94.885 549.771
-195.685 95.8708 549.771
-195.685 96.8566 549.771
-195.045 97.5227 547.974
-192.996 97.47 542.215
-192.84 98.3628 541.777
-192.219 99.0144 540.033
-192.064 99.9023 539.598
-191.91 100.789 539.164
-191.448 101.511 537.867
-189.623 101.499 532.741
-188.873 102.049 530.633
-188.724 102.919 530.214
-189.322 104.199 531.896
-188.873 104.903 530.633
-188.575 105.687 529.795
-186.95 107.602 525.231
-186.221 108.121 523.183
-185.931 108.889 522.368
-185.931 109.826 522.368
-185.21 110.333 520.342
-184.78 111.007 519.133
-184.494 111.765 518.331
-183.784 112.261 516.336
-183.502 113.013 515.542
-183.361 113.85 515.146
-182.519 114.247 512.783
-182.519 115.167 512.783
-182.38 115.997 512.391
-182.241 116.827 512
-181.686 117.387 510.442
-181.548 118.212 510.054
-181.41 119.036 509.666
-180.997 119.677 508.507
-180.042 119.952 505.822
-179.231 120.315 503.544
-178.962 121.036 502.789
-178.294 121.482 500.911
-178.161 122.289 500.538
-178.028 123.095 500.164
-177.763 123.807 499.42
-177.499 124.517 498.677
-176.972 125.04 497.198
-176.841 125.838 496.83
-176.059 126.168 494.632
-175.67 126.774 493.54
-174.898 127.098 491.37
-174.259 127.512 489.577
-174.005 128.203 488.863
-173.879 128.986 488.507
-173.248 129.39 486.735
-173.248 130.263 486.735
-172.997 130.946 486.029
-172.997 131.817 486.029
-172.997 132.689 486.029
-172.621 133.271 484.975
-172.248 133.85 483.925
-169.076 135.644 475.014
-168.361 135.918 473.005
-168.124 136.574 472.338
-168.005 137.324 472.006
-167.887 138.073 471.674
-167.769 138.822 471.343
-167.769 139.667 471.343
-167.534 140.315 470.681
-167.182 140.862 469.692
-167.065 141.605 469.363
-166.831 142.248 468.707
-166.366 142.689 467.401
-166.25 143.428 467.075
-166.019 144.064 466.426
-165.329 144.299 464.488
-164.987 144.831 463.525
-164.759 145.461 462.885
-163.182 144.891 458.456
-162.848 145.415 457.517
-162.626 146.036 456.894
-162.516 146.755 456.583
-162.295 147.373 455.962
-161.855 147.789 454.726
-161.745 148.504 454.418
-160.118 148.623 449.846
-159.796 149.13 448.943
-160.01 150.136 449.545
-160.118 151.043 449.846
-159.583 151.342 448.343
-160.01 152.554 449.545
-159.796 153.155 448.943
-159.157 153.344 447.147
-159.157 154.146 447.147
-159.157 154.948 447.147
-159.051 155.646 446.849
-158.523 155.927 445.365
-157.789 156.001 443.305
-157.373 156.382 442.136
-157.27 157.072 441.845
-156.651 157.242 440.105
-156.548 157.928 439.817
-156.343 158.509 439.241
-156.138 159.088 438.666
-155.023 158.733 435.533
-154.822 159.307 434.968
-154.322 159.569 433.562
-154.222 160.243 433.282
-154.122 160.916 433.002
-154.222 161.797 433.282
-154.222 162.574 433.282
-153.924 163.035 432.444
-152.547 162.345 428.575
-152.352 162.905 428.028
-152.255 163.568 427.755
-152.061 164.126 427.21
-151.964 164.787 426.939
-152.158 165.764 427.483
-152.255 167.404 427.755
-149.865 167.041 421.042
-286.875 -57.7382 810.049
-286.529 -56.2178 809.072
-286.875 -54.8331 810.049
-286.184 -53.252 808.097
-285.84 -51.7406 807.124
-284.13 -49.9925 802.297
-283.452 -48.438 800.382
-282.105 -46.7795 796.58
-281.771 -45.2973 795.635
-281.437 -43.8187 794.692
-281.104 -42.3435 793.752
-280.109 -40.7754 790.944
-279.45 -39.2645 789.083
-278.794 -37.7608 787.231
-278.468 -36.3065 786.308
-275.56 -34.5322 778.098
-273.655 -32.9079 772.719
-272.088 -31.3418 768.294
-271.466 -29.8956 766.538
-271.156 -28.4886 765.663
-269.312 -26.9312 760.454
-268.702 -25.5097 758.734
-268.399 -24.1219 757.876
-267.793 -22.7116 756.167
-267.492 -21.3316 755.316
-267.793 -19.9998 756.167
-266.891 -18.581 753.618
-266.891 -17.2297 753.618
-266.891 -15.8783 753.618
-261.6 -14.239 738.679
-260.739 -12.8719 736.246
-260.167 -11.5264 734.634
-259.883 -10.1979 733.83
-259.315 -8.86267 732.228
-258.75 -7.53324 730.632
-257.07 -6.1827 725.888
-256.792 -4.8758 725.103
-255.412 -3.55636 721.205
-254.864 -2.25828 719.657
-254.046 -0.964731 717.348
-252.426 0.319526 712.774
-251.092 1.58919 709.007
-250.035 2.84849 706.021
-249.509 4.10585 704.538
-248.725 5.35232 702.325
-248.465 6.60477 701.59
-248.725 7.87106 702.325
-248.206 9.11135 700.857
-247.947 10.3573 700.126
-247.43 11.5885 698.667
-246.403 12.788 695.768
-244.627 13.9344 690.752
-243.873 15.1263 688.625
-243.374 16.3276 687.214
-242.628 17.5061 685.108
-242.628 18.7346 685.108
-241.395 19.8616 681.626
-239.69 20.9349 676.812
-239.207 22.104 675.449
-238.726 23.2683 674.091
-238.726 24.477 674.091
-238.487 25.66 673.414
-237.059 26.7066 669.382
-235.882 27.7683 666.058
-234.948 28.8481 663.423
-234.716 30.008 662.767
-234.484 31.1657 662.113
-234.022 32.2892 660.808
-233.562 33.4083 659.509
-232.192 34.388 655.641
-231.063 35.3907 652.452
-230.391 36.4542 650.553
-229.279 37.4392 647.414
-229.058 38.5629 646.789
-227.74 39.4941 643.068
-227.522 40.6083 642.452
-226.653 41.6009 640
-225.577 42.5456 636.961
-224.936 43.5636 635.152
-224.299 44.5759 633.353
-223.245 45.4968 630.376
-220.755 47.2249 623.346
-219.938 48.1636 621.037
-219.938 49.2772 621.037
-219.938 50.3908 621.037
-197.45 84.2288 557.54
-197.615 85.2995 558.004
-197.45 86.2283 557.54
-197.286 87.1556 557.077
-196.959 88.0084 556.153
-196.633 88.8582 555.232
-195.339 89.2627 551.579
-195.339 90.2518 551.579
-194.699 90.9417 549.771
-194.54 91.8522 549.321
-194.54 92.8372 549.321
-194.54 93.8222 549.321
-194.38 94.7297 548.871
-194.38 95.7139 548.871
-194.221 96.619 548.422
-192.023 97.47 542.215
-191.404 98.125 540.468
-191.096 98.9347 539.598
-191.096 99.9023 539.598
-190.789 100.708 538.731
-190.483 101.511 537.867
-189.269 101.822 534.439
-188.518 102.372 532.318
-188.219 103.163 531.474
-188.07 104.034 531.053
-187.329 104.572 528.959
-187.181 105.437 528.542
-187.329 106.469 528.959
-186.593 106.996 526.882
-186.008 107.602 525.231
-184.994 107.952 522.368
-184.994 108.889 522.368
-184.994 109.826 522.368
-184.85 110.676 521.961
-184.563 111.439 521.15
-183.991 112.025 519.536
-183.849 112.869 519.133
-182.718 113.1 515.939
-182.577 113.937 515.542
-181.6 114.247 512.783
-181.6 115.167 512.783
-180.908 115.644 510.831
-180.496 116.294 509.666
-180.496 117.208 509.666
-180.496 118.122 509.666
-180.359 118.946 509.279
-179.27 119.135 506.204
-179 119.862 505.441
-178.865 120.677 505.061
-178.462 121.309 503.922
-178.194 122.029 503.166
-177.661 122.564 501.661
-176.999 123.003 499.792
-176.473 123.531 498.306
-174.914 124.211 493.903
-174.656 124.913 493.177
-174.528 125.704 492.814
-174.528 126.588 492.814
-174.017 127.098 491.37
-173.762 127.792 490.651
-173.129 128.203 488.863
-173.003 128.986 488.507
-172.375 129.39 486.735
-172.25 130.169 486.382
-172.125 130.946 486.029
-172.25 131.913 486.382
-172.25 132.785 486.382
-172.001 133.464 485.677
-171.876 134.237 485.326
-170.031 133.657 480.115
-167.159 136.478 472.006
-167.041 137.228 471.674
-167.159 138.171 472.006
-167.159 139.017 472.006
-167.041 139.765 471.674
-166.573 140.216 470.351
-166.339 140.862 469.692
-166.223 141.605 469.363
-165.991 142.248 468.707
-165.528 142.689 467.401
-165.413 143.428 467.075
-165.298 144.165 466.75
-164.61 144.399 464.81
-164.496 145.132 464.488
-162.582 144.266 459.083
-162.36 144.891 458.456
-162.138 145.514 457.83
-161.917 146.136 457.205
-161.807 146.855 456.894
-161.258 147.173 455.343
-161.039 147.789 454.726
-160.821 148.403 454.11
-159.204 148.523 449.545
-159.204 149.33 449.545
-159.098 150.035 449.243
-159.098 150.841 449.243
-158.885 151.443 448.642
-159.098 152.452 449.243
-159.098 153.257 449.243
-158.461 153.446 447.445
-158.567 154.352 447.744
-158.461 155.051 447.445
-158.25 155.646 446.849
-157.515 155.721 444.775
-156.787 155.795 442.72
-156.684 156.486 442.428
-156.581 157.175 442.136
-156.066 157.449 440.684
-155.964 158.135 440.394
-155.453 159.192 438.953
-154.042 158.527 434.968
-153.743 158.997 434.123
-153.544 159.569 433.562
-153.445 160.243 433.282
-153.445 161.02 433.282
-153.445 161.797 433.282
-153.346 162.469 433.002
-152.754 162.616 431.331
-151.972 162.553 429.124
-151.778 163.113 428.575
-151.778 163.882 428.575
-151.875 164.756 428.849
-151.584 165.208 428.028
-151.584 165.975 428.028
-151.584 166.743 428.028
-151.488 167.404 427.755
-149.392 167.357 421.837
-285.423 -59.1907 810.049
-285.078 -57.6686 809.072
-285.423 -56.2857 810.049
-285.768 -54.8994 811.028
-285.423 -53.3806 810.049
-285.423 -51.9281 810.049
-282.691 -49.9925 802.297
-282.354 -48.4959 801.339
-280.677 -46.7795 796.58
-280.344 -45.2973 795.635
-279.35 -43.7151 792.814
-279.35 -42.2934 792.814
-277.709 -40.6317 788.156
-277.058 -39.1264 786.308
-276.733 -37.6723 785.387
-276.733 -36.264 785.387
-274.802 -34.6125 779.907
-272.584 -32.9459 773.611
-271.644 -31.4499 770.943
-270.092 -29.8956 766.538
-270.092 -28.5211 766.538
-268.557 -26.9924 762.182
-267.342 -25.5097 758.734
-267.04 -24.1219 757.876
-266.738 -22.7372 757.021
-266.137 -21.3316 755.316
-266.137 -19.9772 755.316
-265.539 -18.581 753.618
-265.539 -17.2297 753.618
-266.137 -15.9141 755.316
-260.275 -14.239 738.679
-259.703 -12.886 737.055
-258.567 -11.5138 733.83
-258.002 -10.1757 732.228
-257.721 -8.85301 731.429
-256.602 -7.5087 728.252
-255.492 -6.17601 725.103
-255.492 -4.8758 725.103
-253.845 -3.55254 720.43
-252.489 -2.24863 716.582
-251.683 -0.960621 714.292
-250.881 0.319187 712.017
-250.35 1.59256 710.509
-249.031 2.8515 706.765
-248.246 4.10585 704.538
-247.466 5.35232 702.325
-247.466 6.61169 702.325
-247.466 7.87106 702.325
-247.207 9.12088 701.59
-246.949 10.3681 700.857
-246.177 11.5885 698.667
-244.902 12.7748 695.047
-243.138 13.9201 690.042
-242.639 15.1263 688.625
-241.646 16.2942 685.808
-241.153 17.4882 684.409
-240.662 18.6773 683.015
-239.443 19.8013 679.555
-238.717 20.9561 677.495
-238.717 22.1709 677.495
-237.518 23.2683 674.091
-237.518 24.477 674.091
-237.279 25.66 673.414
-235.623 26.68 668.714
-235.154 27.8236 667.384
-234.222 28.9053 664.738
-233.759 30.0377 663.423
-233.297 31.1657 662.113
-232.38 32.2257 659.509
-231.924 33.3427 658.214
-231.017 34.388 655.641
-229.67 35.3563 651.818
-228.338 36.3133 648.039
-228.118 37.4392 647.414
-227.898 38.5629 646.789
-226.587 39.4941 643.068
-226.37 40.6083 642.452
-225.506 41.6009 640
-224.01 42.4649 635.754
-223.163 43.4402 633.353
-222.953 44.5338 632.755
-222.115 45.4968 630.376
-222.115 46.6271 630.376
-218.824 48.1636 621.037
-196.287 84.1589 557.077
-195.962 85.0166 556.153
-194.35 86.2955 551.579
-194.35 87.2846 551.579
-194.35 88.2737 551.579
-194.35 89.2627 551.579
-194.35 90.2518 551.579
-194.35 91.2408 551.579
-193.713 91.9275 549.771
-193.555 92.8372 549.321
-192.923 93.5159 547.527
-192.765 94.4206 547.08
-192.765 95.4016 547.08
-192.608 96.304 546.634
-191.051 97.47 542.215
-190.282 98.046 540.033
-190.282 99.0144 540.033
-190.282 99.9827 540.033
-189.976 100.789 539.164
-189.823 101.674 538.731
-188.762 102.066 535.719
-187.713 102.454 532.741
-187.415 103.245 531.896
-187.118 104.034 531.053
-186.97 104.903 530.633
-186.233 105.437 528.542
-186.38 106.469 528.959
-185.357 106.828 526.055
-185.067 107.602 525.231
-184.777 108.374 524.41
-185.067 109.486 525.231
-185.067 110.428 525.231
-184.201 110.849 522.775
-184.201 111.786 522.775
-182.777 111.852 518.732
-182.213 112.434 517.132
-181.932 113.187 516.336
-181.792 114.025 515.939
-180.68 114.247 512.783
-180.68 115.167 512.783
-179.992 115.644 510.831
-179.582 116.294 509.666
-179.446 117.119 509.279
-179.582 118.122 509.666
-179.038 118.675 508.122
-178.497 119.225 506.586
-178.362 120.043 506.204
-178.362 120.951 506.204
-177.959 121.583 505.061
-177.292 122.029 503.166
-176.103 122.107 499.792
-175.319 122.456 497.567
-175.059 123.165 496.83
-174.028 125.096 493.903
-174.028 125.982 493.903
-174.028 126.868 493.903
-173.772 127.566 493.177
-173.263 128.073 491.731
-173.009 128.766 491.011
-172.63 129.362 489.935
-172.378 130.051 489.22
-172.127 130.738 488.507
-171.752 131.327 487.442
-171.378 131.913 486.382
-171.378 132.785 486.382
-170.882 133.271 484.975
-170.512 133.85 483.925
-168.928 133.466 479.428
-167.848 133.467 476.364
-167.61 134.131 475.688
-167.136 134.602 474.343
-166.313 138.171 472.006
-166.313 139.017 472.006
-166.196 139.765 471.674
-165.962 140.413 471.012
-165.381 140.764 469.363
-165.266 141.506 469.035
-164.805 141.95 467.727
-164.575 142.59 467.075
-164.575 143.428 467.075
-164.461 144.165 466.75
-164.004 144.599 465.455
-163.099 144.631 462.885
-161.87 144.365 459.398
-161.759 145.089 459.083
-161.428 145.613 458.142
-161.428 146.435 458.142
-160.988 146.855 456.894
-160.878 147.574 456.583
-160.659 148.191 455.962
-158.292 149.23 449.243
-157.553 149.335 447.147
-157.659 150.237 447.445
-157.869 151.241 448.043
-158.292 152.452 449.243
-158.292 153.257 449.243
-157.553 153.344 447.147
-157.553 154.146 447.147
-157.344 154.741 446.552
-156.51 154.718 444.186
-155.993 155.001 442.72
-155.891 155.692 442.428
-155.891 156.486 442.428
-155.788 157.175 442.136
-155.583 157.76 441.554
-154.971 157.928 439.817
-154.768 158.509 439.241
-152.964 158.219 434.123
-152.767 158.792 433.562
-152.767 159.569 433.562
-152.569 160.14 433.002
-152.569 160.916 433.002
-152.569 161.693 433.002
-152.569 162.469 433.002
-151.786 162.407 430.777
-151.106 162.449 428.849
-151.01 163.113 428.575
-150.913 163.777 428.302
-151.01 164.65 428.575
-150.625 164.997 427.483
-150.817 165.975 428.028
-150.529 166.424 427.21
-150.625 167.297 427.483
-148.729 167.462 422.102
-283.97 -57.7382 810.049
-283.286 -56.15 808.097
-283.628 -54.767 809.072
-281.927 -52.9966 804.221
-281.59 -51.4927 803.258
-280.917 -49.9328 801.339
-280.582 -48.438 800.382
-278.917 -46.724 795.635
-278.917 -45.2973 795.635
-277.928 -43.7151 792.814
-277.273 -42.1937 790.944
-276.295 -40.6317 788.156
-275.971 -39.1724 787.231
-275.325 -37.6723 785.387
-274.682 -36.1793 783.552
-273.086 -34.5723 779.002
-271.197 -32.9459 773.611
-269.024 -31.3059 767.415
-268.41 -29.8615 765.663
-268.41 -28.4886 765.663
-267.799 -27.0538 763.918
-266.282 -25.5386 759.593
-265.681 -24.1219 757.876
-264.783 -22.686 755.316
-263.892 -21.2598 752.773
-263.596 -19.8877 751.929
-263.301 -18.5186 751.087
-263.301 -17.1718 751.087
-263.596 -15.8427 751.929
-258.382 -12.886 737.055
-256.689 -11.4887 732.228
-256.409 -10.1646 731.429
-256.409 -8.85301 731.429
-254.743 -7.49243 726.674
-254.192 -6.17601 725.103
-253.097 -4.85481 721.981
-252.283 -3.54873 719.657
-251.742 -2.25345 718.116
-250.936 -0.962672 715.817
-249.87 0.319526 712.774
-248.287 1.58751 708.258
-247.763 2.8515 706.765
-246.983 4.10585 704.538
-245.949 5.34672 701.59
-245.949 6.60477 701.59
-245.949 7.86282 701.59
-245.692 9.11135 700.857
-244.669 10.3249 697.94
-244.161 11.5524 696.491
-243.151 12.7483 693.609
-241.901 13.9201 690.042
-241.652 15.1419 689.332
-240.171 16.2776 685.108
-239.926 17.4882 684.409
-239.437 18.6773 683.015
-239.437 19.9021 683.015
-237.983 20.9985 678.867
-237.743 22.1934 678.18
-237.502 23.3858 677.495
-236.547 24.5016 674.769
-236.309 25.6858 674.091
-236.309 26.8945 674.091
-236.072 28.075 673.414
-232.799 28.8766 664.08
-232.339 30.008 662.767
-232.11 31.1657 662.113
-231.197 32.2257 659.509
-230.517 33.31 657.569
-229.169 34.2874 653.724
-228.279 35.3219 651.185
-226.957 36.2783 647.414
-226.738 37.4031 646.789
-225.867 38.4147 644.304
-225.434 39.4941 643.068
-225.218 40.6083 642.452
-224.358 41.6009 640
-223.293 42.5456 636.961
-222.659 43.5636 635.152
-222.659 44.7025 635.152
-221.401 45.5825 631.564
-220.984 46.6271 630.376
-220.984 47.7575 630.376
-193.361 89.2627 551.579
-193.361 90.2518 551.579
-192.412 90.7928 548.871
-192.57 91.8522 549.321
-192.255 92.6854 548.422
-191.628 93.3634 546.634
-191.472 94.2668 546.189
-191.316 95.1687 545.745
-190.85 95.9132 544.416
-190.233 96.5758 542.654
-189.925 97.3913 541.777
-189.314 98.046 540.033
-189.161 98.9347 539.598
-189.161 99.9023 539.598
-189.009 100.789 539.164
-188.857 101.674 538.731
-188.102 102.229 536.576
-187.203 102.699 534.013
-186.609 103.327 532.318
-186.461 104.199 531.896
-186.019 104.903 530.633
-184.994 105.272 527.711
-184.558 105.968 526.468
-184.414 106.828 526.055
