ply
format ascii 1.0
element vertex 2008
property float x
property float y
property float z
end_header
31.6854 35.3933 751.929
31.6854 36.7416 751.929
31.6854 38.0899 751.929
31.6145 39.35 750.247
31.4737 40.514 746.905
31.5792 41.9936 749.408
31.6145 43.3859 750.247
31.544 44.6314 748.572
31.4737 45.8713 746.905
31.4737 47.2106 746.905
31.3689 48.3882 744.418
31.3341 49.6679 743.593
31.2648 50.8885 741.947
31.3341 52.3347 743.593
31.2648 53.5493 741.947
31.3341 55.0014 743.593
31.4038 56.46 745.245
25.5546 129.676 606.438
25.3029 129.476 600.466
25.1902 129.971 597.79
25.1678 130.926 597.258
25.1454 131.879 596.726
25.123 132.831 596.196
25.1007 133.781 595.666
24.9897 134.253 593.033
24.836 134.484 589.385
24.749 135.067 587.321
24.7925 136.358 588.351
24.749 137.173 587.321
24.6842 137.864 585.782
24.6411 138.672 584.761
24.6411 139.721 584.761
24.5555 140.28 582.728
24.4282 140.592 579.706
24.2813 140.78 576.22
24.2396 141.57 575.232
24.1981 142.357 574.247
24.1361 143.019 572.776
24.1155 143.924 572.287
24.095 144.826 571.799
24.0335 145.479 570.34
23.9723 146.129 568.889
23.952 147.025 568.407
23.9317 147.919 567.926
23.3582 150.337 554.314
23.2812 150.833 552.488
23.2812 151.823 552.488
23.2812 152.814 552.488
23.2048 153.3 550.674
23.0346 153.155 546.634
23.0158 154.01 546.189
22.9971 154.863 545.745
22.9411 155.462 544.416
22.6469 155.397 537.436
22.6651 156.486 537.867
22.5746 156.821 535.719
22.5566 157.656 535.292
22.4669 157.986 533.164
22.3426 158.062 530.214
22.3073 158.762 529.377
22.2897 159.585 528.959
22.2546 160.281 528.126
22.1848 160.722 526.468
22.15 161.412 525.643
22.1327 162.228 525.231
22.012 162.28 522.368
22.012 163.217 522.368
22.012 164.153 522.368
22.012 165.09 522.368
22.012 166.027 522.368
22.012 166.963 522.368
22.012 167.9 522.368
21.8419 167.532 518.331
21.8419 168.461 518.331
21.6246 168.626 513.176
21.6246 169.546 513.176
21.2507 169.327 504.301
21.2188 169.976 503.544
21.2028 170.751 503.166
21.2188 171.782 503.544
21.1078 171.782 500.911
20.9514 171.4 497.198
20.9049 171.909 496.095
20.9049 172.799 496.095
20.8894 173.56 495.728
20.874 174.32 495.362
20.8894 175.338 495.728
20.874 176.097 495.362
20.8432 176.724 494.632
20.7819 177.088 493.177
20.7362 177.581 492.091
20.5253 176.649 487.088
20.5104 177.394 486.735
20.4807 178.008 486.029
20.4807 178.88 486.029
20.0166 181.64 475.014
19.9459 181.848 473.338
19.9178 182.439 472.671
20.0024 184.065 474.678
19.96 186.223 473.673
19.8898 186.414 472.006
30.3461 -60.3826 690.752
30.3461 -59.144 690.752
30.3461 -57.9054 690.752
30.5032 -56.9601 694.328
30.3461 -55.4281 690.752
30.3461 -54.1895 690.752
30.3461 -52.9509 690.752
30.3461 -51.7123 690.752
30.3461 -50.4737 690.752
30.3149 -49.1844 690.042
30.2838 -47.8978 689.332
30.3149 -46.7097 690.042
26.8851 -26.0621 611.971
26.9589 -25.0333 613.651
26.9589 -23.9329 613.651
26.9836 -22.8535 614.213
26.9836 -21.7521 614.213
26.9836 -20.6507 614.213
27.0828 -19.6212 616.471
27.1827 -18.5841 618.746
27.1827 -17.4746 618.746
33.3327 32.9926 758.734
33.3327 34.3531 758.734
33.0337 35.3933 751.929
32.8863 36.5776 748.572
32.7401 37.7513 745.245
32.813 39.1747 746.905
32.813 40.514 746.905
32.923 41.9936 749.408
32.923 43.3374 749.408
32.923 44.6812 749.408
32.8863 45.9737 748.572
32.813 47.2106 746.905
32.7038 48.3882 744.418
32.7401 49.7783 745.245
32.5233 50.7761 740.31
32.5952 52.2189 741.947
32.5952 53.5493 741.947
32.7038 55.0625 744.418
32.7401 56.46 745.245
32.5952 57.5406 741.947
26.7387 129.055 608.639
26.642 129.676 606.438
26.427 129.708 601.543
26.3561 130.436 599.929
26.2855 131.159 598.323
26.2154 131.879 596.726
26.1921 132.831 596.196
26.1688 133.781 595.666
26.0762 134.372 593.558
25.8022 135.067 587.321
25.8475 136.358 588.351
25.8248 137.293 587.836
25.7571 137.984 586.294
25.6673 138.551 584.251
25.645 139.477 583.743
25.5118 139.794 580.71
25.4457 140.471 579.206
25.3145 140.78 576.22
25.2928 141.691 575.726
25.2711 142.601 575.232
25.2062 143.264 573.756
25.1417 143.924 572.287
25.1417 144.95 572.287
25.1203 145.851 571.799
25.0349 146.378 569.856
24.9713 148.044 568.407
24.4735 148.09 557.077
24.4127 148.718 555.692
24.3723 149.467 554.773
24.312 150.089 553.4
24.2919 150.957 552.943
24.2719 151.823 552.488
24.2121 152.437 551.126
24.1525 153.048 549.771
23.9173 153.51 544.416
23.8592 154.111 543.093
23.8399 154.959 542.654
23.6107 155.397 537.436
23.6866 156.863 539.164
23.5729 157.072 536.576
23.2382 158.637 528.959
23.2382 159.585 528.959
23.2016 160.281 528.126
23.147 160.848 526.882
23.0925 161.412 525.643
22.9845 161.595 523.183
22.9666 162.406 522.775
22.9666 163.344 522.775
22.9487 164.153 522.368
22.9487 165.09 522.368
22.9845 166.286 523.183
22.9666 167.093 522.775
22.8774 167.379 520.746
22.7889 167.661 518.732
22.7362 168.201 517.531
22.155 168.423 504.301
22.1217 169.073 503.544
22.1051 169.848 503.166
22.0885 170.623 502.789
22.0885 171.524 502.789
22.006 171.782 500.911
21.9079 171.91 498.677
21.8267 172.164 496.83
21.8267 173.055 496.83
21.8106 173.817 496.462
21.8106 174.707 496.462
21.8106 175.597 496.462
21.7783 176.227 495.728
21.7141 177.48 494.267
21.3677 176.393 486.382
21.3368 177.008 485.677
21.2905 177.493 484.625
20.9723 176.553 477.381
20.9723 177.409 477.381
21.0022 178.519 478.062
21.0172 179.504 478.403
20.9574 179.849 477.042
20.8536 180.66 474.678
20.8241 181.255 474.007
20.7947 181.848 473.338
20.78 182.567 473.005
20.8094 183.675 473.673
20.8094 184.524 473.673
20.8388 185.636 474.343
20.8388 186.486 474.343
20.7947 186.94 473.338
31.5523 -60.3205 690.042
31.5523 -59.0831 690.042
31.5847 -57.9054 690.752
31.6173 -56.7252 691.464
31.5847 -55.4281 690.752
31.5523 -54.1338 690.042
31.5198 -52.8421 689.332
31.5198 -51.606 689.332
31.4552 -50.2666 687.918
31.3267 -48.8327 685.108
31.4229 -47.7505 687.214
31.2309 -46.2341 683.015
28.0336 -26.1098 613.09
28.1107 -25.0792 614.776
28.085 -23.9548 614.213
28.1365 -22.8954 615.34
28.2401 -21.8723 617.606
28.1365 -20.6886 615.34
28.1882 -19.6212 616.471
28.3184 -18.6013 619.317
28.3184 -17.4908 619.317
34.0764 37.7513 745.245
34.0764 39.0877 745.245
34.2286 40.6045 748.572
34.2668 41.9936 749.408
34.2668 43.3374 749.408
34.2668 44.6812 749.408
34.2668 46.025 749.408
34.2286 47.316 748.572
34.1143 48.4959 746.074
33.9257 49.5581 741.947
33.9257 50.8885 741.947
33.9257 52.2189 741.947
33.9257 53.5493 741.947
34.0386 55.0625 744.418
34.0009 56.3348 743.593
27.8807 128.197 609.746
27.8301 129.055 608.639
27.6794 129.442 605.343
27.481 129.592 601.004
27.4073 130.319 599.393
27.334 131.043 597.79
27.2854 131.879 596.726
27.2128 132.596 595.138
27.2128 133.663 595.138
27.2128 134.73 595.138
26.8789 134.131 587.836
26.785 134.713 585.782
26.7616 136.694 585.271
26.7383 137.623 584.761
26.6685 138.31 583.235
26.5991 138.993 581.718
26.5301 139.673 580.208
26.4614 140.349 578.706
26.3704 140.901 576.716
26.3478 141.813 576.22
26.3251 142.724 575.726
26.2351 143.264 573.756
26.1679 143.924 572.287
26.1456 144.826 571.799
25.9905 144.986 568.407
25.9905 146.005 568.407
25.9905 147.025 568.407
25.4936 148.213 557.54
25.3252 149.22 553.857
25.3043 150.089 553.4
25.2418 150.708 552.033
25.2003 151.449 551.126
25.159 152.187 550.222
25.0562 152.548 547.974
24.8532 154.236 543.534
24.833 155.085 543.093
24.6336 156.737 538.731
24.5941 157.45 537.867
24.2058 158.762 529.377
24.1867 159.585 528.959
24.1297 160.155 527.711
24.0728 160.722 526.468
24.0163 161.286 525.231
23.9975 162.101 524.82
23.904 162.406 522.775
23.904 163.344 522.775
23.904 164.281 522.775
23.8853 165.09 522.368
23.9413 166.415 523.591
23.9413 167.354 523.591
23.8853 167.9 522.368
23.7375 167.791 519.133
23.7191 168.592 518.732
23.0073 167.142 503.166
23.0246 168.17 503.544
23.0246 169.073 503.544
23.0073 169.848 503.166
22.9729 170.495 502.412
23.0246 171.782 503.544
22.9042 171.782 500.911
22.8701 172.423 500.164
22.7345 172.292 497.198
22.7345 173.183 497.198
22.7345 174.075 497.198
22.7176 174.837 496.83
22.7176 175.727 496.83
22.6004 177.48 494.267
22.2399 176.393 486.382
22.2238 177.136 486.029
22.1916 177.75 485.326
21.8128 175.572 477.042
21.8283 176.553 477.381
21.8283 177.409 477.381
21.8439 178.392 477.721
21.8594 179.376 478.062
21.8439 180.105 477.721
21.7973 180.576 476.703
21.7201 180.788 475.014
21.7201 181.64 475.014
21.7047 182.362 474.678
21.6894 183.084 474.343
21.7047 184.065 474.678
21.7047 184.916 474.678
21.613 184.982 472.671
21.5977 185.698 472.338
21.613 186.677 472.671
32.7559 -67.6749 689.332
32.9933 -60.6951 694.328
32.9251 -59.3273 692.893
32.9933 -58.2051 694.328
33.0274 -57.0191 695.047
32.8572 -55.4853 691.464
32.8234 -54.1895 690.752
32.7896 -52.8964 690.042
32.7896 -51.6591 690.042
32.8234 -50.4737 690.752
32.6552 -48.9828 687.214
32.5884 -47.6529 685.808
32.5551 -46.3757 685.108
29.1596 -26.1336 613.651
29.1863 -25.0562 614.213
29.1596 -23.9329 613.651
29.4289 -20.8223 619.317
29.4289 -19.7118 619.317
29.4561 -18.6185 619.889
35.4128 37.7513 745.245
35.4916 39.1747 746.905
35.4916 40.514 746.905
35.6106 41.9936 749.408
35.6106 43.3374 749.408
35.6504 44.7312 750.247
35.6504 46.0765 750.247
35.6504 47.4218 750.247
35.4916 48.5499 746.905
35.4128 49.7783 745.245
35.4128 51.1147 745.245
35.4128 52.451 745.245
35.4128 53.7873 745.245
35.4128 56.46 745.245
35.4128 57.7963 745.245
29.0269 128.43 610.857
28.9741 129.29 609.746
28.7649 129.442 605.343
28.5587 129.592 601.004
28.5331 130.552 600.466
28.4821 131.394 599.393
28.3807 131.997 597.258
28.2799 132.596 595.138
28.1799 133.19 593.033
28.2549 134.61 594.61
27.8841 133.896 586.807
27.8354 134.713 585.782
27.9085 136.12 587.321
27.8841 137.053 586.807
27.7868 137.623 584.761
27.7143 138.31 583.235
27.6662 139.114 582.223
27.6183 139.915 581.214
27.5467 140.592 579.706
27.4281 141.022 577.212
27.381 141.813 576.22
27.3575 142.724 575.726
27.3106 143.51 574.739
27.2173 144.046 572.776
27.1247 144.58 570.826
26.9869 144.863 567.926
26.9869 145.882 567.926
26.7154 147.439 562.213
26.7154 148.447 562.213
26.3401 149.343 554.314
26.2749 149.965 552.943
26.2317 150.708 552.033
26.2317 151.698 552.033
26.1886 152.437 551.126
26.1456 153.174 550.222
25.1551 158.762 529.377
25.1352 159.585 528.959
25.0759 160.155 527.711
25.0365 160.848 526.882
24.9777 161.412 525.643
24.9777 162.355 525.643
24.8802 162.66 523.591
24.8608 163.471 523.183
24.8027 164.025 521.961
24.8027 164.961 521.961
24.822 166.027 522.368
24.8414 167.093 522.775
24.6302 166.602 518.331
24.6302 167.532 518.331
24.5543 167.942 516.734
23.9096 167.142 503.166
23.8917 168.819 502.789
23.8381 169.34 501.661
23.8202 170.113 501.286
23.7847 170.756 500.538
23.7847 171.654 500.538
23.591 172.037 496.462
23.6085 173.055 496.83
23.5562 173.56 495.728
23.5388 174.32 495.362
23.5388 175.208 495.362
23.504 175.837 494.632
23.4177 176.075 492.814
23.3833 176.699 492.091
23.3491 177.321 491.37
23.0786 177.008 485.677
22.6682 174.716 477.042
22.6682 175.572 477.042
22.6843 176.553 477.381
22.7005 177.535 477.721
22.7167 178.519 478.062
22.7167 179.376 478.062
22.7167 180.233 478.062
22.6843 180.833 477.381
22.6199 181.173 476.026
22.5879 181.768 475.351
22.5719 182.491 475.014
22.5399 183.084 474.343
22.5559 184.065 474.678
22.524 184.654 474.007
22.4447 184.851 472.338
22.3817 185.177 471.012
22.3346 185.63 470.021
34.0269 -67.7445 690.042
33.8182 -64.8694 685.808
33.7836 -63.5747 685.108
33.7836 -61.1177 685.108
33.7836 -59.8892 685.108
33.8182 -58.7207 685.808
34.0269 -57.8458 690.042
33.9571 -56.4922 688.625
33.992 -55.3142 689.332
33.992 -54.0781 689.332
34.0269 -52.8964 690.042
33.992 -51.606 689.332
33.8875 -50.2151 687.214
33.7492 -48.7829 684.409
33.6804 -46.2341 683.015
30.26 -26.1336 613.651
30.3991 -25.1483 616.471
30.26 -23.9329 613.651
30.5676 -18.6185 619.889
36.7491 36.415 745.245
36.5865 37.5843 741.947
36.7491 39.0877 745.245
36.8309 40.514 746.905
36.9132 41.9468 748.572
36.9132 43.2891 748.572
36.9544 44.6812 749.408
36.9957 46.0765 750.247
37.0372 47.4749 751.087
36.9132 48.6582 748.572
29.9043 128.589 606.438
29.8234 129.325 604.797
29.7697 130.175 603.709
29.6364 130.669 601.004
29.5834 131.511 599.929
29.4516 131.997 597.258
29.3993 132.831 596.196
29.3211 133.544 594.61
29.1917 134.016 591.986
28.8858 133.662 585.782
28.8354 134.478 584.761
28.8354 135.526 584.761
28.8103 136.456 584.251
28.7852 137.384 583.743
28.6853 137.95 581.718
28.6357 138.753 580.71
28.6109 139.673 580.208
28.5862 140.592 579.706
28.4387 140.901 576.716
28.4142 141.813 576.22
28.3899 142.724 575.726
28.3169 143.387 574.247
28.2444 144.046 572.776
28.029 144.986 568.407
28.029 146.005 568.407
27.9815 146.776 567.445
27.8168 147.935 564.105
27.8168 148.946 564.105
27.3566 149.467 554.773
27.2664 149.965 552.943
27.2216 150.708 552.033
27.244 151.823 552.488
27.1545 152.312 550.674
27.0214 152.548 547.974
26.9115 152.906 545.745
26.8677 153.635 544.858
26.396 158.616 535.292
26.0427 160.281 528.126
25.9609 160.722 526.468
25.9202 161.412 525.643
25.9405 162.482 526.055
25.8594 162.914 524.41
25.7989 163.471 523.183
25.7788 164.281 522.775
25.7587 165.09 522.368
25.7387 165.897 521.961
25.5596 165.673 518.331
25.5399 166.474 517.931
25.5202 167.273 517.531
25.4417 167.684 515.939
25.3831 168.221 514.751
24.7747 168.693 502.412
24.7191 169.214 501.286
24.7191 170.113 501.286
24.7007 170.884 500.911
24.7007 171.782 500.911
24.6822 172.551 500.538
24.4994 172.164 496.83
24.4994 173.055 496.83
24.4451 173.56 495.728
24.427 174.32 495.362
24.427 175.208 495.362
24.391 175.837 494.632
24.373 176.594 494.267
24.2835 176.828 492.453
24.2657 177.581 492.091
23.9321 176.88 485.326
23.5403 174.841 477.381
23.5403 175.697 477.381
23.6244 177.183 479.086
23.6582 178.297 479.771
23.6076 178.774 478.744
23.6076 179.632 478.744
23.5907 180.362 478.403
23.5571 180.961 477.721
23.5571 181.818 477.721
23.4735 182.026 476.026
23.4402 182.621 475.351
23.4071 183.214 474.678
23.4236 184.195 475.014
23.3905 184.785 474.343
23.2589 184.591 471.674
23.1612 184.658 469.692
23.145 185.37 469.363
35.228 -67.6749 689.332
35.2643 -66.5072 690.042
35.1919 -65.1358 688.625
35.1919 -63.901 688.625
34.9764 -59.8281 684.409
35.1198 -58.841 687.214
35.0479 -56.2612 685.808
35.0838 -55.0877 686.51
35.1919 -54.0226 688.625
35.1919 -52.7878 688.625
35.1558 -51.5001 687.918
35.1198 -50.2151 687.214
34.9764 -48.7829 684.409
31.3604 -26.1336 613.651
31.5045 -25.1483 616.471
38.0854 37.7513 745.245
38.1702 39.1747 746.905
38.1278 40.469 746.074
38.2555 41.9468 748.572
38.341 43.3859 750.247
38.384 44.7813 751.087
38.384 46.1281 751.087
38.427 47.5281 751.929
38.427 48.8764 751.929
31.1892 128.313 610.301
30.9918 128.589 606.438
30.9358 129.442 605.343
30.9079 130.41 604.797
30.7141 130.669 601.004
30.6591 131.511 599.929
30.5498 132.115 597.79
30.4683 132.831 596.196
30.4143 133.663 595.138
30.2532 134.016 591.986
29.9885 133.896 586.807
29.9361 134.713 585.782
29.8839 135.526 584.761
29.8839 136.575 584.761
29.8579 137.504 584.251
29.677 137.711 580.71
29.6513 138.633 580.208
29.677 139.794 580.71
29.6513 140.714 580.208
29.6257 141.631 579.706
29.6001 142.548 579.206
29.5236 143.215 577.709
29.397 143.633 575.232
29.2965 144.17 573.265
29.2465 144.95 572.287
29.1222 145.356 569.856
29.0975 146.253 569.372
28.9745 146.652 566.966
28.8769 148.184 565.055
28.8526 149.072 564.579
28.5165 149.337 558.004
28.422 149.839 556.153
28.2813 150.089 553.4
28.2579 150.957 552.943
28.2347 151.823 552.488
28.1419 152.312 550.674
28.0958 153.048 549.771
27.9583 153.28 547.08
27.9128 154.01 546.189
27.3777 158.743 535.719
27.0749 159.837 529.795
27.0322 160.534 528.959
27.0109 161.355 528.542
26.9049 161.666 526.468
26.9049 162.61 526.468
26.8628 163.297 525.643
26.8628 164.24 525.643
26.8417 165.053 525.231
26.7998 165.735 524.41
26.7162 166.156 522.775
26.4482 165.417 517.531
26.4075 166.089 516.734
26.3871 166.887 516.336
26.3466 167.555 515.542
26.2457 167.834 513.568
26.2056 168.497 512.783
26.1856 169.287 512.391
25.6563 168.567 502.036
25.618 169.214 501.286
25.5989 169.985 500.911
25.5989 170.884 500.911
25.5798 171.654 500.538
25.5226 172.166 499.42
25.428 172.419 497.567
25.4091 173.183 497.198
25.3715 173.817 496.462
25.3715 174.707 496.462
25.3903 175.727 496.83
25.3153 176.097 495.362
25.2966 176.854 494.997
25.2779 177.611 494.632
25.1851 177.842 492.814
24.5889 175.357 481.148
24.5712 176.094 480.803
24.5712 176.956 480.803
24.5712 177.818 480.803
24.5889 178.809 481.148
24.5712 179.543 480.803
24.5361 180.146 480.115
24.5536 181.137 480.459
24.3617 181.43 476.703
24.379 182.415 477.042
24.379 183.27 477.042
24.2754 183.343 475.014
24.2754 184.195 475.014
24.2582 184.916 474.678
24.0202 184.787 470.021
36.4641 -67.6749 689.332
36.5392 -66.5757 690.752
36.4641 -65.2028 689.332
36.3893 -63.8355 687.918
36.2777 -61.1802 685.808
36.2406 -59.8892 685.108
36.2406 -58.6607 685.108
36.2406 -57.4322 685.108
36.2406 -56.2037 685.108
36.2406 -54.9752 685.108
36.3148 -53.8567 686.51
36.3148 -52.6257 686.51
36.3148 -51.3947 686.51
36.2777 -50.1124 685.808
36.1667 -48.7332 683.711
39.7753 39.4382 751.929
39.5977 40.6045 748.572
39.6863 42.0406 750.247
39.6863 43.3859 750.247
39.7308 44.7813 751.087
39.7308 46.1281 751.087
39.7753 47.5281 751.929
32.2249 126.988 609.192
32.2249 128.08 609.192
32.0792 128.589 606.438
32.0502 129.559 605.89
32.0213 130.527 605.343
31.8774 131.022 602.624
31.7633 131.629 600.466
31.6782 132.35 598.858
31.5936 133.068 597.258
31.4257 133.426 594.084
31.2871 133.898 591.464
31.0952 134.131 587.836
31.0136 134.83 586.294
30.9595 135.645 585.271
30.9056 136.456 584.251
30.8787 137.384 583.743
30.825 138.19 582.728
30.7715 138.993 581.718
30.825 140.28 582.728
30.4024 144.54 574.739
30.2469 144.826 571.799
30.042 145.882 567.926
29.9659 146.528 566.487
29.9912 147.669 566.966
29.8901 148.184 565.055
29.8399 148.946 564.105
29.5417 149.461 558.468
29.4681 150.087 557.077
29.2978 150.213 553.857
29.2495 150.957 552.943
29.2495 151.948 552.943
29.2013 152.688 552.033
29.0816 153.048 549.771
28.9393 153.28 547.08
28.8922 154.01 546.189
28.361 158.87 536.147
28.1808 159.771 532.741
28.1584 160.598 532.318
27.9807 160.534 528.959
27.9367 161.228 528.126
27.8053 161.412 525.643
27.8708 162.737 526.882
27.7835 163.169 525.231
27.7618 163.983 524.82
27.6752 164.409 523.183
27.6536 165.219 522.775
27.5891 165.768 521.556
27.313 165.035 516.336
27.292 165.833 515.939
27.292 166.759 515.939
27.2501 167.426 515.146
27.1458 167.706 513.176
27.1043 168.368 512.391
26.6363 169.073 503.544
26.5765 169.594 502.412
26.5169 170.113 501.286
26.4971 170.884 500.911
26.4773 171.654 500.538
26.4378 172.294 499.792
26.3202 172.419 497.567
26.3007 173.183 497.198
26.2617 173.817 496.462
26.2812 174.837 496.83
26.3007 175.858 497.198
26.2617 176.488 496.462
26.2229 177.116 495.728
26.0496 177.711 492.453
25.5433 175.989 482.88
25.5065 176.6 482.186
25.5065 177.465 482.186
25.4699 178.074 481.493
25.4882 179.065 481.839
25.4334 179.543 480.803
25.397 180.146 480.115
25.1807 181.173 476.026
25.2344 182.415 477.042
25.2524 183.401 477.381
25.145 183.473 475.351
25.1986 184.718 476.364
25.2165 185.704 476.703
37.739 -66.5072 690.042
37.7778 -65.3371 690.752
37.7002 -63.9667 689.332
37.739 -62.7952 690.042
37.739 -61.5578 690.042
37.7002 -60.2585 689.332
37.6615 -58.9618 688.625
37.6615 -57.727 688.625
37.6615 -56.4922 688.625
37.5843 -55.1442 687.214
37.6229 -53.9672 687.918
37.6229 -52.7337 687.918
37.6229 -51.5001 687.918
37.4309 -50.0101 684.409
37.3547 -48.6835 683.015
41.1236 40.7866 751.929
40.94 41.9468 748.572
40.94 43.2891 748.572
40.94 44.6314 748.572
40.94 45.9737 748.572
40.94 47.316 748.572
41.1236 48.8764 751.929
33.3172 126.988 609.192
33.3172 128.08 609.192
33.2267 128.822 607.537
33.1367 129.559 605.89
33.1067 130.527 605.343
32.958 131.022 602.624
32.84 131.629 600.466
32.7813 132.469 599.393
32.6065 132.831 596.196
32.4048 133.072 592.509
32.4048 134.135 592.509
32.1774 134.248 588.351
32.1774 135.303 588.351
32.1774 136.358 588.351
32.0649 136.933 586.294
31.9811 137.623 584.761
31.7871 137.831 581.214
31.7321 138.633 580.208
31.7321 139.673 580.208
31.3524 143.142 573.265
31.3256 144.046 572.776
31.113 144.089 568.889
31.0604 145.882 567.926
31.0341 146.776 567.445
31.0078 147.669 566.966
30.9034 148.184 565.055
30.9034 149.197 565.055
30.3661 149.59 555.232
30.2659 150.089 553.4
30.241 150.957 552.943
30.241 151.948 552.943
30.216 152.814 552.488
30.0921 153.174 550.222
29.8716 153.031 546.189
29.8473 153.885 545.745
29.7504 154.361 543.974
29.2756 158.616 535.292
29.2756 159.576 535.292
29.136 159.771 532.741
29.1129 160.598 532.318
28.9521 160.66 529.377
28.8837 161.228 528.126
28.7479 161.412 525.643
28.7704 162.482 526.055
28.7029 163.042 524.82
28.6804 163.855 524.41
28.591 164.281 522.775
28.2389 165.035 516.336
28.2171 165.833 515.939
28.1954 166.63 515.542
28.1522 167.298 514.751
28.066 167.706 513.176
28.0231 168.368 512.391
27.9378 168.772 510.831
27.5186 168.946 503.166
27.4158 169.214 501.286
27.3748 169.859 500.538
27.3748 170.756 500.538
27.3544 171.526 500.164
27.334 172.294 499.792
27.2528 172.676 498.306
27.2326 173.44 497.936
27.2124 174.204 497.567
27.1922 174.966 497.198
27.1922 175.858 497.198
27.1922 176.749 497.198
27.1721 177.509 496.83
27.1319 178.136 496.095
26.9524 177.842 492.814
26.4282 176.115 483.228
26.4282 176.982 483.228
26.4091 177.72 482.88
26.3901 178.458 482.533
26.4091 179.452 482.88
26.3333 179.8 481.493
26.2955 180.405 480.803
26.127 183.531 477.721
26.0898 184.126 477.042
26.1084 185.113 477.381
38.6581 -67.1915 684.409
38.9363 -66.4389 689.332
39.2184 -65.6753 694.328
39.1374 -64.2971 692.893
39.1374 -63.0547 692.893
39.097 -61.7484 692.178
39.0165 -60.3826 690.752
38.9763 -59.0831 690.042
38.9363 -57.7863 689.332
38.9363 -56.5503 689.332
38.9363 -55.3142 689.332
38.9763 -54.1338 690.042
38.9763 -52.8964 690.042
38.9763 -51.6591 690.042
38.9363 -50.3699 689.332
38.6581 -48.7829 684.409
42.4719 48.8764 751.929
34.4409 128.197 609.746
34.3472 128.938 608.087
34.254 129.676 606.438
34.1922 130.527 605.343
34.0692 131.139 603.166
33.9167 131.629 600.466
33.8561 132.469 599.393
33.6755 132.831 596.196
33.4673 133.072 592.509
33.4673 134.135 592.509
33.2616 134.366 588.868
33.2616 135.422 588.868
33.2616 136.478 588.868
33.2324 137.413 588.351
32.9721 137.384 583.743
32.7725 137.592 580.208
32.7725 138.633 580.208
32.7725 139.673 580.208
32.7159 140.471 579.206
32.3251 142.897 572.287
32.3251 143.924 572.287
32.1331 144.089 568.889
32.0787 144.863 567.926
32.0516 145.758 567.445
32.0516 146.776 567.445
31.9166 147.171 565.055
31.8897 148.059 564.579
31.9166 149.197 565.055
31.4398 149.963 556.615
31.2582 150.089 553.4
31.2325 150.957 552.943
31.2325 151.948 552.943
31.181 152.688 552.033
31.0533 153.048 549.771
30.8761 153.155 546.634
30.851 154.01 546.189
30.8008 154.737 545.301
30.7259 155.336 543.974
30.701 157.16 543.534
30.6265 157.751 542.215
30.4787 157.957 539.598
30.3809 158.415 537.867
30.2838 158.87 536.147
30.2596 159.703 535.719
30.1872 160.28 534.439
30.1392 160.982 533.588
30.0674 161.553 532.318
29.8777 161.482 528.959
29.737 161.666 526.468
29.6904 162.355 525.643
29.6904 163.297 525.643
29.5515 163.471 523.183
29.5284 164.281 522.775
29.1647 165.035 516.336
29.1647 165.961 516.336
29.1423 166.759 515.939
29.1199 167.555 515.542
29.0306 167.963 513.962
28.9641 168.497 512.783
28.8318 168.643 510.442
28.4422 169.073 503.544
28.3358 169.34 501.661
28.2935 169.985 500.911
28.2935 170.884 500.911
28.2724 171.654 500.538
28.2513 172.423 500.164
28.1463 172.676 498.306
28.1046 173.312 497.567
28.0629 173.946 496.83
28.1046 175.096 497.567
28.0837 175.858 497.198
28.0629 176.618 496.83
28.0422 177.378 496.462
28.0214 178.136 496.095
27.9182 178.366 494.267
27.2947 176.115 483.228
27.2947 176.982 483.228
27.2947 177.848 483.228
27.2947 178.715 483.228
27.275 179.452 482.88
27.1967 179.8 481.493
26.9644 182.545 477.381
26.9644 183.401 477.381
26.8878 183.734 476.026
26.9836 185.245 477.721
39.8447 -68.349 683.711
39.8854 -67.1915 684.409
40.1723 -66.4389 689.332
40.6317 -65.9483 697.215
40.6317 -64.6981 697.215
40.6317 -63.4479 697.215
40.5895 -62.1331 696.491
40.5474 -60.8211 695.768
40.3382 -59.2661 692.178
40.2551 -57.9054 690.752
40.2137 -56.6085 690.042
40.2137 -55.3711 690.042
40.1723 -54.0781 689.332
40.2137 -51.6591 690.042
40.1723 -50.3699 689.332
39.9669 -48.8826 685.808
52.8212 3.65685 906.379
53.1083 5.31083 911.305
53.1083 6.94493 911.305
35.502 126.988 609.192
35.502 128.08 609.192
35.4698 129.055 608.639
35.4376 130.029 608.087
35.3096 130.645 605.89
35.2777 131.613 605.343
34.9934 131.629 600.466
34.8997 132.35 598.858
34.7446 132.831 596.196
34.5297 133.072 592.509
34.4993 134.016 591.986
34.2874 134.248 588.351
34.2874 135.303 588.351
34.2874 136.358 588.351
34.1675 136.933 586.294
34.0189 137.384 583.743
33.9008 137.95 581.718
33.8421 138.753 580.71
33.8129 139.673 580.208
33.7836 140.592 579.706
33.4083 143.142 573.265
33.3513 143.924 572.287
33.1532 144.089 568.889
33.1251 144.986 568.407
33.0691 145.758 567.445
33.0691 146.776 567.445
33.0132 147.544 566.487
32.9576 148.309 565.532
32.9576 149.323 565.532
32.9298 150.211 565.055
32.4379 149.963 556.615
32.2506 150.089 553.4
32.224 150.957 552.943
32.1974 151.823 552.488
32.1445 152.563 551.579
32.0654 153.174 550.222
31.9605 153.656 548.422
31.8563 154.135 546.634
31.8045 154.863 545.745
31.7786 155.715 545.301
31.6499 156.059 543.093
31.6756 157.16 543.534
31.5732 157.623 541.777
31.4462 157.957 539.598
31.3957 158.669 538.731
31.3454 159.379 537.867
31.2451 159.831 536.147
31.1953 160.536 535.292
31.1456 161.238 534.439
31.022 161.553 532.318
30.8506 161.61 529.377
30.8019 162.303 528.542
30.8262 163.379 528.959
30.4421 162.28 522.368
30.3948 162.963 521.556
30.0906 165.035 516.336
30.0674 165.833 515.939
30.0674 166.759 515.939
30.0213 167.426 515.146
29.9293 167.834 513.568
29.8607 168.368 512.391
29.7471 168.643 510.442
29.6793 169.172 509.279
29.6793 170.085 509.279
29.5001 169.966 506.204
29.3011 169.721 502.789
29.2354 170.24 501.661
29.1917 170.884 500.911
29.1482 171.526 500.164
29.0831 172.038 499.048
29.0399 172.676 498.306
28.9968 173.312 497.567
28.9324 173.817 496.462
28.9753 174.966 497.198
28.9538 175.727 496.83
28.9324 176.488 496.462
28.8896 177.116 495.728
28.847 177.742 494.997
28.8045 178.366 494.267
28.1611 176.982 483.228
28.1611 177.848 483.228
28.1611 178.715 483.228
28.1409 179.452 482.88
28.1409 180.318 482.88
27.8402 183.531 477.721
27.8204 184.257 477.381
27.8402 185.245 477.721
41.1546 -69.7172 685.108
41.1967 -68.5587 685.808
41.2811 -67.4669 687.214
41.451 -66.5072 690.042
41.5365 -65.4044 691.464
41.7517 -64.497 695.047
41.8384 -63.382 696.491
41.8384 -62.1331 696.491
41.795 -60.8211 695.768
41.3659 -58.9618 688.625
41.3235 -57.6678 687.918
41.2389 -56.3187 686.51
41.2389 -55.0877 686.51
41.2389 -53.8567 686.51
41.2811 -52.6796 687.214
41.2811 -51.4474 687.214
41.1546 -48.8327 685.108
54.4464 3.65685 906.379
54.5201 5.28927 907.605
54.7424 6.94493 911.305
54.7424 8.57903 911.305
54.7424 10.2131 911.305
54.4464 11.7832 906.379
36.5943 126.988 609.192
36.5943 128.08 609.192
36.5943 129.173 609.192
36.5943 130.265 609.192
36.4619 130.882 606.987
36.396 131.732 605.89
36.0702 131.629 600.466
36.0379 132.587 599.929
35.8455 132.949 596.726
35.5922 133.072 592.509
35.5608 134.016 591.986
35.4045 134.484 589.385
35.3735 135.422 588.868
35.3424 136.358 588.351
35.2497 137.053 586.807
35.0961 137.504 584.251
35.0656 138.431 583.743
34.9743 139.114 582.223
34.9439 140.037 581.718
34.8533 140.714 580.208
34.8533 141.754 580.208
34.8533 142.794 580.208
34.3774 142.897 572.287
34.3774 143.924 572.287
34.2314 144.334 569.856
34.1444 144.986 568.407
34.1155 145.882 567.926
34.1155 146.9 567.926
34.0866 147.793 567.445
34.0578 148.685 566.966
34.0003 149.449 566.009
33.9716 150.337 565.532
33.436 149.963 556.615
33.2703 150.213 553.857
33.2429 151.081 553.4
33.1881 151.823 552.488
33.1063 152.437 551.126
33.0249 153.048 549.771
32.8633 153.28 547.08
32.8365 154.135 546.634
32.5974 153.986 542.654
32.571 154.834 542.215
32.5447 155.68 541.777
32.4661 156.273 540.468
32.3878 156.863 539.164
32.4138 157.957 539.598
32.3878 158.797 539.164
32.3617 159.635 538.731
32.2065 159.831 536.147
32.1551 160.536 535.292
32.0783 161.11 534.013
31.9511 161.425 531.896
31.7747 161.482 528.959
31.7247 162.175 528.126
31.5755 162.355 525.643
31.3544 162.154 521.961
31.2813 162.71 520.746
31.0165 163.184 516.336
31.0165 164.109 516.336
30.9926 164.908 515.939
30.9926 165.833 515.939
30.9926 166.759 515.939
30.9212 167.298 514.751
30.803 167.578 512.783
30.756 168.24 512
30.6624 168.643 510.442
30.5925 169.172 509.279
30.5925 170.085 509.279
30.3849 169.838 505.822
30.2253 169.848 503.166
30.1801 170.495 502.412
30.1349 171.139 501.661
30.0674 171.654 500.538
30.0226 172.294 499.792
29.9557 172.804 498.677
29.8668 173.183 497.198
29.8447 173.946 496.83
29.8447 174.837 496.83
29.8447 175.727 496.83
29.8006 176.357 496.095
29.7346 176.854 494.997
29.6689 177.349 493.903
29.6035 177.842 492.814
29.1959 177.136 486.029
29.1326 177.622 484.975
29.0486 177.977 483.576
29.0486 178.844 483.576
29.0276 179.581 483.228
28.6968 180.961 477.721
28.6968 181.818 477.721
28.6968 182.675 477.721
28.7173 183.662 478.062
28.7173 184.519 478.062
28.7173 185.377 478.062
28.7583 186.5 478.744
42.3831 -69.7172 685.108
42.3831 -68.4887 685.108
42.5134 -67.4669 687.214
42.6445 -66.4389 689.332
42.7764 -65.4044 691.464
43.0426 -64.5639 695.768
42.8647 -63.0547 692.893
42.8647 -61.8122 692.893
42.6883 -60.3205 690.042
42.6445 -59.0224 689.332
42.6007 -57.727 688.625
42.557 -56.4343 687.918
42.557 -55.2007 687.918
42.557 -53.9672 687.918
42.557 -52.7337 687.918
42.6007 -51.553 688.625
42.3399 -50.0101 684.409
56.3765 3.67673 911.305
56.3765 8.57903 911.305
56.3765 10.2131 911.305
56.0717 11.7832 906.379
37.721 127.103 609.746
37.721 128.197 609.746
37.721 129.29 609.746
37.6867 130.265 609.192
37.5163 130.763 606.438
37.4486 131.613 605.343
37.1137 131.511 599.929
37.1137 132.587 599.929
36.9155 132.949 596.726
36.59 132.838 591.464
36.4614 133.428 589.385
36.3974 134.248 588.351
36.3974 135.303 588.351
36.3974 136.358 588.351
36.2069 136.694 585.271
36.1438 137.504 584.251
36.1438 138.551 584.251
36.1123 139.477 583.743
36.0183 140.158 582.223
35.8007 140.349 578.706
35.6776 140.901 576.716
35.7083 142.057 577.212
35.4339 143.019 572.776
35.4036 143.924 572.287
35.2532 144.334 569.856
35.1636 144.986 568.407
35.1636 146.005 568.407
35.1636 147.025 568.407
35.1338 147.919 567.926
35.1041 148.811 567.445
35.0152 149.449 566.009
34.9268 150.084 564.579
34.3486 149.59 555.232
34.2352 150.089 553.4
34.207 150.957 552.943
34.0945 151.449 551.126
34.0386 152.187 550.222
34.0107 153.048 549.771
33.8719 153.405 547.527
33.7617 153.885 545.745
33.5704 153.986 542.654
33.4892 154.584 541.34
33.4622 155.429 540.904
33.4083 156.147 540.033
33.3546 156.863 539.164
33.3546 157.83 539.164
33.3546 158.797 539.164
33.3546 159.763 539.164
33.1945 159.959 536.576
33.115 160.536 535.292
32.9834 160.854 533.164
32.931 161.553 532.318
32.7232 161.482 528.959
32.5691 161.666 526.468
32.4672 162.101 524.82
32.3155 162.28 522.368
32.2903 163.09 521.961
32.2903 164.025 521.961
32.1154 164.068 519.133
32.0905 164.871 518.732
32.0163 165.417 517.531
31.9916 166.217 517.132
31.9423 166.887 516.336
31.8932 167.555 515.542
31.7225 167.578 512.783
31.6258 167.984 511.22
31.4818 168.131 508.893
31.3392 168.278 506.586
31.3392 169.186 506.586
31.2919 169.838 505.822
31.151 169.976 503.544
31.1042 170.623 502.789
31.0577 171.267 502.036
30.965 171.654 500.538
30.9188 172.294 499.792
30.8728 172.933 499.048
30.8041 173.44 497.936
30.7584 174.075 497.198
30.7584 174.966 497.198
30.7356 175.727 496.83
30.7356 176.618 496.83
30.7356 177.509 496.83
30.7356 178.4 496.83
30.6675 178.894 495.728
30.0457 177.879 485.677
30.0457 178.75 485.677
29.9589 179.102 484.275
29.9373 179.841 483.925
29.9157 180.578 483.576
29.8941 181.314 483.228
29.8726 182.05 482.88
29.7868 182.39 481.493
29.7441 182.991 480.803
29.7016 183.59 480.115
29.6591 184.187 479.428
29.5956 184.651 478.403
29.5956 185.509 478.403
29.5956 186.367 478.403
43.5671 -70.8733 684.409
43.5671 -69.646 684.409
43.5671 -68.4188 684.409
43.8355 -67.6054 688.625
43.9257 -66.5072 690.042
44.1072 -65.5396 692.893
44.2902 -64.5639 695.768
44.1072 -63.0547 692.893
43.9709 -61.6212 690.752
43.9257 -60.3205 690.042
43.8805 -59.0224 689.332
43.8355 -57.727 688.625
43.8355 -56.4922 688.625
43.7905 -55.2007 687.918
43.7457 -53.9119 687.214
43.7905 -52.7337 687.918
43.7905 -51.5001 687.918
43.5671 -50.0101 684.409
58.0106 11.8472 911.305
38.8143 127.103 609.746
38.8143 128.197 609.746
38.7791 129.173 609.192
38.7439 130.147 608.639
38.5341 130.527 605.343
38.2579 130.669 601.004
38.1212 131.277 598.858
38.1212 132.35 598.858
37.5182 132.371 589.385
37.4853 133.31 588.868
37.4524 134.248 588.351
37.4853 135.422 588.868
37.4853 136.478 588.868
37.4196 137.293 587.836
37.2889 137.864 585.782
37.1914 138.551 584.251
37.1268 139.356 583.235
36.9341 139.673 580.208
36.8703 140.471 579.206
36.775 141.143 577.709
36.775 142.179 577.709
36.3988 141.75 571.799
36.3678 142.654 571.312
36.3988 143.801 571.799
36.2135 144.089 568.889
36.1829 144.986 568.407
36.1829 146.005 568.407
36.1829 147.025 568.407
36.1522 147.919 567.926
36.1216 148.811 567.445
35.9998 149.323 565.532
35.909 149.958 564.105
35.2275 149.097 553.4
35.1985 149.965 552.943
35.1405 150.708 552.033
35.0252 151.201 550.222
34.9965 152.062 549.771
34.9679 152.923 549.321
34.7403 152.906 545.745
34.712 153.76 545.301
34.5715 154.111 543.093
34.5156 154.834 542.215
34.4599 155.555 541.34
34.4321 156.399 540.904
34.3214 156.863 539.164
34.349 157.957 539.598
34.3214 158.797 539.164
34.3214 159.763 539.164
34.1021 159.703 535.719
33.9664 160.025 533.588
33.9124 160.726 532.741
33.8855 161.553 532.318
33.6983 161.61 529.377
33.6187 162.175 528.126
33.5132 162.61 526.468
33.2522 162.28 522.368
33.1489 162.71 520.746
33.0975 163.39 519.938
33.0463 164.068 519.133
33.0207 164.871 518.732
32.9697 165.545 517.931
32.8935 166.089 516.734
32.8682 166.887 516.336
32.667 166.786 513.176
32.5922 167.322 512
32.493 167.728 510.442
32.3944 168.131 508.893
32.2476 168.278 506.586
32.2719 169.314 506.969
32.2232 169.966 506.204
32.078 170.104 503.922
32.0298 170.751 503.166
31.934 171.139 501.661
31.8625 171.654 500.538
31.7913 172.166 499.42
31.7205 172.676 498.306
31.6265 173.055 496.83
31.6031 173.817 496.462
31.5564 175.338 495.728
31.6031 176.488 496.462
31.6499 177.641 497.198
31.6969 178.797 497.936
31.5797 179.026 496.095
31.3939 178.857 493.177
30.8719 179.361 484.975
30.8495 180.1 484.625
30.8495 180.969 484.625
30.8495 181.839 484.625
30.7606 182.181 483.228
30.7385 182.916 482.88
30.7164 183.649 482.533
30.5844 183.722 480.459
30.4318 183.662 478.062
30.4535 184.651 478.403
30.4318 185.377 478.062
30.4318 186.234 478.062
30.4318 187.091 478.062
44.6123 -69.3629 681.626
44.5218 -68.0024 680.244
45.163 -66.5072 690.042
45.5378 -64.5639 695.768
45.2562 -62.9247 691.464
45.3497 -61.8122 692.893
45.163 -60.3205 690.042
45.1166 -59.0224 689.332
45.163 -57.8458 690.042
45.1166 -56.5503 689.332
44.9779 -55.1442 687.214
44.9319 -53.8567 686.51
44.9779 -52.6796 687.214
44.9319 -51.3947 686.51
44.8401 -50.0612 685.108
59.6447 11.8472 911.305
40.2001 125.832 614.213
40.2001 126.933 614.213
39.9077 127.103 609.746
39.9077 128.197 609.746
39.8714 129.173 609.192
39.7991 130.029 608.087
39.6553 130.645 605.89
39.2652 130.436 599.929
39.0556 130.809 596.726
39.0209 131.762 596.196
38.5074 133.193 588.351
38.44 134.013 587.321
38.44 135.067 587.321
38.5074 136.358 588.351
38.4064 137.053 586.807
38.2724 137.623 584.761
38.0073 137.711 580.71
37.9745 138.633 580.208
37.9089 139.432 579.206
37.7784 139.987 577.212
37.7135 140.78 576.22
37.6811 141.691 575.726
37.3922 141.629 571.312
37.2652 142.169 569.372
37.2969 143.312 569.856
37.2336 144.089 568.889
37.2021 144.986 568.407
37.1706 145.882 567.926
37.2021 147.025 568.407
37.1077 147.669 566.966
37.0764 148.56 566.487
36.7659 148.323 561.742
36.6737 148.956 560.335
36.19 148.974 552.943
36.1602 149.842 552.488
36.0414 150.337 550.674
36.0119 151.201 550.222
35.9823 152.062 549.771
35.9529 152.923 549.321
35.6319 152.534 544.416
35.5453 153.137 543.093
35.5453 154.111 543.093
35.4592 154.709 541.777
35.3165 155.054 539.598
35.2882 155.896 539.164
35.2598 156.737 538.731
35.2598 157.703 538.731
35.2598 158.669 538.731
35.2598 159.635 538.731
35.0627 159.703 535.719
34.9789 160.28 534.439
34.8677 160.726 532.741
34.8124 161.425 531.896
34.6749 161.737 529.795
34.593 162.303 528.542
34.4302 162.482 526.055
34.1888 162.28 522.368
34.1622 163.09 521.961
34.1622 164.025 521.961
34.0298 164.322 519.938
33.9771 164.999 519.133
33.9509 165.801 518.732
33.9246 166.602 518.331
33.8201 167.016 516.734
33.6645 167.169 514.356
33.4592 167.067 511.22
33.3829 167.6 510.054
33.3069 168.131 508.893
33.2061 168.532 507.353
33.2312 169.57 507.737
33.181 170.223 506.969
33.0312 170.36 504.681
32.9321 170.751 503.166
32.8336 171.139 501.661
32.76 171.654 500.538
32.6869 172.166 499.42
32.5898 172.547 497.936
32.4933 172.927 496.462
32.4453 173.56 495.728
32.4213 174.32 495.362
32.4213 176.097 495.362
32.3735 176.724 494.632
32.3974 177.742 494.997
32.3735 178.498 494.632
32.3496 179.252 494.267
31.7874 180.492 485.677
31.7185 181.839 484.625
31.6044 182.05 482.88
31.6044 182.916 482.88
31.6044 183.782 482.88
31.5136 184.117 481.493
31.3113 183.793 478.403
31.289 184.519 478.062
31.3113 185.509 478.403
31.289 186.234 478.062
45.9279 -69.5042 683.015
45.8345 -68.1406 681.626
45.9279 -67.0547 683.015
46.0216 -65.9643 684.409
45.9279 -64.6052 683.015
45.8345 -63.2516 681.626
45.8345 -60.8071 681.626
45.8345 -59.5849 681.626
45.8811 -58.422 682.32
46.0216 -57.3736 684.409
46.0216 -56.1463 684.409
46.0686 -54.9752 685.108
46.0686 -53.7467 685.108
46.0686 -52.5182 685.108
46.0216 -51.2374 684.409
46.0216 -50.0101 684.409
61.2788 10.2131 911.305
60.7832 11.7514 903.936
60.7832 13.3723 903.936
60.7832 14.9932 903.936
41.4533 125.189 616.471
41.2636 125.717 613.651
41.3014 126.933 614.213
41.1507 127.567 611.971
41.1132 128.547 611.413
41.0011 129.29 609.746
40.8895 130.029 608.087
40.705 130.527 605.343
40.1256 129.739 596.726
40.0899 130.693 596.196
39.9833 131.412 594.61
39.4931 130.854 587.321
39.3553 131.447 585.271
39.2867 132.265 584.251
39.4241 133.779 586.294
39.4241 134.83 586.294
39.4931 136.12 587.321
39.321 136.575 584.761
39.1503 137.026 582.223
38.9811 137.473 579.706
38.9139 138.274 578.706
38.9475 139.432 579.206
38.8468 140.108 577.709
38.7467 140.78 576.22
38.7467 141.813 576.22
38.4822 141.871 572.287
38.4167 142.654 571.312
38.384 143.556 570.826
38.2862 144.211 569.372
38.2213 144.986 568.407
38.189 145.882 567.926
38.1567 146.776 567.445
37.9959 147.171 565.055
37.9639 148.059 564.579
37.7732 148.323 561.742
37.7416 149.205 561.272
37.2122 149.097 553.4
37.2122 150.089 553.4
37.0593 150.461 551.126
36.9682 151.077 549.771
36.9682 152.062 549.771
36.9682 153.048 549.771
36.7273 153.031 546.189
36.6081 153.51 544.416
36.5192 154.111 543.093
36.4013 154.584 541.34
36.2841 155.054 539.598
36.2841 156.022 539.598
36.2841 156.989 539.598
36.3133 158.084 540.033
36.255 158.797 539.164
36.2258 159.635 538.731
36.0233 159.703 535.719
35.9372 160.28 534.439
35.823 160.726 532.741
35.7946 161.553 532.318
35.7095 162.121 531.053
35.5968 162.559 529.377
35.4012 162.61 526.468
35.0982 162.154 521.961
34.9893 162.583 520.342
34.9621 163.39 519.938
34.908 164.068 519.133
34.8541 164.744 518.331
34.8541 165.673 518.331
34.8541 166.602 518.331
34.7199 166.887 516.336
34.481 166.658 512.783
34.3236 166.813 510.442
34.2975 167.6 510.054
34.2454 168.259 509.279
34.0901 168.405 506.969
34.0901 169.314 506.969
34.0901 170.223 506.969
33.9873 170.616 505.441
33.8343 170.751 503.166
33.7079 171.011 501.286
33.6576 171.654 500.538
33.5574 172.038 499.048
33.5075 172.676 498.306
33.3342 173.56 495.728
33.3342 174.449 495.728
33.3096 175.208 495.362
33.3096 176.097 495.362
33.2359 177.48 494.267
33.1626 177.973 493.177
33.1626 178.857 493.177
32.5171 182.312 483.576
32.5171 183.179 483.576
32.5405 184.179 483.925
32.4469 184.515 482.533
32.1462 183.662 478.062
32.0548 183.995 476.703
32.0321 184.718 476.364
47.2971 -70.9457 685.108
47.2007 -69.575 683.711
47.1046 -68.21 682.32
47.1046 -66.9865 682.32
47.1046 -65.763 682.32
47.1046 -64.5395 682.32
47.009 -63.1874 680.934
47.009 -61.9664 680.934
47.0568 -60.8071 681.626
47.1046 -59.6455 682.32
47.1046 -58.422 682.32
47.2007 -57.3151 683.711
47.2007 -56.0891 683.711
47.2488 -54.9191 684.409
47.2488 -53.6919 684.409
47.2488 -52.4646 684.409
47.2488 -51.2374 684.409
47.2488 -50.0101 684.409
62.5728 11.7832 906.379
62.5728 13.4085 906.379
62.2364 14.9529 901.506
42.5587 124.083 616.471
42.6764 125.535 618.175
42.4417 125.947 614.776
42.364 126.817 613.651
42.2866 127.684 612.53
42.2095 128.547 611.413
42.1327 129.408 610.301
41.9799 130.029 608.087
41.159 129.624 596.196
41.0495 130.346 594.61
40.9045 130.947 592.509
40.3695 130.284 584.761
40.3344 131.218 584.251
40.3344 132.265 584.251
40.3344 133.313 584.251
40.2642 134.127 583.235
40.3344 135.408 584.251
40.3344 136.456 584.251
40.1943 137.026 582.223
40.0552 137.592 580.208
40.0206 138.513 579.706
40.0206 139.552 579.706
39.8484 139.987 577.212
39.8142 140.901 576.716
39.7799 141.813 576.22
39.5422 141.992 572.776
39.5084 142.897 572.287
39.4411 143.678 571.312
39.3072 144.211 569.372
39.2406 144.986 568.407
39.075 145.389 566.009
39.042 146.281 565.532
39.0091 147.171 565.055
39.0091 148.184 565.055
38.8455 148.572 562.685
38.748 149.205 561.272
38.2045 150.089 553.4
38.1102 150.708 552.033
37.9851 151.201 550.222
37.9851 152.187 550.222
37.954 153.048 549.771
37.8609 153.656 548.422
37.676 153.885 545.745
37.493 154.111 543.093
37.4021 154.709 541.777
37.2218 154.929 539.164
37.2218 155.896 539.164
37.2218 156.863 539.164
37.2817 158.084 540.033
37.2517 158.924 539.598
37.2218 159.763 539.164
36.9839 159.703 535.719
36.8661 160.152 534.013
36.7491 160.598 532.318
36.72 161.425 531.896
36.5749 161.737 529.795
36.4885 162.303 528.542
36.3453 162.61 526.468
36.0341 162.154 521.961
35.9223 162.583 520.342
35.8667 163.263 519.536
35.8389 164.068 519.133
35.8112 164.871 518.732
35.8389 165.929 519.133
35.8112 166.731 518.732
35.6458 166.887 516.336
35.6184 167.684 515.939
35.1853 166.559 509.666
35.1853 167.473 509.666
35.1853 168.387 509.666
35.0787 168.788 508.122
35.0787 169.699 508.122
35.0787 170.61 508.122
34.9727 171.003 506.586
34.8149 171.136 504.301
34.7627 171.782 503.544
34.5551 171.654 500.538
34.4011 171.782 498.306
34.35 172.419 497.567
34.1726 172.416 494.997
34.1726 173.304 494.997
34.1474 174.063 494.632
34.0971 174.692 493.903
34.072 175.449 493.54
34.1222 176.594 494.267
34.1222 178.366 494.267
34.1222 179.252 494.267
33.4565 180.1 484.625
33.4807 181.1 484.975
33.4083 181.576 483.925
33.4083 182.444 483.925
33.3842 183.179 483.576
33.2882 184.382 482.186
33.0742 184.056 479.086
48.4761 -70.8733 684.409
48.3281 -69.4335 682.32
48.1323 -67.9335 679.555
48.1323 -66.715 679.555
48.1811 -65.5629 680.244
48.3281 -64.5395 682.32
48.23 -63.1874 680.934
48.279 -62.0294 681.626
48.3281 -60.869 682.32
48.3281 -59.6455 682.32
48.23 -58.3034 680.934
48.1811 -57.0245 680.244
48.4267 -56.0891 683.711
48.4267 -54.8631 683.711
48.4267 -53.6371 683.711
48.4761 -52.4646 684.409
48.4761 -51.2374 684.409
48.4761 -50.0101 684.409
64.1981 11.7832 906.379
64.1981 13.4085 906.379
64.1114 15.0134 905.156
43.5042 123.629 614.213
43.584 124.959 615.34
43.5042 125.832 614.213
43.385 126.585 612.53
43.2664 127.335 610.857
43.2271 128.313 610.301
43.1878 129.29 609.746
43.0703 130.029 608.087
42.1905 129.509 595.666
42.0784 130.23 594.084
42.004 131.063 593.033
41.5267 133.779 586.294
41.4904 134.713 585.782
41.4904 135.763 585.782
41.4181 136.575 584.761
41.382 137.504 584.251
41.0956 137.592 580.208
40.9893 138.274 578.706
40.9187 139.072 577.709
40.8483 139.867 576.716
40.8483 140.901 576.716
40.8132 141.813 576.22
40.5692 141.992 572.776
40.5346 142.897 572.287
40.4311 143.556 570.826
40.2939 144.089 568.889
40.2257 144.863 567.926
40.1917 145.758 567.445
40.0561 146.281 565.532
39.9887 147.047 564.579
39.9551 147.935 564.105
39.7877 148.323 561.742
39.7212 149.08 560.803
39.688 149.96 560.335
39.0358 151.449 551.126
38.9717 152.187 550.222
38.9398 153.048 549.771
38.7492 153.28 547.08
38.498 153.261 543.534
38.25 154.211 540.033
38.1885 154.929 539.164
38.2193 156.022 539.598
38.1885 156.863 539.164
38.1579 157.703 538.731
38.1273 158.542 538.299
38.0662 159.251 537.436
37.9445 159.703 535.719
37.7636 159.898 533.164
37.7336 160.726 532.741
37.7036 161.553 532.318
37.5843 161.993 530.633
37.4067 162.175 528.126
37.26 162.482 526.055
36.884 161.776 520.746
36.884 162.71 520.746
36.7983 163.263 519.536
36.7698 164.068 519.133
36.7698 164.999 519.133
36.7413 165.801 518.732
36.7413 166.731 518.732
36.5716 166.887 516.336
36.5154 167.555 515.542
36.0444 166.306 508.893
36.0718 167.346 509.279
36.0992 168.387 509.666
35.9082 168.405 506.969
35.9082 169.314 506.969
35.8811 170.095 506.586
35.854 170.874 506.204
35.827 171.652 505.822
35.7192 172.04 504.301
35.6388 172.555 503.166
35.4527 172.551 500.538
35.3471 172.933 499.048
35.112 172.671 495.728
35.0861 173.432 495.362
35.0602 174.191 494.997
35.0343 174.95 494.632
34.9827 175.578 493.903
35.0085 176.594 494.267
35.0085 178.366 494.267
35.0085 179.252 494.267
35.0085 180.139 494.267
34.202 178.586 482.88
34.202 179.452 482.88
34.2266 180.448 483.228
34.202 181.184 482.88
34.0549 182.991 480.803
34.0305 183.722 480.459
49.4009 -70.442 680.244
49.4009 -69.2222 680.244
49.3508 -67.9335 679.555
49.3508 -66.715 679.555
49.4009 -65.5629 680.244
49.451 -64.4084 680.934
49.4009 -63.1233 680.244
49.4009 -61.9035 680.244
49.451 -60.7454 680.934
49.6021 -59.7062 683.015
49.5516 -58.422 682.32
49.6021 -57.2567 683.015
49.6527 -56.0891 683.711
49.7033 -54.9191 684.409
49.7033 -53.6919 684.409
49.7033 -52.4646 684.409
49.7033 -51.2374 684.409
49.6527 -49.9592 683.711
66.1811 11.8472 911.305
65.6459 13.3723 903.936
65.1193 14.8729 896.685
44.7695 124.083 616.471
44.6464 124.845 614.776
44.3618 125.144 610.857
44.3214 126.125 610.301
44.3618 127.335 610.857
44.3214 128.313 610.301
44.2811 129.29 609.746
44.1207 129.911 607.537
43.3356 129.739 596.726
43.2971 130.693 596.196
43.2587 131.645 595.666
43.0674 132.127 593.033
42.7274 134.248 588.351
42.69 135.185 587.836
42.578 135.882 586.294
42.5408 136.813 585.782
42.4667 137.623 584.761
41.9907 137.118 578.207
41.8824 137.798 576.716
41.8105 138.594 575.726
41.8105 139.626 575.726
41.8105 140.659 575.726
41.7389 141.448 574.739
41.5963 141.992 572.776
41.5608 142.897 572.287
41.4547 143.556 570.826
41.3491 144.211 569.372
41.279 144.986 568.407
41.2092 145.758 567.445
41.0356 146.158 565.055
40.9666 146.923 564.105
40.9321 147.811 563.631
40.7609 148.199 561.272
40.7609 149.205 561.272
40.7609 150.211 561.272
40.6928 150.965 560.335
39.9584 151.201 550.222
39.9584 152.187 550.222
39.9256 153.048 549.771
39.7302 153.28 547.08
39.4727 153.261 543.534
39.3451 154.709 541.777
39.1869 155.054 539.598
39.1869 156.022 539.598
39.1869 156.989 539.598
39.1553 157.83 539.164
38.9052 157.782 535.719
38.9363 158.87 536.147
38.8741 159.576 535.292
38.7196 159.898 533.164
38.6581 160.598 532.318
38.6275 161.425 531.896
38.4446 161.61 529.377
38.2033 161.539 526.055
38.1435 162.228 525.231
37.9356 162.28 522.368
37.9356 163.217 522.368
37.906 164.025 521.961
37.7299 164.195 519.536
37.7007 164.999 519.133
37.7299 166.058 519.536
37.7007 166.86 519.133
37.6715 167.661 518.732
37.0413 166.686 510.054
37.0131 167.473 509.666
36.985 168.259 509.279
36.8173 168.405 506.969
36.7895 169.186 506.586
36.7617 169.966 506.204
36.7617 170.874 506.204
36.734 171.652 505.822
36.6511 172.169 504.681
36.596 172.814 503.922
36.3502 172.551 500.538
36.1613 172.547 497.936
36.0809 173.055 496.83
36.0809 173.946 496.83
35.9743 174.32 495.362
35.9213 174.95 494.632
35.8948 175.707 494.267
35.9213 176.724 494.632
35.8948 178.366 494.267
