ply
format ascii 1.0
element vertex 1920
property float x
property float y
property float z
end_header
-52.0971 153.066 553.4
-52.0541 153.931 552.943
-51.8404 154.287 550.674
-51.3764 153.885 545.745
-51.3347 154.737 545.301
-51.1683 155.21 543.534
-51.0855 155.932 542.654
-50.9207 156.399 540.904
-50.7978 156.989 539.598
-50.7569 157.83 539.164
-50.7162 158.669 538.731
-50.5943 159.251 537.436
-50.4729 159.831 536.147
-50.3924 160.536 535.292
-50.1522 160.726 532.741
-50.0727 161.425 531.896
-49.9538 161.993 530.633
-49.8355 162.559 529.377
-49.7178 163.122 528.126
-49.484 163.297 525.643
-49.484 164.24 525.643
-49.4453 165.053 525.231
-49.1757 165.09 522.368
-48.8712 164.999 519.133
-48.8334 165.801 518.732
-48.6828 166.217 517.132
-48.6079 166.887 516.336
-48.5705 167.684 515.939
-48.5705 168.609 515.939
-48.2734 168.497 512.783
-48.0896 168.772 510.831
-47.98 169.301 509.666
-47.8346 169.699 508.122
-47.7622 170.352 507.353
-47.6901 171.003 506.586
-47.6901 171.911 506.586
-47.6901 172.82 506.586
-46.841 172.419 497.567
-46.8757 173.44 497.936
-46.8757 174.333 497.936
-46.9454 175.487 498.677
-46.9454 176.381 498.677
-47.0855 177.804 500.164
-47.1206 178.834 500.538
-47.1206 179.731 500.538
-46.3595 177.711 492.453
-46.2576 178.202 491.37
-46.0552 179.177 489.22
-45.8212 179.139 486.735
-45.7548 179.751 486.029
-45.5896 179.97 484.275
-45.2953 179.671 481.148
-45.2304 180.275 480.459
-45.1334 180.749 479.428
-44.9727 180.961 477.721
-44.8449 181.302 476.364
-44.8131 182.026 476.026
-44.7179 182.491 475.014
-44.5286 182.567 473.005
-44.4659 183.157 472.338
-44.4973 184.134 472.671
-44.341 184.332 471.012
-44.1859 184.529 469.363
-44.0318 185.563 467.727
-61.2045 -105.474 662.767
-61.265 -104.388 663.423
-61.2045 -103.097 662.767
-64.7897 -106.62 701.59
-64.8575 -105.472 702.325
-65.0619 -104.541 704.538
-65.2676 -103.604 706.765
-65.4054 -102.553 708.258
-65.6133 -101.605 710.509
-65.6829 -100.437 711.262
-65.8925 -99.4784 713.532
-60.6056 -86.7896 656.282
-60.4872 -85.4456 655
-60.4282 -84.1888 654.361
-60.3105 -82.8538 653.087
-60.2519 -81.6033 652.452
-60.0183 -80.1216 649.923
-60.1933 -79.1864 651.818
-60.8437 -78.8606 658.861
-60.7244 -77.5268 657.569
-60.7244 -76.3477 657.569
-60.7244 -75.1686 657.569
-60.7244 -73.9895 657.569
-60.665 -72.7391 656.925
-60.784 -71.7015 658.214
-60.784 -70.5213 658.214
-60.8437 -69.4091 658.861
-60.784 -68.1607 658.214
-60.784 -66.9805 658.214
-60.9635 -65.9945 660.158
-61.3257 -65.1957 664.08
-61.5695 -64.2594 666.72
-61.3257 -62.8142 664.08
-61.6308 -61.93 667.384
-61.7537 -60.8543 668.714
-61.6308 -59.5365 667.384
-61.6308 -58.3398 667.384
-61.8771 -57.3714 670.05
-62.0631 -56.3388 672.065
-62.1253 -55.189 672.739
-62.1253 -53.9827 672.739
-62.1253 -52.7764 672.739
-62.1253 -51.57 672.739
-62.1877 -50.4143 673.414
-62.2502 -49.2562 674.091
-62.1877 -47.9992 673.414
-61.9389 -46.6045 670.72
-58.4329 -29.2165 632.755
-58.4329 -28.0819 632.755
-58.6543 -27.0493 635.152
-58.4881 -25.837 633.353
-58.5434 -24.7246 633.951
-58.6543 -23.6326 635.152
-59.3854 -22.774 643.068
-59.5567 -21.6833 644.923
-59.5567 -20.5268 644.923
-59.5567 -19.3704 644.923
-61.9389 -10.5236 670.72
-62.0631 -9.33959 672.065
-62.1877 -8.15081 673.414
-62.1877 -6.94328 673.414
-62.0631 -5.72426 672.065
-62.1253 -4.52369 672.739
-62.1253 -3.31737 672.739
-62.1253 -2.11105 672.739
-62.1877 -0.905646 673.414
-62.1877 0.301882 673.414
-62.0631 1.50638 672.065
-61.8153 2.70067 669.382
-61.8153 3.90097 669.382
-61.5695 5.08098 666.72
-61.2045 6.23929 662.767
-60.4872 7.34068 655
-60.2519 8.48206 652.452
-60.0183 9.61459 649.923
-60.0183 10.78 649.923
-59.9602 11.9338 649.294
-60.0183 13.1108 649.923
-60.1349 14.3039 651.185
-60.2519 15.5017 652.452
-60.3105 16.6879 653.087
-60.4872 17.9113 655
-60.5464 19.1044 655.641
-60.665 20.3198 656.925
-60.4872 21.4348 655
-60.665 22.6757 656.925
-60.6056 23.8304 656.282
-60.4872 24.9583 655
-60.665 26.2096 656.925
-60.7244 27.4144 657.569
-60.7244 28.5935 657.569
-60.784 29.8019 658.214
-60.784 30.9821 658.214
-61.1441 32.3529 662.113
-61.0838 33.5071 661.46
-61.1441 34.7275 662.113
-61.265 35.9858 663.423
-61.265 37.1754 663.423
-61.4473 38.4792 665.397
-61.3257 39.5938 664.08
-61.4473 40.8655 665.397
-61.3257 41.9753 664.08
-61.265 43.1234 663.423
-61.5084 44.4891 666.058
-61.5084 45.6834 666.058
-61.4473 46.8312 665.397
-61.4473 48.0244 665.397
-61.5084 49.2664 666.058
-61.5695 50.5109 666.72
-61.5695 51.7064 666.72
-61.6308 52.9546 667.384
-61.7537 54.2593 668.714
-61.7537 55.4584 668.714
-61.6922 56.6011 668.048
-61.6922 57.799 668.048
-61.6922 58.9969 668.048
-61.6922 60.1948 668.048
-61.6308 61.3316 667.384
-61.6308 62.5283 667.384
-61.6922 63.7885 668.048
-61.6922 64.9864 668.048
-61.6922 66.1843 668.048
-61.6922 67.3822 668.048
-61.8153 68.717 669.382
-61.6922 69.778 668.048
-61.7537 71.0467 668.714
-61.7537 72.2458 668.714
-61.8153 73.5182 669.382
-61.8153 74.7185 669.382
-61.7537 75.8431 668.714
-61.8153 77.1191 669.382
-61.8153 78.3194 669.382
-61.8153 79.5197 669.382
-61.9389 80.8814 670.72
-62.1253 82.3311 672.739
-62.1253 83.5374 672.739
-62.1253 84.7437 672.739
-62.0631 85.8639 672.065
-62.0631 87.069 672.065
-61.9389 88.0976 670.72
-61.9389 89.3003 670.72
-53.6268 127.299 580.71
-54.5237 136.839 590.423
-54.6681 138.262 591.986
-54.7164 139.447 592.509
-54.6199 140.262 591.464
-53.5804 140.714 580.208
-53.5341 141.631 579.706
-53.3037 142.057 577.212
-53.3956 143.339 578.207
-53.2121 143.879 576.22
-52.9845 144.293 573.756
-52.8489 144.95 572.287
-52.6692 145.479 570.34
-52.5797 146.253 569.372
-52.4462 146.9 567.926
-52.4906 148.044 568.407
-52.4462 148.937 567.926
-52.2251 149.323 565.532
-52.1371 150.084 564.579
-52.0495 150.843 563.631
-51.7884 151.091 560.803
-51.4016 150.961 556.615
-51.359 151.833 556.153
-51.3164 152.704 555.692
-51.1047 153.066 553.4
-50.8948 153.425 551.126
-50.7696 154.034 549.771
-50.4389 154.01 546.189
-50.3978 154.863 545.745
-50.3159 155.589 544.858
-50.153 156.059 543.093
-50.1124 156.905 542.654
-49.9507 157.369 540.904
-49.7901 157.83 539.164
-49.7501 158.669 538.731
-49.6306 159.251 537.436
-49.5115 159.831 536.147
-49.472 160.664 535.719
-49.1189 160.471 531.896
-48.9636 160.914 530.214
-48.8863 161.61 529.377
-48.8477 162.431 528.959
-48.6941 162.865 527.296
-48.5415 163.297 525.643
-48.5415 164.24 525.643
-48.5415 165.182 525.643
-48.3143 165.347 523.183
-47.9775 165.126 519.536
-47.9033 165.801 518.732
-47.8293 166.474 517.931
-47.7187 167.016 516.734
-47.6453 167.684 515.939
-47.4264 167.834 513.568
-47.3177 168.368 512.391
-47.1736 168.772 510.831
-46.9946 169.044 508.893
-46.8879 169.57 507.737
-46.817 170.223 506.969
-46.7817 171.003 506.586
-46.7817 171.911 506.586
-46.7817 172.82 506.586
-46.7817 173.728 506.586
-45.9488 171.527 497.567
-45.9488 172.419 497.567
-45.9829 173.44 497.936
-45.9488 174.204 497.567
-45.9488 175.096 497.567
-45.9147 175.858 497.198
-46.017 177.143 498.306
-46.017 178.037 498.306
-45.4431 177.581 492.091
-45.3101 177.941 490.651
-45.3101 178.821 490.651
-45.1779 179.177 489.22
-45.1121 179.791 488.507
-44.9158 179.881 486.382
-44.6568 179.711 483.576
-44.4007 179.543 480.803
-44.3689 180.275 480.459
-44.2737 180.749 479.428
-44.116 180.961 477.721
-43.9907 181.302 476.364
-44.0846 182.545 477.381
-43.9283 182.75 475.688
-43.8351 183.214 474.678
-43.6805 183.416 473.005
-43.6497 184.134 472.671
-43.5883 184.721 472.006
-43.3746 184.658 469.692
-43.2534 184.982 468.38
-43.1931 185.563 467.727
-60.374 -106.103 666.72
-60.1349 -104.492 664.08
-60.1349 -103.301 664.08
-60.4943 -101.523 668.048
-63.6648 -105.583 703.061
-63.7986 -104.541 704.538
-64.0678 -103.714 707.511
-64.4758 -103.097 712.017
-64.5443 -101.929 712.774
-64.613 -100.758 713.532
-64.8199 -99.797 715.817
-59.487 -86.8746 656.925
-59.3127 -85.4456 655
-59.1395 -84.0249 653.087
-59.0245 -82.6928 651.818
-59.0245 -81.524 651.818
-59.0819 -80.4333 652.452
-59.5453 -79.8851 657.569
-59.6623 -78.8606 658.861
-59.6038 -77.6029 658.214
-59.6038 -76.4226 658.214
-59.5453 -75.1686 657.569
-58.5692 -72.7765 646.789
-59.5453 -72.8104 657.569
-59.6038 -71.7015 658.214
-59.6038 -70.5213 658.214
-59.6038 -69.341 658.214
-59.5453 -68.0939 657.569
-59.6038 -66.9805 658.214
-59.4288 -65.607 656.282
-60.2542 -65.3251 665.397
-60.4943 -64.3875 668.048
-60.4341 -63.1267 667.384
-60.4943 -61.9916 668.048
-60.5546 -60.8543 668.714
-60.4341 -59.5365 667.384
-60.4341 -58.3398 667.384
-60.6756 -57.3714 670.05
-60.919 -56.3953 672.739
-60.919 -55.189 672.739
-60.919 -53.9827 672.739
-60.858 -52.7235 672.065
-60.858 -51.5184 672.065
-60.797 -50.2629 671.392
-60.919 -49.1574 672.739
-60.9802 -47.9992 673.414
-60.9802 -46.7917 673.414
-60.9802 -45.5842 673.414
-57.3524 -30.3798 633.353
-57.3524 -29.2441 633.353
-57.5154 -28.1882 635.152
-57.5154 -27.0493 635.152
-57.2983 -25.8126 632.755
-57.3524 -24.7013 633.353
-57.2983 -23.5434 632.755
-58.4002 -22.8397 644.923
-58.1765 -21.6002 642.452
-60.615 -11.7029 669.382
-60.858 -10.5447 672.065
-60.919 -9.34895 672.739
-60.7362 -8.11821 670.72
-60.858 -6.92937 672.065
-60.6756 -5.70711 670.05
-60.7362 -4.51012 670.72
-60.7362 -3.30742 670.72
-60.797 -2.10683 671.392
-60.858 -0.903831 672.065
-60.858 0.301277 672.065
-60.615 1.50037 669.382
-60.615 2.70067 669.382
-60.5546 3.89708 668.714
-60.016 6.23929 662.767
-59.3127 7.34068 655
-59.3127 8.51519 655
-58.9672 9.63326 651.185
-58.91 10.7904 650.553
-58.8529 11.9454 649.923
-58.91 13.1235 650.553
-58.9672 14.3039 651.185
-59.0245 15.4866 651.818
-59.1395 16.6879 653.087
-59.3127 17.9113 655
-59.4288 19.1231 656.282
-59.5453 20.3397 657.569
-59.487 21.4978 656.925
-59.5453 22.698 657.569
-59.5453 23.8771 657.569
-59.4288 25.0072 656.282
-59.5453 26.2353 657.569
-59.6038 27.4413 658.214
-59.6038 28.6216 658.214
-59.6038 29.8019 658.214
-59.6623 31.0126 658.861
-59.8977 32.321 661.46
-59.7798 33.4412 660.158
-59.8977 34.6932 661.46
-60.2542 36.0929 665.397
-60.4943 37.4346 668.048
-60.4341 38.594 667.384
-60.374 39.7512 666.72
-60.4341 40.9875 667.384
-60.2542 42.0586 665.397
-60.1349 43.1661 664.08
-60.374 44.5333 666.72
-60.374 45.7288 666.72
-60.314 46.8777 666.058
-60.314 48.0721 666.058
-60.374 49.3154 666.72
-60.4341 50.5612 667.384
-60.374 51.7064 666.72
-60.4341 52.9546 667.384
-60.5546 55.4584 668.714
-60.4943 56.6011 668.048
-60.4943 57.799 668.048
-60.4943 58.9969 668.048
-60.4943 60.1948 668.048
-60.4341 61.3316 667.384
-60.4943 62.5906 668.048
-60.4943 63.7885 668.048
-60.4943 64.9864 668.048
-60.4943 66.1843 668.048
-60.4943 67.3822 668.048
-60.5546 68.6485 668.714
-60.4943 69.778 668.048
-60.4943 70.9759 668.048
-60.4943 72.1738 668.048
-60.4943 73.3717 668.048
-60.4943 74.5697 668.048
-60.4341 75.6922 667.384
-60.4943 76.9655 668.048
-60.4943 78.1634 668.048
-60.615 79.5197 669.382
-60.615 80.72 669.382
-60.919 82.3311 672.739
-60.919 83.5374 672.739
-60.7362 84.4895 670.72
-60.7362 85.6922 670.72
-60.4943 86.5487 668.048
-60.7362 88.0976 670.72
-60.4943 88.9445 668.048
-60.2542 89.7847 665.397
-52.6311 127.409 581.214
-53.465 136.839 590.423
-53.5593 138.141 591.464
-53.5593 139.201 591.464
-53.371 139.769 589.385
-52.8601 139.477 583.743
-52.7224 140.158 582.223
-52.5855 140.835 580.71
-52.54 141.754 580.208
-52.3137 142.179 577.709
-52.2238 142.969 576.716
-52.0448 143.51 574.739
-51.867 144.046 572.776
-51.7785 144.826 571.799
-51.515 145.109 568.889
-51.4714 146.005 568.407
-51.2542 146.404 566.009
-51.3409 147.669 566.966
-51.1678 148.184 565.055
-51.1248 149.072 564.579
-51.0818 149.958 564.105
-51.0388 150.843 563.631
-50.7828 151.091 560.803
-50.4454 151.086 557.077
-50.4035 151.959 556.615
-50.2368 152.451 554.773
-50.1124 153.066 553.4
-50.0711 153.931 552.943
-49.9887 154.668 552.033
-49.4595 154.01 546.189
-49.4595 154.989 546.189
-49.379 155.715 545.301
-49.2589 156.312 543.974
-49.2989 157.415 544.416
-49.1393 157.878 542.654
-48.902 158.084 540.033
-48.8233 158.797 539.164
-48.6669 159.251 537.436
-48.5114 159.703 535.719
-48.4727 160.536 535.292
-48.1651 160.471 531.896
-48.0889 161.169 531.053
-47.9749 161.737 529.795
-47.9749 162.687 529.795
-47.8992 163.379 528.959
-47.7486 163.811 527.296
-47.6363 164.369 526.055
-47.5617 165.053 525.231
-47.3024 165.09 522.368
-47.0824 165.254 519.938
-47.0095 165.929 519.133
-46.9731 166.731 518.732
-46.7922 167.016 516.734
-46.7561 167.813 516.336
-46.47 167.706 513.176
-46.3635 168.24 512
-46.1872 168.515 510.054
-46.1171 169.172 509.279
-46.0123 169.699 508.122
-45.9427 170.352 507.353
-45.908 171.132 506.969
-45.908 172.041 506.969
-45.8387 172.689 506.204
-45.5978 172.685 503.544
-45.3255 172.551 500.538
-45.258 173.19 499.792
-45.258 174.086 499.792
-45.1235 174.463 498.306
-45.09 175.226 497.936
-45.0232 175.858 497.198
-45.0565 176.88 497.567
-44.9232 177.247 496.095
-44.528 178.333 491.731
-44.4954 179.083 491.37
-44.4303 179.701 490.651
-44.333 180.185 489.577
-44.0756 180.012 486.735
-43.7266 179.452 482.88
-43.5073 180.275 480.459
-43.2903 180.233 478.062
-43.2594 180.961 477.721
-43.1979 181.559 477.042
-43.2594 182.675 477.721
-43.1979 183.27 477.042
-43.0448 183.473 475.351
-42.8928 183.675 473.673
-42.8323 184.264 473.005
-42.8021 184.982 472.671
-42.7118 185.437 471.674
-42.5026 185.37 469.363
-42.4729 186.082 469.035
-59.2374 -107.405 667.384
-59.1785 -106.103 666.72
-59.061 -104.699 665.397
-59.061 -103.506 665.397
-59.2374 -102.618 667.384
-59.3555 -101.624 668.714
-59.2964 -100.325 668.048
-62.5352 -104.541 704.538
-62.7991 -103.714 707.511
-63.2662 -103.207 712.774
-63.3335 -102.037 713.532
-63.3335 -100.758 713.532
-57.9684 -86.367 653.087
-57.9684 -85.196 653.087
-57.8557 -83.8616 651.818
-57.7995 -82.6125 651.185
-57.8557 -81.524 651.818
-57.8557 -80.3552 651.818
-58.1382 -79.573 655
-58.4809 -78.8606 658.861
-58.3662 -77.5268 657.569
-58.4235 -76.4226 658.214
-57.5203 -74.0792 648.039
-57.4648 -72.8468 647.414
-57.576 -71.8245 648.666
-58.252 -71.4911 656.282
-58.3662 -70.4521 657.569
-58.309 -69.2052 656.925
-58.3662 -68.0939 657.569
-58.4235 -66.9805 658.214
-58.8276 -66.2553 662.767
-58.8276 -65.0669 662.767
-58.8858 -63.9416 663.423
-58.9441 -62.8142 664.08
-59.0025 -61.6844 664.738
-59.1785 -60.6729 666.72
-59.1785 -59.4773 666.72
-59.2374 -58.3398 667.384
-59.4147 -57.3142 669.382
-59.7726 -56.4519 673.414
-59.7726 -55.2444 673.414
-59.7726 -54.0369 673.414
-59.6528 -52.7235 672.065
-59.6528 -51.5184 672.065
-59.5931 -50.2629 671.392
-59.6528 -49.1081 672.065
-59.6528 -47.903 672.065
-59.5335 -46.6045 670.72
-56.5908 -30.5819 637.567
-56.5371 -29.4107 636.961
-56.3765 -28.1882 635.152
-56.2699 -26.9982 633.951
-56.1637 -25.8126 632.755
-56.1637 -24.678 632.755
-56.1108 -23.5212 632.159
-56.1108 -22.3876 632.159
-56.1637 -21.2741 632.755
-56.1108 -20.1205 632.159
-56.0579 -18.9691 631.564
-60.0136 -11.8209 676.129
-59.8929 -10.5871 674.769
-59.7726 -9.35834 673.414
-59.6528 -8.13448 672.065
-59.4741 -6.9086 670.05
-59.3555 -5.69573 668.714
-59.3555 -4.49663 668.714
-59.3555 -3.29753 668.714
-59.4147 -2.10052 669.382
-59.5335 -0.902023 670.72
-59.6528 0.301277 672.065
-59.5335 1.50337 670.72
-59.4147 2.70067 669.382
-59.3555 3.89708 668.714
-59.1785 5.08098 666.72
-58.9441 6.25165 664.08
-58.1382 7.34068 655
-58.1382 8.51519 655
-57.7995 9.63326 651.185
-57.7995 10.8009 651.185
-57.7435 11.957 650.553
-57.7995 13.1363 651.185
-57.8557 14.3178 651.818
-57.912 15.5017 652.452
-57.9684 16.6879 653.087
-58.1382 17.9113 655
-58.309 19.1419 656.925
-58.3662 20.3397 657.569
-58.3662 21.5189 657.569
-58.4809 22.7426 658.861
-58.3662 23.8771 657.569
-58.4235 25.0808 658.214
-58.596 26.3386 660.158
-58.6537 27.5495 660.808
-58.7116 28.7627 661.46
-58.7695 29.9784 662.113
-58.8276 31.1965 662.767
-58.8276 32.3849 662.767
-58.7695 33.5402 662.113
-58.8276 34.7618 662.767
-59.2374 36.2006 667.384
-59.2374 37.3973 667.384
-59.2964 38.6325 668.048
-59.2964 39.8304 668.048
-59.2964 41.0283 668.048
-59.1785 42.1422 666.72
-59.0025 43.2089 664.738
-59.1785 44.5333 666.72
-59.1785 45.7288 666.72
-59.1197 46.8777 666.058
-59.1197 48.0721 666.058
-59.1197 49.2664 666.058
-59.1785 50.5109 666.72
-59.1785 51.7064 666.72
-59.2374 52.9546 667.384
-59.3555 54.2593 668.714
-59.3555 55.4584 668.714
-59.2964 56.6011 668.048
-59.2964 57.799 668.048
-59.2374 58.9382 667.384
-59.2374 60.1349 667.384
-59.2374 61.3316 667.384
-59.2964 62.5906 668.048
-59.2964 63.7885 668.048
-59.2964 64.9864 668.048
-59.2964 66.1843 668.048
-59.2964 67.3822 668.048
-59.2964 68.5801 668.048
-59.2964 69.778 668.048
-59.3555 71.0467 668.714
-59.2964 72.1738 668.048
-59.1785 73.2259 666.72
-59.1785 74.4214 666.72
-59.1785 75.6169 666.72
-59.2374 76.8889 667.384
-59.1785 78.008 666.72
-59.2964 79.3613 668.048
-59.8929 81.3696 674.769
-59.8929 82.5796 674.769
-60.0136 83.9585 676.129
-59.8929 84.9995 674.769
-59.5335 85.6922 670.72
-59.5335 86.8949 670.72
-59.4147 87.9218 669.382
-59.2964 88.9445 668.048
-51.4996 127.188 580.208
-52.2224 136.358 588.351
-52.5915 138.385 592.509
-52.545 139.324 591.986
-52.2682 139.646 588.868
-51.8585 139.599 584.251
-51.7683 140.402 583.235
-51.4551 141.631 579.706
-51.2337 142.057 577.212
-51.1456 142.846 576.22
-50.9705 143.387 574.247
-50.8399 144.046 572.776
-50.7965 144.95 572.287
-50.5807 145.356 569.856
-50.4521 146.005 568.407
-50.3668 146.776 567.445
-50.4094 147.919 567.926
-50.4094 148.937 567.926
-50.2393 149.449 566.009
-50.1124 150.084 564.579
-50.0703 150.969 564.105
-49.8189 151.218 561.272
-49.4465 151.086 557.077
-49.3236 151.707 555.692
-49.242 152.451 554.773
-49.1201 153.066 553.4
-49.0392 153.805 552.488
-48.838 154.16 550.222
-48.4406 153.885 545.745
-48.4406 154.863 545.745
-48.4012 155.715 545.301
-48.3619 156.566 544.858
-48.4406 157.799 545.745
-48.2053 158.006 543.093
-47.9722 158.211 540.468
-47.8181 158.669 538.731
-47.6268 158.997 536.576
-47.5128 159.576 535.292
-47.3616 160.025 533.588
-47.1366 160.217 531.053
-47.0249 160.787 529.795
-46.9878 161.61 529.377
-46.9878 162.559 529.377
-46.9507 163.379 528.959
-46.6564 163.297 525.643
-46.6198 164.111 525.231
-46.4743 164.538 523.591
-46.2576 164.705 521.15
-46.1143 165.126 519.536
-46.1143 166.058 519.536
-46.0429 166.731 518.732
-46.0074 167.532 518.331
-45.8303 167.813 516.336
-45.5846 167.834 513.568
-45.4454 168.24 512
-45.2383 168.387 509.666
-45.2039 169.172 509.279
-45.1354 169.827 508.507
-45.1354 170.739 508.507
-44.9989 171.132 506.969
-44.9649 171.911 506.586
-44.8971 172.559 505.822
-44.7284 172.814 503.922
-44.4944 172.809 501.286
-44.3618 173.19 499.792
-44.3288 173.957 499.42
-44.23 174.463 498.306
-44.1971 175.226 497.936
-44.1643 175.988 497.567
-44.2629 177.275 498.677
-44.1971 177.905 497.936
-44.1971 178.797 497.936
-44.23 179.824 498.306
-43.4234 177.422 489.22
-43.4551 178.429 489.577
-43.3602 178.916 488.507
-43.1715 179.009 486.382
-43.109 179.621 485.677
-42.8299 179.323 482.533
-42.6764 179.543 480.803
-42.6764 180.405 480.803
-42.6458 181.137 480.459
-42.4028 180.961 477.721
-42.3726 181.689 477.381
-42.4028 182.675 477.721
-42.3726 183.401 477.381
-42.2523 183.734 476.026
-42.1327 184.065 474.678
-42.1029 184.785 474.343
-42.0138 185.243 473.338
-41.9546 185.829 472.671
-41.6902 185.5 469.692
-41.661 186.212 469.363
-58.0984 -108.71 668.048
-58.0406 -107.405 667.384
-57.9829 -106.103 666.72
-57.8679 -104.699 665.397
-58.0406 -103.815 667.384
-58.1564 -102.823 668.714
-58.2144 -101.725 669.382
-58.4477 -100.928 672.065
-58.3308 -99.5232 670.72
-61.5304 -103.714 707.511
-62.1864 -102.255 715.054
-62.4527 -101.405 718.116
-56.6319 -86.1155 651.185
-56.6319 -84.9478 651.185
-56.577 -83.6989 650.553
-56.577 -82.5324 650.553
-56.6869 -81.524 651.818
-56.7421 -80.4333 652.452
-56.8527 -79.4179 653.724
-57.1871 -78.706 657.569
-57.1311 -77.4509 656.925
-56.8527 -75.9012 653.724
-56.5221 -74.2946 649.923
-56.3583 -72.9172 648.039
-56.4674 -71.8941 649.294
-56.4674 -70.7298 649.294
-56.3583 -69.4311 648.039
-56.7421 -68.7339 652.452
-56.7973 -67.6298 653.087
-57.1871 -66.9148 657.569
-57.4688 -66.0595 660.808
-57.6392 -65.0669 662.767
-57.7533 -64.0049 664.08
-57.9254 -63.0013 666.058
-57.9829 -61.8684 666.72
-57.9254 -60.6126 666.058
-57.8105 -59.3005 664.738
-57.8679 -58.1662 665.397
-57.9829 -57.0863 666.72
-58.0984 -56.0021 668.048
-58.1564 -54.8588 668.714
-58.3308 -53.8207 670.72
-58.2144 -52.513 669.382
-58.5064 -51.57 672.739
-58.5064 -50.3637 672.739
-58.4477 -49.1081 672.065
-58.5651 -47.9992 673.414
-58.3308 -46.6045 670.72
-55.5532 -30.6402 638.781
-55.5532 -29.4947 638.781
-55.3949 -28.2685 636.961
-55.2375 -27.0493 635.152
-55.3424 -25.9596 636.357
-55.3424 -24.8185 636.357
-55.0811 -23.5656 633.353
-55.2375 -22.4936 635.152
-55.2899 -21.375 635.754
-55.1331 -20.1776 633.951
-55.0811 -19.0228 633.353
-55.0291 -17.8703 632.755
-58.2144 -10.5026 669.382
-58.3308 -9.32091 670.72
-58.2144 -8.10201 669.382
-58.2144 -6.90171 669.382
-58.1564 -5.69573 668.714
-58.1564 -4.49663 668.714
-58.1564 -3.29753 668.714
-58.2144 -2.10052 669.382
-58.4477 -0.903831 672.065
-58.5651 0.301882 673.414
-58.5064 1.5079 672.739
-58.3308 2.70607 670.72
-58.2144 3.90097 669.382
-58.0984 5.0911 668.048
-57.8679 6.26405 665.397
-56.7421 8.48206 652.452
-56.6869 9.64262 651.818
-56.6319 10.8009 651.185
-56.6319 11.9686 651.185
-56.6869 13.149 651.818
-56.7421 14.3318 652.452
-56.7973 15.5168 653.087
-56.9637 16.7368 655
-57.1871 17.9815 657.569
-57.2994 19.1983 658.861
-57.4122 20.4198 660.158
-57.5823 21.6676 662.113
-57.6392 22.8774 662.767
-57.4122 23.9711 660.158
-57.4122 25.1548 660.158
-57.5255 26.3906 661.46
-57.5823 27.6039 662.113
-57.5823 28.7911 662.113
-57.6392 30.008 662.767
-57.6962 31.2273 663.423
-57.7533 32.449 664.08
-57.8679 33.7066 665.397
-57.8679 34.8997 665.397
-58.0984 36.2367 668.048
-58.1564 37.4719 668.714
-58.1564 38.671 668.714
-58.2144 39.9099 669.382
-58.2144 41.1102 669.382
-58.0984 42.2262 668.048
-57.9254 43.2947 666.058
-57.9829 44.5333 666.72
-57.8679 45.6381 665.397
-57.7533 46.7385 664.08
-57.8679 48.0244 665.397
-57.8679 49.2175 665.397
-57.8105 50.3607 664.738
-57.8679 51.6038 665.397
-57.9829 52.902 666.72
-58.0984 54.2053 668.048
-58.0984 55.4032 668.048
-58.0984 56.6011 668.048
-58.0984 57.799 668.048
-58.0984 58.9969 668.048
-58.0984 60.1948 668.048
-58.0984 61.3927 668.048
-58.0984 62.5906 668.048
-58.0984 63.7885 668.048
-58.0984 64.9864 668.048
-58.0984 66.1843 668.048
-58.1564 67.4494 668.714
-58.1564 68.6485 668.714
-58.1564 69.8476 668.714
-58.0984 70.9759 668.048
-58.0406 72.102 667.384
-57.9829 73.2259 666.72
-57.9254 74.3475 666.058
-57.9829 75.6169 666.72
-57.9829 76.8124 666.72
-58.0406 78.0856 667.384
-58.0984 79.3613 668.048
-58.0984 80.5592 668.048
-58.0984 81.7571 668.048
-57.8679 85.0121 665.397
-57.6392 85.8645 662.767
-50.5029 127.299 580.71
-50.8108 134.361 584.251
-50.8551 135.526 584.761
-50.8995 137.744 585.271
-50.8551 138.672 584.761
-50.7666 139.477 583.743
-50.5467 139.915 581.214
-50.4592 140.714 580.208
-50.4156 141.631 579.706
-50.2419 142.179 577.709
-50.1555 142.969 576.716
-50.0694 143.756 575.726
-49.9836 144.54 574.739
-49.8128 145.073 572.776
-49.7703 145.976 572.287
-49.6856 146.752 571.312
-49.4748 147.149 568.889
-49.4748 148.17 568.889
-49.4748 149.19 568.889
-49.4329 150.082 568.407
-49.1 150.084 564.579
-48.8942 150.463 562.213
-48.7309 150.965 560.335
-48.3672 150.836 556.153
-48.1675 151.206 553.857
-48.1278 152.074 553.4
-48.0089 152.688 552.033
-47.8907 153.3 550.674
-47.8514 154.16 550.222
-47.5394 154.135 546.634
-47.5007 154.989 546.189
-47.462 155.842 545.745
-47.4234 156.693 545.301
-47.5007 157.928 546.189
-47.3465 158.391 544.416
-47.1551 158.723 542.215
-46.8897 158.797 539.164
-46.5901 158.743 535.719
-46.3311 158.815 532.741
-46.2576 159.517 531.896
-46.1113 159.964 530.214
-46.0749 160.787 529.795
-46.0385 161.61 529.377
-46.0022 162.431 528.959
-45.966 163.25 528.542
-45.7497 163.425 526.055
-45.7497 164.369 526.055
-45.678 165.053 525.231
-45.3936 164.961 521.961
-45.1827 165.126 519.536
-45.1477 165.929 519.133
-45.1128 166.731 518.732
-45.0084 167.273 517.531
-44.8699 167.684 515.939
-44.5954 167.578 512.783
-44.4934 168.112 511.61
-44.3918 168.643 510.442
-44.3243 169.301 509.666
-44.2907 170.085 509.279
-44.2235 170.739 508.507
-44.0565 171.003 506.586
-44.0565 171.911 506.586
-43.9901 172.559 505.822
-43.7919 172.685 503.544
-43.6282 172.938 501.661
-43.498 173.319 500.164
-43.4656 174.086 499.792
-43.4332 174.852 499.42
-43.3687 175.487 498.677
-43.2721 175.988 497.567
-43.3364 178.037 498.306
-42.7645 177.451 491.731
-42.5773 177.552 489.577
-42.5462 178.299 489.22
-42.4842 178.916 488.507
-42.3916 179.399 487.442
-42.3301 180.012 486.735
-42.0251 179.581 483.228
-41.8142 179.543 480.803
-41.8142 180.405 480.803
-41.5462 180.105 477.721
-41.5462 180.961 477.721
-41.4871 181.559 477.042
-41.5166 182.545 477.381
-41.5166 183.401 477.381
-41.4576 183.995 476.703
-41.3108 184.195 475.014
-41.3108 185.047 475.014
-41.2232 185.504 474.007
-41.136 185.96 473.005
-40.7908 186.082 469.035
-56.9005 -108.71 668.048
-56.9005 -107.512 668.048
-56.8439 -106.208 667.384
-56.8439 -105.012 667.384
-56.8439 -103.815 667.384
-56.9005 -102.72 668.048
-57.0141 -101.725 669.382
-57.1281 -100.726 670.72
-57.0141 -99.3246 669.382
-57.0141 -98.1243 669.382
-61.0343 -102.473 716.582
-55.4104 -87.1985 650.553
-55.2497 -85.7823 648.666
-55.2497 -84.6192 648.666
-55.2497 -83.456 648.666
-55.2497 -82.2929 648.666
-55.4104 -81.3658 650.553
-55.4642 -80.2772 651.185
-55.5181 -79.1864 651.818
-55.7892 -78.3985 655
-55.8984 -77.3751 656.282
-55.5181 -75.68 651.818
-55.3567 -74.2946 649.923
-55.2497 -72.9877 648.666
-55.2497 -71.8245 648.666
-55.2497 -70.6614 648.666
-55.3567 -69.6329 649.923
-55.5181 -68.6671 651.818
-55.6262 -67.6298 653.087
-55.9531 -66.8493 656.925
-56.118 -65.8648 658.861
-56.7874 -65.455 666.72
-56.7874 -64.2594 666.72
-56.8439 -63.1267 667.384
-56.8439 -61.93 667.384
-56.6747 -60.5525 665.397
-56.5625 -59.2418 664.08
-56.5625 -58.051 664.08
-56.5625 -56.8602 664.08
-56.395 -55.5046 662.113
-56.2285 -52.9732 660.158
-57.0141 -51.3127 669.382
-57.0141 -50.1124 669.382
-56.9005 -48.8147 668.048
-56.9005 -47.6168 668.048
-54.0474 -38.4021 634.551
-53.9454 -37.1939 633.353
-53.8437 -35.9902 632.159
-53.793 -33.6914 631.564
-53.8945 -32.6203 632.755
-54.3043 -30.5819 637.567
-54.6158 -29.6075 641.224
-54.4078 -28.3493 638.781
-53.4407 -26.7204 627.428
-53.4407 -25.5953 627.428
-54.2527 -24.842 636.961
-54.0986 -23.6326 635.152
-54.2013 -22.5363 636.357
-54.1499 -21.375 635.754
-53.9454 -20.1585 633.353
-53.793 -18.9691 631.564
-57.2426 -10.5447 672.065
-57.0141 -9.3023 669.382
-56.9573 -8.09393 668.714
-56.9573 -6.89483 668.714
-56.9005 -5.69005 668.048
-56.9005 -4.49215 668.048
-56.9005 -3.29424 668.048
-56.9005 -2.09634 668.048
-57.0141 -0.900223 669.382
-57.1281 0.300674 670.72
-57.2426 1.50638 672.065
-57.2426 2.71149 672.065
-57.1281 3.90877 670.72
-57.0141 5.10126 669.382
-56.9005 6.28901 668.048
-55.3567 7.28378 649.923
-55.5721 8.48206 652.452
-55.4642 9.63326 651.185
-55.5181 10.8114 651.818
-55.5181 11.9802 651.818
-55.5721 13.1618 652.452
-55.5721 14.3318 652.452
-55.6804 15.5319 653.724
-55.8437 16.7531 655.641
-55.9531 17.9639 656.925
-56.2285 19.2361 660.158
-56.2285 20.4198 660.158
-56.395 28.7911 662.113
-56.9005 30.2471 668.048
-56.7874 31.3825 666.72
-56.9573 32.6755 668.714
-56.9573 33.8746 668.714
-56.9573 35.0737 668.714
-57.1281 36.3816 670.72
-57.2426 37.6596 672.065
-57.2426 38.8647 672.065
-57.1853 40.0297 671.392
-57.2426 41.2749 672.065
-56.9005 42.2262 668.048
-56.8439 43.3809 667.384
-56.9005 44.622 668.048
-56.6747 45.6381 665.397
-56.6747 46.8312 665.397
-56.6747 48.0244 665.397
-56.731 49.2664 666.058
-56.6747 50.4107 665.397
-56.6747 51.6038 665.397
-56.7874 52.902 666.72
-56.9005 54.2053 668.048
-56.8439 55.348 667.384
-56.8439 56.5447 667.384
-56.9005 57.799 668.048
-56.9005 58.9969 668.048
-56.9005 60.1948 668.048
-57.1281 61.6383 670.72
-57.0141 62.7155 669.382
-56.9573 63.8521 668.714
-57.0141 65.1161 669.382
-57.1281 66.449 670.72
-57.0141 67.5167 669.382
-56.9573 68.6485 668.714
-56.9573 69.8476 668.714
-56.9573 71.0467 668.714
-56.9005 72.1738 668.048
-56.8439 73.2987 667.384
-56.5625 74.1267 664.08
-56.5625 75.3175 664.08
-56.4507 76.357 662.767
-56.4507 77.5455 662.767
-56.4507 78.7339 662.767
-56.6747 80.2395 665.397
-56.7874 81.5945 666.72
-56.9005 82.955 668.048
-56.4507 83.4877 662.767
-56.4507 84.6761 662.767
-56.4507 85.8645 662.767
-56.395 86.967 662.113
-49.4616 133.546 580.71
-49.7632 135.408 584.251
-49.8066 136.575 584.761
-49.7632 137.504 584.251
-49.7632 138.551 584.251
-49.7632 139.599 584.251
-49.5474 140.037 581.718
-49.4616 140.835 580.71
-49.4188 141.754 580.208
-49.206 142.179 577.709
-49.0792 142.846 576.22
-49.037 143.756 575.726
-49.037 144.788 575.726
-48.8275 145.197 573.265
-48.7441 145.976 572.287
-48.7026 146.877 571.799
-48.4547 147.149 568.889
-48.4137 148.044 568.407
-48.4137 149.063 568.407
-48.2909 149.702 566.966
-48.0472 149.958 564.105
-47.846 150.337 561.742
-47.5276 150.337 558.004
-47.4092 150.961 556.615
-47.2133 151.331 554.314
-47.1354 152.074 553.4
-47.0578 152.814 552.488
-46.9418 153.425 551.126
-46.8263 154.034 549.771
-46.6352 154.387 547.527
-46.5592 155.116 546.634
-46.5213 155.969 546.189
-46.4834 156.82 545.745
-46.5213 157.928 546.189
-46.5592 159.036 546.634
-45.8492 157.577 538.299
-45.7391 158.161 537.006
-45.6295 158.743 535.719
-45.5204 159.322 534.439
-45.3398 159.644 532.318
-45.1606 159.964 530.214
-45.1249 160.787 529.795
-45.0537 161.482 528.959
-45.0537 162.431 528.959
-45.0182 163.25 528.542
-44.8064 163.425 526.055
-44.8064 164.369 526.055
-44.7012 164.924 524.82
-44.4577 164.961 521.961
-44.2854 165.254 519.938
-44.2511 166.058 519.536
-44.1826 166.731 518.732
-44.0804 167.273 517.531
-43.9109 167.555 515.542
-43.6759 167.578 512.783
-43.576 168.112 511.61
-43.4435 168.515 510.054
-43.4104 169.301 509.666
-43.3446 169.956 508.893
-43.3117 170.739 508.507
-43.1808 171.132 506.969
-43.1481 171.911 506.586
-43.0831 172.559 505.822
-42.9212 172.814 503.922
-42.7926 173.197 502.412
-42.6648 173.578 500.911
-42.6329 174.346 500.538
-42.6011 175.113 500.164
-42.5377 175.748 499.42
-42.3485 175.858 497.198
-41.8521 176.44 491.37
-41.8521 177.321 491.37
-41.669 177.422 489.22
-41.6386 178.169 488.863
-41.6083 178.916 488.507
-41.578 179.661 488.152
-41.4272 179.881 486.382
-41.0698 179.194 482.186
-40.9814 179.671 481.148
-40.9521 180.405 480.803
-40.9227 181.137 480.459
-40.8058 181.478 479.086
-40.6896 182.675 477.721
-40.6606 183.401 477.381
-40.574 183.864 476.364
-40.459 184.195 475.014
-40.4304 184.916 474.678
-40.3447 185.373 473.673
-40.2594 185.829 472.671
-56.0375 -109.364 672.065
-56.0937 -108.267 672.739
-56.0375 -106.953 672.065
-55.9814 -105.642 671.392
-55.8696 -104.23 670.05
-55.7582 -102.823 668.714
-55.8138 -101.725 669.382
-55.8696 -100.625 670.05
-55.7582 -99.2255 668.714
-55.7582 -98.0264 668.714
-55.8138 -96.924 669.382
-55.3717 -93.7747 664.08
-54.2965 -88.4508 651.185
-54.2439 -87.1985 650.553
-54.1389 -85.8654 649.294
-54.0865 -84.6192 648.666
-54.0865 -83.456 648.666
-54.0865 -82.2929 648.666
-54.2439 -81.3658 650.553
-54.2439 -80.1993 650.553
-54.2439 -79.0328 650.553
-54.4551 -78.1695 653.087
-54.5082 -77.0735 653.724
-54.3493 -75.68 651.818
-54.1913 -74.2946 649.923
-54.1389 -73.0583 649.294
-54.1913 -71.9637 649.923
-54.1913 -70.7983 649.923
-54.3493 -69.8359 651.818
-54.4022 -68.7339 652.452
-54.5082 -67.6957 653.724
-54.8289 -66.9148 657.569
-54.9366 -65.8648 658.861
-55.099 -64.8746 660.808
-55.2623 -63.8785 662.767
-55.4816 -62.9388 665.397
-55.5919 -61.8684 666.72
-55.5367 -60.6126 666.058
-55.4266 -59.3005 664.738
-55.4266 -58.1085 664.738
-55.3717 -56.8602 664.08
-55.2623 -55.5594 662.767
-55.0447 -54.1569 660.158
-55.0447 -52.9732 660.158
-55.7582 -51.2615 668.714
-55.7582 -50.0624 668.714
-55.7026 -48.8147 668.048
-55.6472 -47.5694 667.384
-55.3717 -46.1431 664.08
-55.2077 -44.8192 662.113
-53.1106 -40.8323 636.961
-53.0602 -39.6525 636.357
-52.8097 -38.3296 633.353
-52.7598 -37.1588 632.755
-52.4629 -35.8214 629.194
-52.5615 -33.6281 630.376
-52.8596 -32.682 633.951
-52.7598 -31.4857 632.755
-53.1611 -30.5819 637.567
-53.2116 -29.4667 638.174
-52.3646 -27.8715 628.015
-52.2668 -26.6954 626.842
-52.2668 -25.5714 626.842
-52.2668 -24.4474 626.842
-52.3157 -23.3452 627.428
-52.3646 -22.2409 628.015
-52.5615 -21.1942 630.376
-52.4629 -20.0262 629.194
-52.3646 -18.8625 628.015
-52.3646 -17.7364 628.015
-52.0237 -15.3833 623.926
-52.0237 -14.2646 623.926
-55.8138 -10.5026 669.382
-55.8138 -9.3023 669.382
-55.7582 -8.09393 668.714
-55.7026 -6.88796 668.048
-55.7026 -5.69005 668.048
-55.7026 -4.49215 668.048
-55.7582 -3.29753 668.714
-55.7582 -2.09843 668.714
-55.9254 -0.902023 670.72
-56.15 0.301882 673.414
-56.15 1.50941 673.414
-56.15 2.71694 673.414
-56.0937 3.92053 672.739
-56.15 5.13199 673.414
-55.8138 6.30156 669.382
-54.4022 7.31212 652.452
-54.4022 8.48206 652.452
-54.3493 9.64262 651.818
-54.4022 10.8219 652.452
-54.4022 11.9919 652.452
-54.4551 13.1746 653.087
-54.6147 14.3877 655
-54.7752 15.608 656.925
-54.8289 16.8024 657.569
-55.2077 18.1058 662.113
-55.4816 19.3887 665.397
-55.4816 20.5819 665.397
-55.4816 21.775 665.397
-55.7026 26.6534 668.048
-55.8138 27.9069 669.382
-55.7026 29.0492 668.048
-55.4816 30.1271 665.397
-55.5919 31.3825 666.72
-55.7582 32.6755 668.714
-55.7026 33.8408 668.048
-55.7026 35.0388 668.048
-55.9814 36.418 671.392
-56.0937 37.6974 672.739
-56.0937 38.9037 672.739
-56.0937 40.11 672.739
-56.3765 41.5246 676.129
-56.0937 42.5227 672.739
-55.9254 43.5978 670.72
-55.9254 44.8005 670.72
-55.7582 45.8656 668.714
-55.6472 46.971 667.384
-55.7026 48.2157 668.048
-55.7026 49.4136 668.048
-55.7026 50.6115 668.048
-55.7582 51.8611 668.714
-55.8138 53.1131 669.382
-55.9254 54.4221 670.72
-55.9254 55.6248 670.72
-55.9814 56.8843 671.392
-56.0937 58.2048 672.739
-56.0937 59.4111 672.739
-56.15 60.6783 673.414
-56.2065 61.948 674.091
-56.15 63.0933 673.414
-56.0937 64.2364 672.739
-56.0375 65.3771 672.065
-55.9254 66.449 670.72
-55.9254 67.6517 670.72
-55.8696 68.7857 670.05
-55.9254 70.0571 670.72
-55.7582 71.0467 668.714
-55.6472 72.102 667.384
-55.5919 73.2259 666.72
-55.4266 74.2001 664.738
-55.3717 75.3175 664.08
-55.3717 76.5082 664.08
-55.317 77.6222 663.423
-55.2623 78.7339 662.767
-55.317 80.0014 663.423
-55.2623 81.1108 662.767
-55.2623 82.2992 662.767
-55.2077 83.4053 662.113
-55.2077 84.5925 662.113
-55.2077 85.7798 662.113
-55.2623 87.053 662.767
-48.3784 132.39 580.208
-48.4623 133.662 581.214
-48.7155 135.408 584.251
-48.8006 136.694 585.271
-48.7155 137.504 584.251
-48.7155 138.551 584.251
-48.5886 139.235 582.728
-48.4203 139.794 580.71
-48.3784 140.714 580.208
-48.3784 141.754 580.208
-48.3366 142.671 579.706
-48.2532 143.462 578.706
-48.0872 144.003 576.716
-48.0459 144.913 576.22
-47.9224 145.571 574.739
-47.718 145.976 572.287
-47.6367 146.752 571.312
-47.3944 147.025 568.407
-47.3543 147.919 567.926
-47.2343 148.56 566.487
-47.1149 149.197 565.055
-46.7995 149.205 561.272
-46.7604 150.086 560.803
-46.527 150.337 558.004
-46.4112 150.961 556.615
-46.2576 151.456 554.773
-46.1431 152.074 553.4
-46.1051 152.94 552.943
-45.9535 153.425 551.126
-45.8781 154.16 550.222
-45.7655 154.766 548.871
-45.6534 155.369 547.527
-45.579 156.096 546.634
-45.5048 156.82 545.745
-45.5419 157.928 546.189
-45.4678 158.649 545.301
-44.6332 158.616 535.292
-44.4558 158.942 533.164
-44.3853 159.644 532.318
-44.2448 160.09 530.633
-44.1749 160.787 529.795
-44.1052 161.482 528.959
-43.8975 161.666 526.468
-44.0358 163.122 528.126
-43.8287 163.297 525.643
-43.8287 164.24 525.643
-43.6918 164.666 524
-43.4879 164.833 521.556
-43.3531 165.254 519.938
-43.2859 165.929 519.133
-43.2525 166.731 518.732
-43.1523 167.273 517.531
-42.9865 167.555 515.542
-42.7565 167.578 512.783
-42.5936 167.856 510.831
-42.4965 168.387 509.666
-42.4965 169.301 509.666
-42.4643 170.085 509.279
-42.3999 170.739 508.507
-42.2717 171.132 506.969
-42.2398 171.911 506.586
-42.1443 172.429 505.441
-41.9861 172.685 503.544
-41.8604 173.068 502.036
-41.7666 173.578 500.911
-41.7354 174.346 500.538
-41.7043 175.113 500.164
-41.5803 175.487 498.677
-41.243 174.95 494.632
-40.8812 174.294 490.293
-40.9111 175.302 490.651
-40.9111 176.182 490.651
-40.9111 177.061 490.651
-40.7917 177.422 489.22
-40.762 178.169 488.863
-40.7323 178.916 488.507
-40.673 179.53 487.797
-40.5257 179.751 486.029
-40.2341 179.323 482.533
-40.1763 179.929 481.839
-40.1475 180.664 481.493
-40.0899 181.267 480.803
-40.0325 181.868 480.115
-40.0039 182.598 479.771
-39.8613 182.805 478.062
-39.8329 183.531 477.721
-39.7763 184.126 477.042
-39.6353 184.326 475.351
-39.6073 185.047 475.014
-39.4397 185.96 473.005
-39.3011 186.152 471.343
-39.1909 186.473 470.021
-55.3874 -111.688 678.867
-55.3314 -110.359 678.18
-55.2755 -109.032 677.495
-55.1085 -107.492 675.449
-55.0531 -106.174 674.769
-54.9977 -104.858 674.091
-54.7775 -103.235 671.392
-54.8324 -102.133 672.065
-54.8324 -100.928 672.065
-54.8324 -99.7227 672.065
-54.8874 -98.6164 672.739
-54.9425 -97.5079 673.414
-54.5047 -95.533 668.048
-54.2884 -93.9608 665.397
-52.9746 -88.1939 649.294
-52.9746 -87.0297 649.294
-52.9233 -85.7823 648.666
-52.9233 -84.6192 648.666
-52.9233 -83.456 648.666
-52.9233 -82.2929 648.666
-53.0773 -81.3658 650.553
-53.1289 -80.2772 651.185
-53.1805 -79.1864 651.818
-53.336 -78.2457 653.724
-53.336 -77.0735 653.724
-53.1805 -75.68 651.818
-53.1289 -74.4388 651.185
-52.9746 -73.0583 649.294
-53.0773 -72.0335 650.553
-52.8722 -70.5931 648.039
-53.0259 -69.6329 649.923
-53.2322 -68.7339 652.452
-53.2841 -67.6298 653.087
-53.5448 -66.7838 656.282
-53.7024 -65.8002 658.214
-53.7024 -64.6199 658.214
-54.1809 -64.0049 664.08
-54.4505 -63.1267 667.384
-54.4505 -61.93 667.384
-54.2346 -60.4925 664.738
-54.2346 -59.3005 664.738
-54.1809 -58.051 664.08
-54.1273 -56.804 663.423
-53.9672 -55.4498 661.46
-54.0739 -51.9941 662.767
-54.6135 -51.3127 669.382
-54.6135 -50.1124 669.382
-54.5591 -48.8633 668.714
-54.4505 -47.5694 667.384
-54.3964 -46.3266 666.72
-54.1273 -44.9078 663.423
-51.7228 -41.7761 633.951
-51.8208 -40.7163 635.152
-51.6252 -39.4281 632.755
-51.5766 -38.2573 632.159
-51.528 -37.0888 631.564
-51.4311 -35.8888 630.376
-51.4311 -34.7584 630.376
-51.5766 -33.7231 632.159
-51.674 -32.6511 633.353
-51.7228 -31.5452 633.951
-51.9684 -30.5529 636.961
-51.7228 -29.2717 633.951
-51.2865 -27.8976 628.604
-51.1906 -26.7204 627.428
-51.1428 -25.5714 626.842
-51.1906 -24.4702 627.428
-51.1906 -23.3452 627.428
-51.1906 -22.2201 627.428
-51.2865 -20.0074 628.604
-51.1906 -18.8449 627.428
-51.1906 -17.7198 627.428
-51.1906 -16.5948 627.428
-51.1428 -15.4552 626.842
-51.0473 -14.3045 625.672
-50.9049 -13.1458 623.926
-50.8576 -12.0158 623.346
-54.5047 -10.4817 668.048
-54.5591 -9.29303 668.714
-54.4505 -8.07782 667.384
-54.5047 -6.88796 668.048
-54.4505 -5.68439 667.384
-54.4505 -4.48768 667.384
-54.5591 -3.29753 668.714
-54.5591 -2.09843 668.714
-54.7227 -0.902023 670.72
-54.9425 0.301882 673.414
-54.9425 1.50941 673.414
-54.9425 2.71694 673.414
-54.9425 3.92447 673.414
-54.7227 5.11146 670.72
-54.5047 6.28901 668.048
-53.2841 9.6614 653.087
-53.336 10.843 653.724
-53.336 12.0153 653.724
-53.388 13.2003 654.361
-53.5972 14.43 656.925
-53.6498 15.6233 657.569
-53.9672 16.9018 661.46
-54.1809 18.1595 664.08
-54.3964 19.4273 666.72
-54.5047 20.6639 668.048
-54.4505 21.84 667.384
-54.5591 26.68 668.714
-54.5047 27.8513 668.048
-54.5591 29.0782 668.714
-54.5591 30.2773 668.714
-54.5047 31.445 668.048
-54.5047 32.6429 668.048
-54.5591 33.8746 668.714
-54.5591 35.0737 668.714
-54.7775 36.418 671.392
-54.8874 37.6974 672.739
-54.8874 38.9037 672.739
-54.9425 40.1503 673.414
-55.1641 41.5246 676.129
-55.0531 42.651 674.769
-54.9977 43.8169 674.091
-54.9977 45.0256 674.091
-54.9977 46.2344 674.091
-54.7227 47.2059 670.72
-54.6135 48.312 669.382
-54.7227 49.6113 670.72
-54.6135 50.7126 669.382
-54.6135 51.9128 669.382
-54.6681 53.1662 670.05
-54.6681 54.3677 670.05
-54.7775 55.6804 671.392
-54.8324 56.9413 672.065
-54.8874 58.2048 672.739
-54.8874 59.4111 672.739
-55.1641 60.9229 676.129
-55.2755 62.2609 677.495
-55.1085 63.2839 675.449
-54.9425 64.3009 673.414
-54.9425 65.5084 673.414
-54.8324 66.5822 672.065
-54.7227 67.6517 670.72
-54.5591 68.6485 668.714
-54.5047 69.778 668.048
-54.4505 70.9053 667.384
-54.4505 72.102 667.384
-54.3424 73.1532 666.058
-54.1809 74.1267 664.08
-54.1809 75.3175 664.08
-54.1273 76.4326 663.423
-54.0205 77.4689 662.113
-53.7024 78.193 658.214
-53.7551 79.4513 658.861
-53.808 80.712 659.509
-53.861 81.9752 660.158
-53.861 83.159 660.158
-54.0205 84.5925 662.113
-54.0205 85.7798 662.113
-54.0205 86.967 662.113
-47.5024 133.894 582.223
-47.585 135.173 583.235
-47.6264 136.337 583.743
-47.6679 137.504 584.251
-47.6264 138.431 583.743
-47.379 140.835 580.71
-47.379 141.877 580.71
-47.338 142.794 580.208
-47.0936 143.092 577.212
-46.9723 143.756 575.726
-46.9723 144.788 575.726
-46.8116 145.322 573.756
-46.6918 145.976 572.287
-46.4934 146.378 569.856
-46.3359 146.9 567.926
-46.2576 147.669 566.966
-46.1017 148.184 565.055
-46.0629 149.072 564.579
-45.7548 149.08 560.803
-45.7548 150.086 560.803
-45.7166 150.965 560.335
-45.6023 151.59 558.934
-45.4508 152.085 557.077
-45.3754 152.83 556.153
-45.0764 152.814 552.488
-44.9284 153.3 550.674
-44.8915 154.16 550.222
-44.818 154.893 549.321
-44.6716 155.369 547.527
-44.5625 155.969 546.189
-44.5625 156.948 546.189
-44.5988 158.056 546.634
-44.5625 158.907 546.189
-44.49 159.626 545.301
-43.4652 157.86 532.741
-43.3963 158.563 531.896
-43.3619 159.391 531.474
-43.2249 159.837 529.795
-43.1567 160.534 528.959
-42.9198 160.596 526.055
-42.8862 161.412 525.643
-42.9198 162.482 526.055
-42.8526 163.169 525.231
-42.7856 163.855 524.41
-42.6854 164.409 523.183
-42.5858 164.961 521.961
-42.4536 165.383 520.342
-42.3879 166.058 519.536
-42.3551 166.86 519.133
-42.2569 167.403 517.931
-41.9975 167.298 514.751
-41.805 167.45 512.391
-41.6776 167.856 510.831
-41.5826 168.387 509.666
-41.5826 169.301 509.666
-41.5195 169.956 508.893
-41.4252 170.481 507.737
-41.3314 171.003 506.586
-41.1759 171.265 504.681
-41.114 171.911 503.922
-41.0523 172.555 503.166
-40.9908 173.197 502.412
-40.8989 173.708 501.286
-40.8379 174.346 500.538
-40.8074 175.113 500.164
-40.6256 175.226 497.936
-40.2669 174.564 493.54
-40.1488 174.934 492.091
-40.1488 175.816 492.091
-40.0313 177.061 490.651
-39.8854 177.293 488.863
-39.8854 178.169 488.863
-39.7984 178.655 487.797
-39.7117 179.139 486.735
-39.6255 179.621 485.677
-39.3972 179.452 482.88
-39.3406 180.059 482.186
-39.2841 180.664 481.493
-39.2559 181.397 481.148
-39.1997 181.998 480.459
-39.1716 182.729 480.115
-39.1436 183.459 479.771
-39.1156 184.187 479.428
-38.9763 184.388 477.721
-38.838 184.587 476.026
-38.7555 185.047 475.014
-38.5915 185.96 473.005
-38.51 186.414 472.006
-54.1153 -112.791 678.18
-54.0606 -111.462 677.495
-54.1153 -110.359 678.18
-54.0606 -109.032 677.495
-53.8431 -107.384 674.769
-53.789 -106.067 674.091
-53.789 -104.858 674.091
-53.735 -103.546 673.414
-53.735 -102.338 673.414
-53.735 -101.13 673.414
-53.735 -99.9229 673.414
-53.735 -98.7154 673.414
-53.735 -97.5079 673.414
-53.52 -95.9151 670.72
-51.8605 -87.114 649.923
-51.8103 -85.8654 649.294
-51.8605 -84.7832 649.923
-51.8103 -83.5368 649.294
-51.8605 -82.4524 649.923
-52.0117 -81.524 651.818
-52.0117 -80.3552 651.818
-52.0117 -79.1864 651.818
-52.368 -78.5519 656.282
-52.2147 -77.1487 654.361
-52.0117 -75.68 651.818
-51.9612 -74.4388 651.185
-51.9108 -73.2001 650.553
-51.8605 -71.9637 649.923
-51.6603 -70.525 647.414
-51.7102 -69.4311 648.039
-52.0623 -68.7339 652.452
-52.1638 -67.6957 653.724
-52.368 -66.7838 656.282
-52.4706 -65.7357 657.569
-52.4706 -64.5566 657.569
-52.6254 -63.5644 659.509
-52.9901 -62.8142 664.08
-53.148 -61.807 666.058
-52.9901 -60.4326 664.08
-53.0427 -59.3005 664.738
-53.148 -58.2239 666.058
-52.9901 -56.8602 664.08
-52.8854 -55.5594 662.767
-52.9901 -52.097 664.08
-53.3068 -51.2105 668.048
-53.36 -50.0624 668.714
-53.3068 -48.8147 668.048
-53.2538 -47.5694 667.384
-53.148 -46.2806 666.058
-52.8854 -44.8635 662.767
-50.6819 -41.8552 635.152
-50.7299 -40.7549 635.754
-50.4906 -38.2934 632.755
-50.443 -37.1238 632.159
-50.3955 -35.9564 631.564
-50.3955 -34.8239 631.564
-50.4906 -33.755 632.755
-50.5861 -32.682 633.951
-50.5861 -31.5452 633.951
-50.6819 -30.4661 635.152
-50.6339 -29.2994 634.551
-50.2064 -27.9238 629.194
-50.0655 -26.7204 627.428
-50.0187 -25.5714 626.842
-49.8324 -24.3563 624.507
-49.7861 -23.2149 623.926
-49.7861 -22.0961 623.926
-49.8324 -20.9968 624.507
-50.0187 -19.9513 626.842
-49.8789 -18.7746 625.089
-50.0187 -17.7033 626.842
-49.972 -16.5638 626.256
-49.9254 -15.4264 625.672
-49.8789 -14.2911 625.089
-49.7861 -13.1458 623.926
-49.7398 -12.0158 623.346
-53.3068 -9.28377 668.048
-53.2538 -8.07782 667.384
-53.2008 -6.87427 666.72
-53.2008 -5.67874 666.72
-53.3068 -4.49215 668.048
-53.4666 -3.30411 670.05
-53.6273 -2.10894 672.065
-53.735 -0.905646 673.414
-53.735 0.301882 673.414
-53.8431 1.51245 674.769
-53.789 2.71967 674.091
-53.789 3.92841 674.091
-53.6273 5.12171 672.065
-53.52 6.31416 670.72
-52.1638 9.67081 653.724
-52.2657 10.8642 655
-52.1638 12.0153 653.724
-52.368 13.2391 656.282
-52.5221 14.4583 658.214
-52.7811 15.7157 661.46
-52.8332 16.9185 662.113
-53.0953 18.1956 665.397
-53.3068 19.466 668.048
-53.4132 20.7051 669.382
-53.36 21.8836 668.714
-53.36 26.68 668.714
-53.6273 28.0188 672.065
-53.6811 29.2532 672.739
-53.6811 30.4595 672.739
-53.4132 31.5078 669.382
-53.4132 32.7081 669.382
-53.52 33.9762 670.72
-53.5736 35.2141 671.392
-53.6273 36.4545 672.065
-53.6811 37.6974 672.739
-53.789 38.9819 674.091
-53.789 40.1907 674.091
-53.9517 41.5246 676.129
-53.8431 42.651 674.769
-53.789 43.8169 674.091
-53.789 45.0256 674.091
-53.789 46.2344 674.091
-53.735 47.3955 673.414
-53.6811 48.5542 672.739
-53.52 49.6113 670.72
-53.4666 50.7632 670.05
-53.52 52.0167 670.72
-53.4132 53.1131 669.382
-53.36 54.2593 668.714
-53.52 55.6248 670.72
-53.52 56.8275 670.72
-53.6811 58.2048 672.739
-53.735 59.4707 673.414
-54.0061 60.9844 676.812
-54.0606 62.2609 677.495
-53.9517 63.3477 676.129
-53.789 64.3655 674.091
-53.735 65.5084 673.414
-53.52 66.449 670.72
-53.4132 67.5167 669.382
-53.3068 68.5801 668.048
-53.36 69.8476 668.714
-53.3068 70.9759 668.048
-53.3068 72.1738 668.048
-53.2008 73.2259 666.72
-53.148 74.3475 666.058
-53.0953 75.4669 665.397
-52.9901 76.5082 664.08
-52.8854 77.5455 662.767
-52.7291 78.5012 660.808
-52.6772 79.6077 660.158
-52.7291 80.871 660.808
-52.7291 82.056 660.808
-52.7291 83.2409 660.808
-52.8332 84.5925 662.113
-52.8332 85.7798 662.113
-52.8332 86.967 662.113
-46.4584 133.894 582.223
-46.5392 135.173 583.235
-46.5392 136.219 583.235
-46.5797 137.384 583.743
-46.5797 138.431 583.743
-46.5392 139.356 583.235
-46.4987 140.28 582.728
-46.3779 140.957 581.214
-46.3377 141.877 580.71
-46.2976 142.794 580.208
-46.019 142.969 576.716
-45.94 143.756 575.726
-45.9006 144.664 575.232
-45.7046 145.073 572.776
-45.6656 145.976 572.287
-45.5878 146.752 571.312
-45.356 147.025 568.407
-45.356 148.044 568.407
-45.1646 148.434 566.009
-45.0505 149.072 564.579
-44.7118 148.956 560.335
-44.6745 149.835 559.867
-44.6745 150.839 559.867
-44.4888 151.212 557.54
-44.415 151.959 556.615
-44.2314 152.325 554.314
-44.1221 152.94 552.943
-44.0857 153.805 552.488
-43.977 154.414 551.126
-43.9049 155.147 550.222
-43.833 155.878 549.321
-43.5831 155.969 546.189
-43.5476 156.82 545.745
-43.6542 158.185 547.08
-43.5831 158.907 546.189
-43.3712 159.109 543.534
-42.8847 158.288 537.436
-42.4762 157.735 532.318
-42.4425 158.563 531.896
-42.4089 159.391 531.474
-42.2749 159.837 529.795
-42.2082 160.534 528.959
-42.0095 160.722 526.468
-41.9765 161.539 526.055
-42.0425 162.737 526.882
-41.9108 163.169 525.231
-41.8125 163.727 524
-41.7148 164.281 522.775
-41.6498 164.961 521.961
-41.5206 165.383 520.342
-41.4563 166.058 519.536
-41.3921 166.731 518.732
-41.2645 167.144 517.132
-41.0745 167.298 514.751
-40.855 167.322 512
-40.7617 167.856 510.831
-40.6687 168.387 509.666
-40.6378 169.172 509.279
