ply
format ascii 1.0
element vertex 1993
property float x
property float y
property float z
end_header
121.118 100.146 525.643
121.118 101.089 525.643
121.118 102.031 525.643
121.213 103.055 526.055
120.929 103.754 524.82
119.618 105.422 519.133
119.711 106.435 519.536
119.618 107.284 519.133
119.433 108.048 518.331
119.065 108.641 516.734
118.882 109.399 515.939
118.065 109.566 512.391
117.705 110.148 510.831
117.437 110.811 509.666
117.17 111.471 508.507
117.081 112.297 508.122
116.992 113.123 507.737
116.904 113.947 507.353
116.727 114.683 506.586
116.639 115.504 506.204
116.113 115.887 503.922
115.939 116.616 503.166
114.649 117.102 497.567
114.649 117.995 497.567
114.394 118.623 496.462
113.972 119.072 494.632
113.972 119.959 494.632
114.057 120.935 494.997
113.888 121.644 494.267
111.185 129.139 482.533
110.786 129.538 480.803
110.786 130.4 480.803
110.628 131.074 480.115
110.233 131.465 478.403
102.485 146.15 444.775
98.3121 155.501 426.667
98.1872 156.068 426.125
98.0626 156.633 425.584
98.3121 157.797 426.667
98.0626 158.159 425.584
98.0626 158.922 425.584
97.8143 159.281 424.507
97.8143 160.043 424.507
97.7525 160.702 424.238
97.4443 160.954 422.901
97.2603 161.407 422.102
97.1992 162.062 421.837
96.9552 162.409 420.778
96.8337 162.959 420.251
97.1381 164.228 421.572
96.8337 164.467 420.251
96.8337 165.22 420.251
211.616 -118.881 911.305
211.616 -117.247 911.305
210.757 -115.143 907.605
210.472 -113.362 906.379
210.188 -111.586 905.156
209.905 -109.815 903.936
209.905 -108.194 903.936
208.221 -105.718 896.685
207.666 -103.833 894.294
207.113 -101.957 891.915
204.933 -99.3017 882.527
204.933 -97.7192 882.527
205.474 -96.3903 884.855
203.594 -93.9362 876.759
203.328 -92.2435 875.614
202.799 -90.4372 873.334
202.272 -88.6404 871.065
201.227 -86.6284 866.564
199.679 -84.4201 859.898
197.151 -81.8291 849.013
197.151 -80.3067 849.013
196.158 -78.3874 844.736
195.911 -76.776 843.673
195.42 -75.0743 841.556
193.959 -73.0156 835.268
193.718 -71.4289 834.229
192.283 -69.415 828.05
192.046 -67.8464 827.029
191.574 -66.2001 824.994
191.574 -64.7208 824.994
190.17 -62.7782 818.95
189.476 -61.0859 815.962
188.103 -59.1907 810.049
187.424 -57.5298 807.124
186.303 -55.7471 802.297
186.08 -54.2435 801.339
186.08 -52.8066 801.339
184.756 -51.0041 795.635
183.45 -49.227 790.012
183.019 -47.6981 788.156
182.376 -46.1222 785.387
182.163 -44.6616 784.468
181.95 -43.2044 783.552
181.526 -41.7019 781.725
181.315 -40.2533 780.815
181.104 -38.808 779.907
179.435 -37.0647 772.719
179.435 -35.6791 772.719
177.796 -33.9803 765.663
177.593 -32.5702 764.79
176.787 -31.0572 761.317
176.587 -29.6584 760.454
176.387 -28.2627 759.593
176.187 -26.8702 758.734
174.411 -25.2526 751.087
173.827 -23.8258 748.572
173.247 -22.4084 746.074
173.055 -21.0472 745.245
171.719 -19.5588 739.493
170.778 -18.1328 735.439
169.662 -16.7041 730.632
168.926 -15.3272 727.462
168.56 -13.9924 725.888
168.56 -12.6908 725.888
168.56 -11.3892 725.888
168.378 -10.0767 725.103
168.014 -8.75751 723.539
167.293 -7.42805 720.43
166.755 -6.1165 718.116
166.044 -4.80823 715.054
165.515 -3.51479 712.774
164.293 -2.22017 707.511
163.947 -0.949498 706.021
163.947 0.316499 706.021
163.431 1.57752 703.799
163.088 2.83358 702.325
159.253 6.4562 685.808
158.928 7.67027 684.409
158.928 8.89751 684.409
158.928 10.1248 684.409
158.604 11.3289 683.015
158.928 12.5792 684.409
158.928 13.8065 684.409
157.323 14.8819 677.495
155.438 15.9039 669.382
154.974 17.0532 667.384
154.82 18.2317 666.72
154.667 19.408 666.058
154.207 20.5411 664.08
154.36 21.7535 664.738
154.36 22.9454 664.738
154.055 24.0896 663.423
153.903 25.2543 662.767
153.903 26.4427 662.767
153.599 27.5766 661.46
151.36 29.5123 651.818
150.482 30.5032 648.039
150.048 31.5737 646.166
149.328 32.5755 643.068
148.333 33.5037 638.781
148.333 34.6491 638.781
148.474 35.8287 639.39
148.758 37.0458 640.612
149.042 38.2677 641.838
149.042 39.4186 641.838
146.657 39.9201 631.564
146.657 41.0525 631.564
145.833 41.948 628.015
145.696 43.0338 627.428
145.696 44.1589 627.428
145.56 45.2417 626.842
145.424 46.3224 626.256
145.289 47.4011 625.672
144.883 48.3876 623.926
144.748 49.4604 623.346
144.212 50.3908 621.037
141.59 50.568 609.746
140.95 51.4276 606.987
140.695 52.4211 605.89
140.441 53.4111 604.797
140.695 54.594 605.89
140.568 55.6302 605.343
140.062 56.5117 603.166
139.686 57.4383 601.543
139.56 58.4645 601.004
139.435 59.4888 600.466
138.69 60.242 597.258
138.567 61.2584 596.726
138.444 62.273 596.196
137.709 63.006 593.033
137.709 64.0694 593.033
137.588 65.0753 592.509
136.622 65.6736 588.351
135.907 66.3793 585.271
135.788 67.3699 584.761
134.731 67.8858 580.208
134.731 68.9262 580.208
134.615 69.9062 579.706
134.267 70.7622 578.207
133.461 71.3683 574.739
133.005 72.1516 572.776
133.005 73.1787 572.776
132.892 74.1424 572.287
132.779 75.1045 571.799
132.44 75.9356 570.34
132.666 77.0894 571.312
132.666 78.1139 571.312
131.213 79.2848 565.055
131.102 80.2305 564.579
131.102 81.2428 564.579
130.553 81.9105 562.213
130.662 82.9882 562.685
130.772 84.0676 563.157
128.932 83.8802 555.232
128.932 84.8758 555.232
128.506 85.588 553.4
128.506 86.5803 553.4
128.4 87.5005 552.943
126.011 87.8183 542.654
125.909 88.7196 542.215
125.909 89.6919 542.215
125.807 90.5909 541.777
125.402 91.2675 540.033
125.2 92.0876 539.164
125.2 93.0544 539.164
125.2 94.0212 539.164
125.301 95.0644 539.598
124.5 95.4179 536.147
124.5 96.3792 536.147
123.807 96.799 533.164
122.928 98.0099 529.377
122.734 98.8032 528.542
122.444 99.5157 527.296
122.061 100.146 525.643
122.061 101.089 525.643
122.061 102.031 525.643
121.965 102.893 525.231
120.456 105.341 518.732
120.549 106.353 519.133
120.456 107.201 518.732
120.27 107.964 517.931
120.084 108.725 517.132
119.807 109.399 515.939
119.074 109.65 512.783
118.441 109.981 510.054
118.351 110.811 509.666
118.261 111.64 509.279
117.903 112.212 507.737
117.813 113.037 507.353
117.903 114.033 507.737
117.547 114.597 506.204
117.017 114.984 503.922
116.318 115.195 500.911
116.231 116.006 500.538
115.541 117.102 497.567
115.541 117.995 497.567
115.455 118.799 497.198
114.859 119.072 494.632
114.944 120.048 494.997
114.606 121.465 493.54
114.186 121.901 491.731
111.809 128.86 481.493
111.648 129.538 480.803
111.728 130.494 481.148
111.409 130.98 479.771
111.25 131.652 479.086
103.695 145.933 446.552
103.488 146.441 445.661
103.419 147.143 445.365
103.282 151.733 444.775
99.2666 155.799 427.483
99.0772 156.267 426.667
99.0772 157.032 426.667
99.2666 158.098 427.483
99.2034 158.764 427.21
99.2666 159.631 427.483
99.0772 160.857 426.667
98.7631 161.11 425.314
98.2026 160.954 422.901
97.7098 160.9 420.778
97.5873 161.452 420.251
97.5873 162.206 420.251
97.5262 162.857 419.988
97.6485 163.816 420.514
97.5873 164.467 420.251
97.5873 165.22 420.251
212.672 -116.929 908.835
212.384 -115.143 907.605
212.384 -113.516 907.605
212.097 -111.737 906.379
211.811 -109.963 905.156
211.526 -108.194 903.936
210.957 -106.287 901.506
208.713 -103.557 891.915
207.609 -101.418 887.196
206.516 -99.3017 882.527
207.061 -97.977 884.855
207.061 -96.3903 884.855
205.435 -94.0591 877.906
204.898 -92.2435 875.614
204.898 -90.6734 875.614
203.306 -88.4107 868.809
203.043 -86.7405 867.685
201.221 -84.4201 859.898
198.673 -81.8291 849.013
198.673 -80.3067 849.013
198.172 -78.5854 846.869
197.176 -76.6795 842.614
196.19 -74.7928 838.401
195.214 -72.9248 834.229
194.248 -71.0753 830.1
193.291 -69.244 826.01
193.291 -67.7628 826.01
193.291 -66.2817 826.01
193.053 -64.7208 824.994
192.343 -63.009 821.961
190.015 -60.7901 812.01
189.785 -59.2623 811.028
188.644 -57.4606 806.154
187.517 -55.6804 801.339
187.07 -54.1142 799.428
186.848 -52.618 798.477
185.962 -50.9436 794.692
185.523 -49.4016 792.814
184.649 -47.7542 789.083
184 -46.1763 786.308
183.785 -44.7139 785.387
182.715 -43.0535 780.815
182.502 -41.6049 779.907
182.29 -40.1598 779.002
182.079 -38.7179 778.098
180.612 -37.022 771.83
179.991 -35.5154 769.175
179.374 -34.0192 766.538
179.169 -32.6074 765.663
178.761 -31.1633 763.918
178.355 -29.7258 762.182
177.749 -28.2627 759.593
177.749 -26.9007 759.593
175.955 -25.2809 751.929
175.562 -23.8791 750.247
174.391 -22.3835 745.245
173.62 -20.9541 741.947
172.855 -19.5372 738.679
171.72 -18.0931 733.83
170.972 -16.7041 730.632
170.23 -15.3272 727.462
170.046 -14.0076 726.674
169.862 -12.6908 725.888
169.862 -11.3892 725.888
169.678 -10.0767 725.103
168.766 -8.72926 721.205
168.403 -7.42008 719.657
168.043 -6.1165 718.116
167.326 -4.80823 715.054
166.616 -3.51106 712.017
165.736 -2.22251 708.258
165.387 -0.950499 706.765
165.387 0.316833 706.765
165.213 1.5825 706.021
164.866 2.84251 704.538
160.155 6.44302 684.409
160.155 7.67027 684.409
160.155 8.89751 684.409
160.155 10.1248 684.409
159.829 11.3289 683.015
159.829 12.5536 683.015
159.181 13.7225 680.244
158.058 14.8369 675.449
157.267 15.9677 672.065
156.171 17.0532 667.384
156.016 18.2317 666.72
155.706 19.3887 665.397
155.091 20.5005 662.767
155.091 21.689 662.767
155.091 22.8774 662.767
154.938 24.0421 662.113
154.938 25.2293 662.113
154.938 26.4166 662.113
154.48 27.5224 660.158
152.529 28.3435 651.818
152.085 29.4265 649.923
151.498 30.4738 647.414
151.352 31.6042 646.789
150.626 32.6067 643.686
150.05 33.6318 641.224
149.906 34.7484 640.612
149.763 35.8629 640
149.478 36.94 638.781
149.336 38.0492 638.174
149.478 39.2309 638.781
147.511 39.845 630.376
147.511 40.9754 630.376
146.959 41.948 628.015
146.959 43.0741 628.015
146.959 44.2003 628.015
146.959 45.3264 628.015
146.821 46.409 627.428
146.684 47.4897 626.842
146.002 48.3876 623.926
145.731 49.4145 622.767
144.923 50.2512 619.317
142.684 50.568 609.746
142.167 51.4742 607.537
141.781 52.4211 605.89
141.398 53.3629 604.253
141.653 54.5447 605.343
141.653 55.6302 605.343
140.891 57.4898 602.083
140.638 58.4645 601.004
140.386 59.4356 599.929
139.637 60.1884 596.726
139.513 61.2039 596.196
139.265 62.1625 595.138
138.65 62.9504 592.509
138.65 64.0128 592.509
138.528 65.0179 591.986
137.557 65.6161 587.836
136.956 66.3793 585.271
136.718 67.3113 584.251
135.889 67.9446 580.71
135.889 68.9859 580.71
135.889 70.0272 580.71
135.071 70.6404 577.212
134.723 71.4908 575.726
134.377 72.3369 574.247
134.492 73.4295 574.739
134.032 74.2057 572.776
133.918 75.1686 572.287
133.918 76.1948 572.287
133.918 77.221 572.287
133.804 78.1805 571.799
132.115 79.2181 564.579
132.003 80.163 564.105
131.892 81.1063 563.631
131.451 81.8419 561.742
131.451 82.8491 561.742
130.359 83.16 557.077
129.072 83.3284 551.579
129.392 84.526 552.943
129.179 85.3767 552.033
129.072 86.2955 551.579
128.966 87.2129 551.126
128.755 88.0564 550.222
127.603 88.2467 545.301
126.984 88.7914 542.654
126.881 89.6919 542.215
126.881 90.6642 542.215
126.37 91.2675 540.033
126.167 92.0876 539.164
126.066 92.9796 538.731
126.167 94.0212 539.164
126.167 94.988 539.164
125.763 95.6472 537.436
124.565 97.5999 532.318
123.975 98.0873 529.795
123.39 99.5157 527.296
123.003 100.146 525.643
123.003 101.089 525.643
122.907 101.951 525.231
122.907 102.893 525.231
121.386 105.341 518.732
121.48 106.353 519.133
121.48 107.284 519.133
121.386 108.131 518.732
121.198 108.893 517.931
120.732 109.399 515.939
119.994 109.65 512.783
119.719 110.316 511.61
119.355 110.895 510.054
119.264 111.725 509.666
118.903 112.297 508.122
118.633 112.952 506.969
118.633 113.861 506.969
118.365 114.51 505.822
117.743 114.811 503.166
117.128 115.109 500.538
117.041 115.92 500.164
116.52 116.296 497.936
116.433 117.102 497.567
116.433 117.995 497.567
116.261 118.711 496.83
115.832 119.16 494.997
115.832 120.048 494.997
115.746 120.846 494.632
115.321 121.286 492.814
115.067 121.901 491.731
112.43 128.584 480.459
112.189 129.167 479.428
112.029 130.7 478.744
112.029 131.558 478.744
104.704 146.225 447.445
104.287 146.441 445.661
104.287 147.241 445.661
104.356 148.138 445.958
104.426 149.037 446.254
104.495 149.937 446.552
104.565 150.838 446.849
104.149 151.834 445.07
104.149 152.632 445.07
103.53 152.519 442.428
103.599 153.413 442.72
100.225 156.097 428.302
99.8423 156.267 426.667
100.033 157.332 427.483
100.353 158.604 428.849
100.289 159.271 428.575
100.289 160.039 428.575
100.289 160.808 428.575
99.8423 160.857 426.667
99.4626 161.008 425.045
98.9609 160.954 422.901
98.4025 164.57 420.514
214.302 -116.929 908.835
214.302 -115.299 908.835
214.302 -113.67 908.835
214.012 -111.888 907.605
213.723 -110.112 906.379
212.574 -106.287 901.506
210.312 -103.557 891.915
209.199 -101.418 887.196
208.098 -99.3017 882.527
208.647 -97.977 884.855
208.647 -96.3903 884.855
207.009 -94.0591 877.906
206.738 -92.364 876.759
207.009 -90.9107 877.906
205.931 -88.8712 873.334
204.864 -86.8528 868.809
202.762 -84.4201 859.898
199.69 -81.6225 846.869
199.69 -80.1039 846.869
198.438 -78.0923 841.556
198.438 -76.5833 841.556
196.71 -74.4207 834.229
196.466 -72.8342 833.193
196.222 -71.2516 832.159
196.222 -69.7595 832.159
195.736 -68.0983 830.1
196.222 -66.7751 832.159
196.71 -65.4453 834.229
193.817 -63.009 821.961
191.935 -60.9377 813.981
190.778 -59.1193 809.072
189.634 -57.3228 804.221
188.954 -55.6804 801.339
188.954 -54.2435 801.339
188.056 -52.5555 797.527
187.387 -50.9436 794.692
187.165 -49.4601 793.752
186.503 -47.8668 790.944
185.41 -46.1763 786.308
184.545 -44.5574 782.638
183.901 -43.0034 779.907
183.687 -41.5566 779.002
183.687 -40.1598 779.002
183.901 -38.808 779.907
182.416 -37.1075 773.611
181.996 -35.6381 771.83
181.37 -34.1362 769.175
180.336 -32.5702 764.79
179.926 -31.1278 763.049
179.517 -29.692 761.317
178.908 -28.2307 758.734
176.907 -26.5697 750.247
176.907 -25.2244 750.247
176.512 -23.8258 748.572
175.923 -22.4084 746.074
174.95 -20.9541 741.947
173.796 -19.4943 737.055
172.658 -18.0536 732.228
171.534 -16.6317 727.462
171.349 -15.3106 726.674
171.349 -14.0076 726.674
171.349 -12.7046 726.674
171.349 -11.4015 726.674
171.163 -10.0876 725.888
170.059 -8.72926 721.205
169.512 -7.41212 718.886
169.331 -6.1165 718.116
168.788 -4.81336 715.817
168.25 -3.51853 713.532
167.537 -2.22958 710.509
167.183 -0.953513 709.007
167.36 0.318174 709.757
166.83 1.58584 707.511
166.83 2.8545 707.511
162.044 5.23716 687.214
161.547 6.4496 685.108
161.382 7.67027 684.409
161.382 8.89751 684.409
161.382 10.1248 684.409
161.054 11.3289 683.015
161.054 12.5536 683.015
160.4 13.7225 680.244
159.43 14.8519 676.129
158.631 15.9837 672.739
157.997 17.1213 670.05
157.525 18.2681 668.048
157.211 19.4273 666.72
156.125 20.4803 662.113
156.279 21.689 662.767
156.279 22.8774 662.767
156.125 24.0421 662.113
156.125 25.2293 662.113
155.817 26.3646 660.808
155.206 27.4413 658.214
154.448 28.4819 655
153.399 29.455 650.553
152.659 30.4738 647.414
152.365 31.5737 646.166
151.78 32.6067 643.686
151.344 33.664 641.838
151.055 34.7484 640.612
150.624 35.7946 638.781
150.48 36.9049 638.174
149.343 37.7618 633.353
150.052 39.082 636.357
147.946 39.6586 627.428
148.224 40.8602 628.604
148.224 41.9873 628.604
148.224 43.1145 628.604
148.085 44.2003 628.015
148.085 45.3264 628.015
147.946 46.409 627.428
147.67 47.4454 626.256
146.984 48.3426 623.346
146.44 49.2772 621.037
145.631 50.1124 617.606
143.908 50.614 610.301
143.256 51.4742 607.537
142.997 52.4685 606.438
142.868 53.5076 605.89
142.868 54.594 605.89
142.868 55.6805 605.89
142.739 56.7157 605.343
142.482 57.697 604.253
141.716 58.4645 601.004
140.832 59.171 597.258
140.582 60.1349 596.196
140.084 60.9871 594.084
139.836 61.9426 593.033
139.713 62.9504 592.509
139.713 64.0128 592.509
139.713 65.0753 592.509
138.854 65.7313 588.868
138.611 66.6701 587.836
137.765 67.3113 584.251
136.931 67.9446 580.71
136.931 68.9859 580.71
136.931 70.0272 580.71
136.812 71.007 580.208
135.755 71.4908 575.726
135.639 72.461 575.232
135.755 73.5555 575.726
135.06 74.2057 572.776
134.944 75.1686 572.287
134.829 76.1298 571.799
134.714 77.0894 571.312
133.127 78.2057 564.579
133.127 79.2181 564.579
133.015 80.163 564.105
133.015 81.1745 564.105
132.458 81.8419 561.742
132.347 82.7798 561.272
130.923 82.8846 555.232
129.955 83.2599 551.126
129.955 84.2481 551.126
129.741 85.0965 550.222
129.635 86.0126 549.771
129.635 86.9984 549.771
129.529 87.9122 549.321
128.895 88.4625 546.634
127.957 88.7914 542.654
127.853 89.6919 542.215
127.75 90.5909 541.777
127.236 91.1941 539.598
127.134 92.0876 539.164
127.032 92.9796 538.731
127.134 94.0212 539.164
127.134 94.988 539.164
126.93 95.8008 538.299
126.93 96.766 538.299
125.919 96.9531 534.013
125.42 97.5225 531.896
124.925 98.0873 529.795
124.629 98.8032 528.542
123.946 99.2037 525.643
123.946 100.146 525.643
123.946 101.089 525.643
123.946 102.031 525.643
123.849 102.893 525.231
123.849 103.835 525.231
122.411 104.491 519.133
122.316 105.341 518.732
122.411 106.353 519.133
122.411 107.284 519.133
122.411 108.215 519.133
122.411 109.146 519.133
121.658 109.399 515.939
121.099 109.818 513.568
120.821 110.485 512.391
120.27 110.895 510.054
120.178 111.725 509.666
119.996 112.468 508.893
119.543 112.952 506.969
119.543 113.861 506.969
119.362 114.597 506.204
118.824 114.984 503.922
118.291 115.367 501.661
118.114 116.093 500.911
117.413 117.189 497.936
117.413 118.082 497.936
117.325 118.887 497.567
117.065 119.513 496.462
117.152 120.492 496.83
116.806 121.025 495.362
116.462 121.554 493.903
116.034 121.99 492.091
115.949 122.783 491.731
116.034 123.755 492.091
115.949 124.546 491.731
113.373 127.814 480.803
113.291 128.584 480.459
113.129 129.26 479.771
112.807 130.607 478.403
112.807 131.465 478.403
112.008 138.199 475.014
105.436 146.128 447.147
105.296 146.734 446.552
105.296 147.535 446.552
105.016 147.941 445.365
105.226 149.037 446.254
105.366 150.037 446.849
105.366 150.838 446.849
104.947 151.834 445.07
104.808 152.429 444.48
104.324 152.519 442.428
104.255 153.211 442.136
104.255 154.004 442.136
100.8 157.332 427.483
101.057 159.271 428.575
101.057 160.039 428.575
101.057 160.808 428.575
100.671 160.959 426.939
100.161 160.906 424.775
100.098 161.565 424.507
216.518 -118.881 911.305
216.518 -117.247 911.305
215.348 -114.988 906.379
215.931 -113.67 908.835
215.931 -112.04 908.835
215.348 -110.112 906.379
215.348 -108.487 906.379
214.19 -106.287 901.506
210.79 -103.009 887.196
210.79 -101.418 887.196
209.681 -99.3017 882.527
210.234 -97.977 884.855
210.79 -96.6454 887.196
210.79 -95.0545 887.196
208.583 -92.4849 877.906
206.422 -86.8528 868.809
204.304 -84.4201 859.898
200.198 -81.2123 842.614
200.198 -79.7014 842.614
199.947 -78.0923 841.556
199.947 -76.5833 841.556
198.453 -74.5133 835.268
198.206 -72.9248 834.229
197.96 -71.3401 833.193
197.96 -69.8461 833.193
197.96 -68.3521 833.193
198.206 -66.9412 834.229
198.7 -65.6085 836.31
198.7 -64.1089 836.31
193.865 -61.0859 815.962
192.461 -59.1907 810.049
190.847 -57.2542 803.258
190.391 -55.6804 801.339
190.164 -54.1788 800.382
189.711 -52.618 798.477
189.036 -51.0041 795.635
188.812 -49.5187 794.692
187.479 -47.7542 789.083
186.383 -46.0682 784.468
185.948 -44.5574 782.638
185.299 -43.0034 779.907
185.299 -41.6049 779.907
185.084 -40.1598 779.002
184.655 -38.6731 777.196
183.803 -37.1075 773.611
183.592 -35.6791 772.719
183.169 -34.2147 770.943
181.707 -32.5702 764.79
180.677 -31.022 760.454
180.473 -29.6248 759.593
178.452 -27.9462 751.087
178.252 -26.5697 750.247
177.854 -25.1681 748.572
177.656 -23.7992 747.737
177.064 -22.3835 745.245
175.504 -20.8618 738.679
173.971 -19.3666 732.228
173.971 -18.0536 732.228
172.278 -16.5777 725.103
172.465 -15.294 725.888
172.465 -13.9924 725.888
172.652 -12.7046 726.674
172.465 -11.3892 725.888
171.352 -10.0225 721.205
170.984 -8.71053 719.657
170.618 -7.40419 718.116
170.254 -6.10343 716.582
170.254 -4.8185 716.582
169.71 -3.52228 714.292
168.811 -2.22958 710.509
167.921 -0.950499 706.765
167.392 2.84251 704.538
163.276 4.00488 687.214
162.942 5.22645 685.808
162.776 6.4496 685.108
162.444 7.66245 683.711
162.61 8.89751 684.409
162.61 10.1248 684.409
162.278 11.3289 683.015
161.949 12.5281 681.626
161.293 13.6947 678.867
161.13 14.8969 678.18
160.319 16.0319 674.769
160.158 17.2246 674.091
158.723 18.2681 668.048
157.78 19.3503 664.08
157.468 20.5005 662.767
157.468 21.689 662.767
157.468 22.8774 662.767
157.312 24.0421 662.113
157.157 25.2045 661.46
157.157 26.3906 661.46
156.233 27.4144 657.569
155.168 28.3987 653.087
154.866 29.5123 651.818
153.969 30.5032 648.039
153.672 31.6042 646.789
152.934 32.6067 643.686
152.495 33.664 641.838
152.059 34.7153 640
151.625 35.7605 638.174
151.337 36.8348 636.961
150.195 37.6906 632.159
150.337 38.8607 632.755
149.351 39.733 628.604
149.491 40.8985 629.194
149.491 42.0267 629.194
149.351 43.1145 628.604
149.351 44.2417 628.604
149.211 45.3264 628.015
148.793 46.3224 626.256
148.654 47.4011 625.672
147.964 48.2977 622.767
147.553 49.2772 621.037
147.009 50.2049 618.746
145.002 50.614 610.301
144.739 51.6144 609.192
144.607 52.6589 608.639
144.084 53.5559 606.438
144.739 54.8915 609.192
144.346 55.8318 607.537
142.793 56.3091 601.004
142.538 57.2841 599.929
142.03 58.1518 597.79
141.903 59.171 597.258
141.777 60.1884 596.726
141.525 61.1496 595.666
141.024 61.9975 593.558
141.024 63.0618 593.558
140.9 64.0694 593.033
140.775 65.0753 592.509
139.787 65.6736 588.351
139.055 66.3793 585.271
138.692 67.2527 583.743
137.972 67.9446 580.71
137.852 68.9262 580.208
137.852 69.9666 580.208
137.614 70.8844 579.206
136.788 71.4908 575.726
136.67 72.461 575.232
136.788 73.5555 575.726
136.319 74.3327 573.756
136.087 75.2328 572.776
135.855 76.1298 571.799
135.855 77.1552 571.799
135.508 77.981 570.34
134.82 78.6027 567.445
134.252 79.2848 565.055
134.026 80.163 564.105
133.914 81.1063 563.631
133.354 81.7734 561.272
133.354 82.7798 561.272
132.357 83.16 557.077
131.158 83.3969 552.033
130.835 84.179 550.674
130.728 85.0965 550.222
130.407 85.8718 548.871
130.514 86.9272 549.321
130.194 87.6967 547.974
129.77 88.3904 546.189
129.244 89.0074 543.974
128.93 89.7645 542.654
128.826 90.6642 542.215
128.204 91.1941 539.598
128.101 92.0876 539.164
128.204 93.1292 539.598
128.204 94.0968 539.598
128.307 95.1409 540.033
127.895 95.8008 538.299
127.486 96.4564 536.576
126.675 96.799 533.164
126.374 97.5225 531.896
125.775 98.0099 529.377
125.38 98.6477 527.711
124.888 99.2037 525.643
124.888 100.146 525.643
124.888 101.089 525.643
124.79 101.951 525.231
124.401 102.572 523.591
123.821 103.028 521.15
123.725 103.882 520.746
123.342 104.491 519.133
123.342 105.422 519.133
123.342 106.353 519.133
123.342 107.284 519.133
123.342 109.146 519.133
122.207 109.986 514.356
121.74 110.485 512.391
121.184 110.895 510.054
121 111.64 509.279
120.817 112.382 508.507
120.452 112.952 506.969
120.452 113.861 506.969
120.27 114.597 506.204
120.089 115.33 505.441
118.923 115.109 500.538
118.923 116.006 500.538
118.481 116.469 498.677
118.481 117.364 498.677
118.481 118.258 498.677
118.393 119.063 498.306
118.13 119.69 497.198
118.13 120.582 497.198
117.607 121.823 494.997
117.347 122.44 493.903
116.831 122.783 491.731
116.831 124.546 491.731
113.99 128.4 479.771
113.99 129.26 479.771
113.502 130.421 477.721
113.502 131.277 477.721
112.62 136.207 474.007
112.7 137.153 474.343
112.939 138.297 475.351
106.309 146.225 447.445
106.168 146.832 446.849
106.097 147.535 446.552
106.026 148.237 446.254
105.956 148.938 445.958
106.168 150.037 446.849
105.675 150.935 444.775
105.605 151.632 444.48
105.465 152.228 443.892
105.256 152.72 443.012
105.186 153.413 442.72
105.186 154.207 442.72
101.631 157.432 427.755
102.021 158.807 429.398
101.826 159.271 428.575
101.761 159.937 428.302
101.566 160.398 427.483
101.244 161.417 426.125
101.115 161.975 425.584
217.561 -116.929 908.835
217.561 -115.299 908.835
217.561 -113.67 908.835
216.973 -111.737 906.379
216.973 -110.112 906.379
215.807 -107.903 901.506
213.511 -105.156 891.915
212.381 -103.009 887.196
211.263 -100.884 882.527
211.263 -99.3017 882.527
211.263 -97.7192 882.527
211.263 -96.1367 882.527
212.381 -95.0545 887.196
209.609 -92.2435 875.614
207.979 -86.8528 868.809
203.757 -83.5631 851.168
202.727 -81.6225 846.869
202.217 -79.9021 844.736
201.456 -78.0923 841.556
201.456 -76.5833 841.556
200.45 -74.6994 837.354
199.95 -73.0156 835.268
199.454 -71.3401 833.193
199.454 -69.8461 833.193
199.206 -68.2673 832.159
198.713 -66.6098 830.1
198.713 -65.1213 830.1
196.765 -63.009 821.961
195.329 -61.0859 815.962
193.446 -59.0481 808.097
192.058 -57.1857 802.297
191.828 -55.6804 801.339
191.599 -54.1788 800.382
190.916 -52.5555 797.527
190.463 -51.0041 795.635
190.012 -49.4601 793.752
188.894 -47.7542 789.083
187.57 -46.0144 783.552
187.351 -44.5574 782.638
186.698 -43.0034 779.907
186.481 -41.5566 779.002
186.265 -40.1132 778.098
186.049 -38.6731 777.196
185.19 -37.1075 773.611
185.19 -35.7203 773.611
185.19 -34.3331 773.611
185.19 -32.9459 773.611
181.835 -30.9868 759.593
181.629 -29.5913 758.734
180.405 -28.0404 753.618
179.799 -26.5994 751.087
179.597 -25.2244 750.247
178.797 -23.7727 746.905
175.668 -20.7248 733.83
175.476 -19.3877 733.028
175.284 -18.0536 732.228
174.902 -16.7041 730.632
174.143 -15.3272 727.462
173.955 -14.0076 726.674
173.766 -12.6908 725.888
173.766 -11.3892 725.888
173.017 -10.0441 722.759
172.275 -8.71053 719.657
171.722 -7.39627 717.348
171.539 -6.10343 716.582
171.722 -4.82365 717.348
170.809 -3.51853 713.532
169.546 -2.22251 708.258
169.189 -0.950499 706.765
169.011 0.316499 706.021
168.656 1.57917 704.538
168.656 2.84251 704.538
166.556 4.05474 695.768
165.016 5.2533 689.332
164.846 6.48271 688.625
164.508 7.7017 687.214
164.508 8.93397 687.214
164.508 10.1662 687.214
164.004 11.3636 685.108
163.503 12.5536 683.015
162.84 13.7225 680.244
162.346 14.8969 678.18
161.529 16.0319 674.769
161.205 17.2073 673.414
159.92 18.2681 668.048
159.286 19.3887 665.397
158.656 20.5005 662.767
158.656 21.689 662.767
158.656 22.8774 662.767
158.5 24.0421 662.113
158.187 25.1796 660.808
157.412 26.2353 657.569
157.258 27.3876 656.925
156.035 28.3435 651.818
155.582 29.4265 649.923
155.131 30.5032 648.039
154.981 31.6347 647.414
154.682 32.7324 646.166
153.793 33.6963 642.452
153.499 34.7816 641.224
153.06 35.8287 639.39
152.769 36.9049 638.174
151.329 37.6906 632.159
150.902 38.7147 630.376
149.776 39.5477 625.672
150.478 40.8602 628.604
150.337 41.948 628.015
150.337 43.0741 628.015
150.337 44.2003 628.015
150.197 45.284 627.428
149.916 46.3224 626.256
149.776 47.4011 625.672
148.667 48.1636 621.037
148.118 49.0954 618.746
146.097 50.614 610.301
145.964 51.6613 609.746
145.964 52.7547 609.746
145.831 53.7991 609.192
145.831 54.8915 609.192
145.435 55.8318 607.537
143.871 56.3091 601.004
143.742 57.3354 600.466
142.974 58.1 597.258
142.847 59.1184 596.726
142.847 60.1884 596.726
142.593 61.1496 595.666
142.089 61.9975 593.558
142.089 63.0618 593.558
141.587 63.8999 591.464
140.842 64.6186 588.351
140.596 65.5586 587.321
140.105 66.3793 585.271
139.618 67.1942 583.235
139.254 68.0625 581.718
139.013 68.9859 580.71
139.013 70.0272 580.71
139.013 71.0685 580.71
137.938 71.5522 576.22
137.82 72.5232 575.726
137.82 73.5555 575.726
137.82 74.5879 575.726
137.702 75.5554 575.232
136.997 76.1948 572.287
136.997 77.221 572.287
136.88 78.1805 571.799
135.838 78.6027 567.445
135.152 79.2181 564.579
134.924 80.0956 563.631
134.811 81.0382 563.157
134.36 81.7734 561.272
133.577 82.2977 558.004
132.914 82.8846 555.232
132.257 83.4656 552.488
132.148 84.3868 552.033
131.823 85.1664 550.674
131.715 86.0832 550.222
131.607 86.9984 549.771
131.284 87.7684 548.422
130.749 88.3904 546.189
130.114 88.9353 543.534
130.008 89.8371 543.093
130.008 90.811 543.093
129.693 91.5624 541.777
129.484 92.3846 540.904
129.171 93.1292 539.598
129.171 94.0968 539.598
129.171 95.0644 539.598
128.757 95.7239 537.867
128.141 96.2254 535.292
127.733 96.876 533.588
127.328 97.5225 531.896
126.725 98.0099 529.377
126.625 99.8296 528.959
126.028 100.303 526.468
125.831 101.089 525.643
125.732 101.951 525.231
125.536 102.732 524.41
125.047 103.269 522.368
124.465 103.721 519.938
124.273 104.491 519.133
124.176 105.341 518.732
124.273 106.353 519.133
124.273 107.284 519.133
123.793 107.798 517.132
123.793 108.725 517.132
123.603 109.483 516.336
123.508 110.324 515.939
122.846 110.654 513.176
122.285 111.064 510.831
121.914 112.553 509.279
121.452 113.037 507.353
121.452 113.947 507.353
121.361 114.77 506.969
121.177 115.504 506.204
119.821 115.109 500.538
119.821 116.006 500.538
119.11 116.21 497.567
119.376 117.364 498.677
119.287 118.17 498.306
119.198 118.975 497.936
118.933 119.602 496.83
119.022 120.582 497.198
114.932 127.631 480.115
114.85 128.4 479.771
114.278 130.328 477.381
114.278 131.184 477.381
114.278 132.04 477.381
114.359 132.991 477.721
113.792 135.74 475.351
113.39 136.11 473.673
113.631 137.251 474.678
107.04 146.128 447.147
106.826 146.636 446.254
106.684 147.241 445.661
106.755 148.138 445.958
106.969 149.235 446.849
107.112 150.237 447.445
106.614 150.337 445.365
106.472 150.935 444.775
106.402 151.632 444.48
106.331 152.328 444.186
106.191 152.922 443.598
105.98 153.413 442.72
105.98 154.207 442.72
102.726 159.475 429.124
102.66 160.142 428.849
102.66 160.911 428.849
102.073 161.519 426.396
102.008 162.181 426.125
219.786 -117.247 911.305
219.191 -115.299 908.835
219.191 -113.67 908.835
219.191 -112.04 908.835
218.598 -110.112 906.379
218.009 -108.194 903.936
215.11 -105.156 891.915
215.11 -103.557 891.915
213.972 -101.418 887.196
212.846 -99.3017 882.527
212.846 -97.7192 882.527
212.846 -96.1367 882.527
211.179 -93.8136 875.614
210.629 -92.0032 873.334
209.537 -89.9686 868.809
208.457 -87.955 864.33
207.388 -85.962 859.898
205.283 -83.5631 851.168
205.023 -81.9328 850.089
204.246 -80.1039 846.869
204.246 -78.5854 846.869
203.475 -76.776 843.673
202.965 -75.0743 841.556
201.448 -73.0156 835.268
200.948 -71.3401 833.193
200.698 -69.7595 832.159
200.698 -68.2673 832.159
200.202 -66.6098 830.1
200.202 -65.1213 830.1
198.239 -63.009 821.961
195.839 -60.7901 812.01
195.13 -59.1193 809.072
193.496 -57.1857 802.297
193.265 -55.6804 801.339
193.034 -54.1788 800.382
192.575 -52.618 798.477
191.889 -51.0041 795.635
191.209 -49.4016 792.814
190.086 -47.6981 788.156
189.196 -46.0682 784.468
188.755 -44.5574 782.638
188.096 -43.0034 779.907
187.878 -41.5566 779.002
187.66 -40.1132 778.098
187.226 -38.6283 776.297
186.578 -37.1075 773.611
186.363 -35.6791 772.719
186.578 -34.3331 773.611
184.24 -31.1633 763.918
182.99 -29.5913 758.734
182.577 -28.167 757.021
181.348 -26.6292 751.929
180.539 -25.1681 748.572
179.936 -23.7463 746.074
178.941 -22.2845 741.947
177.372 -20.7703 735.439
176.983 -19.409 733.83
176.597 -18.0536 732.228
175.448 -16.6317 727.462
175.258 -15.3106 726.674
175.258 -14.0076 726.674
174.879 -12.6771 725.103
175.068 -11.3892 725.888
173.939 -10.0225 721.205
173.565 -8.71053 719.657
173.379 -7.41212 718.886
173.194 -6.1165 718.116
173.194 -4.82882 718.116
171.905 -3.51479 712.774
170.816 -2.22251 708.258
170.816 -0.952506 708.258
170.636 0.317167 707.511
169.919 1.57917 704.538
168.153 4.06317 697.215
167.804 5.30235 695.768
167.456 6.5364 694.328
166.766 7.74934 691.464
166.594 8.97998 690.752
166.252 10.1976 689.332
165.741 11.3985 687.214
164.896 12.5664 683.711
163.728 13.6947 678.867
163.232 14.8668 676.812
162.739 16.0319 674.769
162.413 17.2073 673.414
161.763 18.3411 670.72
160.798 19.4273 666.72
160.32 20.5615 664.738
160.161 21.7319 664.08
160.003 22.9 663.423
159.687 24.0421 662.113
159.059 25.1301 659.509
157.664 26.0819 653.724
157.664 27.2541 653.724
157.204 28.3435 651.818
156.747 29.4265 649.923
156.142 30.4738 647.414
155.991 31.6042 646.789
155.841 32.7324 646.166
155.094 33.7286 643.068
154.797 34.8149 641.838
154.06 35.7946 638.781
153.621 36.8348 636.961
152.033 37.5843 630.376
151.605 38.6058 628.604
151.18 39.6216 626.842
151.463 40.8219 628.015
151.463 41.948 628.015
151.463 43.0741 628.015
151.463 44.2003 628.015
151.322 45.284 627.428
151.039 46.3224 626.256
150.477 47.2688 623.926
149.365 48.0302 619.317
149.09 49.0501 618.175
148.816 50.0663 617.038
148.134 50.9384 614.213
147.729 51.8972 612.53
147.864 53.044 613.09
147.325 53.9461 610.857
147.057 54.9414 609.746
145.995 55.6302 605.343
144.949 56.3091 601.004
144.689 57.2841 599.929
143.917 58.0484 596.726
143.789 59.0658 596.196
143.789 60.1349 596.196
143.407 61.0412 594.61
143.153 61.9975 593.558
143.026 63.006 593.033
142.774 63.9563 591.986
142.022 64.6754 588.868
141.773 65.6161 587.836
141.154 66.3793 585.271
140.786 67.2527 583.743
140.419 68.1215 582.223
140.054 68.9859 580.71
140.054 70.0272 580.71
140.176 71.1301 581.214
139.211 71.6754 577.212
139.091 72.6479 576.716
139.451 73.8726 578.207
138.971 74.652 576.22
138.733 75.5554 575.232
138.023 76.1948 572.287
137.905 77.1552 571.799
137.32 77.8486 569.372
136.971 78.6693 567.926
136.279 79.2848 565.055
136.049 80.163 564.105
135.821 81.0382 563.157
135.253 81.705 560.803
134.466 82.2293 557.54
134.132 83.022 556.153
133.578 83.6724 553.857
133.358 84.526 552.943
132.919 85.2364 551.126
132.484 85.9422 549.321
132.375 86.856 548.871
132.051 87.6251 547.527
132.051 88.6069 547.527
131.729 89.3698 546.189
131.729 90.3492 546.189
131.622 91.2543 545.745
130.665 91.5624 541.777
130.665 92.5339 541.777
130.244 93.2042 540.033
130.244 94.1726 540.033
130.139 95.0644 539.598
129.93 95.8777 538.731
129.204 96.3023 535.719
128.997 97.1078 534.865
128.485 97.6774 532.741
127.775 98.0873 529.795
127.573 99.8296 528.959
127.473 100.699 528.542
126.873 101.168 526.055
126.773 102.031 525.643
126.476 102.732 524.41
125.203 102.63 519.133
125.203 103.56 519.133
125.107 104.411 518.732
125.01 105.259 518.331
125.01 106.189 518.331
125.107 107.201 518.732
124.913 107.964 517.931
124.913 108.893 517.931
124.625 109.568 516.734
124.529 110.409 516.336
124.051 110.908 514.356
123.389 111.233 511.61
123.014 111.81 510.054
122.641 112.382 508.507
122.177 112.866 506.586
122.177 113.775 506.586
121.993 114.51 505.822
120.899 115.281 501.286
120.719 116.006 500.538
120.002 116.21 497.567
120.091 117.189 497.936
120.002 117.995 497.567
119.824 118.711 496.83
115.71 127.539 479.771
115.462 128.125 478.744
115.134 130.328 477.381
115.052 131.091 477.042
115.134 132.04 477.381
115.052 133.657 477.042
114.888 134.321 476.364
114.888 135.175 476.364
114.563 135.644 475.014
114.482 136.399 474.678
114.401 137.153 474.343
107.842 145.326 447.147
107.914 146.225 447.445
107.842 146.93 447.147
107.77 147.633 446.849
107.555 148.138 445.958
107.842 149.335 447.147
107.555 150.537 445.958
107.27 150.935 444.775
107.128 151.532 444.186
107.128 152.328 444.186
106.986 152.922 443.598
106.774 153.413 442.72
106.704 154.106 442.428
103.561 159.577 429.398
103.429 160.142 428.849
102.903 160.092 426.667
102.903 160.857 426.667
102.707 161.314 425.854
102.707 162.078 425.854
221.421 -117.247 911.305
220.821 -115.299 908.835
220.224 -113.362 906.379
220.224 -111.737 906.379
219.04 -109.52 901.506
218.452 -107.614 899.089
217.868 -105.718 896.685
215.563 -103.009 887.196
214.994 -101.15 884.855
213.866 -99.041 880.211
213.866 -97.4627 880.211
213.306 -95.6334 877.906
212.195 -93.5693 873.334
212.195 -92.0032 873.334
211.095 -89.9686 868.809
208.93 -87.504 859.898
208.93 -85.962 859.898
206.285 -83.3515 849.013
206.547 -81.9328 850.089
206.285 -80.3067 849.013
206.285 -78.7843 849.013
205.246 -76.8727 844.736
204.731 -75.1686 842.614
202.693 -72.9248 834.229
202.693 -71.4289 834.229
202.19 -69.7595 832.159
201.69 -68.0983 830.1
201.192 -66.4453 828.05
200.45 -64.7208 824.994
198.738 -62.7016 817.952
197.056 -60.7166 811.028
196.344 -59.0481 808.097
194.935 -57.1857 802.297
194.935 -55.7471 802.297
194.47 -54.1788 800.382
193.546 -52.493 796.58
193.087 -50.9436 794.692
192.859 -49.4601 793.752
191.724 -47.7542 789.083
191.05 -46.1763 786.308
190.826 -44.7139 785.387
189.495 -43.0034 779.907
189.495 -41.6049 779.907
189.055 -40.1132 778.098
188.618 -38.6283 776.297
187.965 -37.1075 773.611
187.965 -35.7203 773.611
187.965 -34.3331 773.611
187.965 -32.9459 773.611
186.034 -31.2344 765.663
184.35 -29.5913 758.734
184.35 -28.2307 758.734
182.697 -26.6292 751.929
182.288 -25.2244 750.247
181.678 -23.7992 747.737
180.272 -22.2845 741.947
179.083 -20.8159 737.055
178.495 -19.4302 734.634
177.716 -18.0339 731.429
177.136 -16.6678 729.044
176.561 -15.3106 726.674
176.561 -14.0076 726.674
175.989 -12.6634 724.32
175.609 -11.3401 722.759
174.668 -9.99025 718.886
174.295 -8.68258 717.348
173.923 -7.38048 715.817
173.923 -6.09692 715.817
173.552 -4.80311 714.292
172.633 -3.50362 710.509
172.086 -2.22251 708.258
171.905 -0.951501 707.511
172.086 0.317502 708.258
171.905 1.58584 707.511
171.182 2.84251 704.538
170.288 4.0844 700.857
169.227 5.30786 696.491
169.051 6.54996 695.768
168.353 7.76535 692.893
167.833 8.97998 690.752
167.66 10.2081 690.042
166.973 11.3985 687.214
166.122 12.5664 683.711
164.778 13.6808 678.18
164.446 14.8668 676.812
164.28 16.0643 676.129
163.784 17.2246 674.091
163.456 18.3963 672.739
162.478 19.4854 668.714
162.155 20.6433 667.384
161.994 21.8183 666.72
161.994 23.0138 666.72
160.874 24.0421 662.113
159.614 25.0317 656.925
158.681 26.0565 653.087
158.527 27.2011 652.452
157.759 28.2337 649.294
157.607 29.3696 648.666
157.303 30.4738 647.414
157.151 31.6042 646.789
157 32.7324 646.166
156.097 33.6963 642.452
155.799 34.7816 641.224
155.058 35.7605 638.174
154.616 36.7998 636.357
152.589 37.4435 628.015
152.447 38.5336 627.428
152.162 39.5846 626.256
152.447 40.7837 627.428
152.589 41.948 628.015
152.589 43.0741 628.015
152.589 44.2003 628.015
152.02 45.1573 625.672
151.596 46.15 623.926
151.596 47.2688 623.926
150.476 48.0302 619.317
150.337 49.0954 618.746
150.337 50.2049 618.746
149.785 51.1257 616.471
149.236 52.0398 614.213
149.236 53.1412 614.213
149.099 54.1929 613.651
148.016 54.8915 609.192
147.081 55.6302 605.343
146.026 56.3091 601.004
145.765 57.2841 599.929
145.116 58.1 597.258
144.987 59.1184 596.726
144.987 60.1884 596.726
144.73 61.1496 595.666
144.345 62.0524 594.084
144.09 63.006 593.033
143.582 63.8436 590.943
142.952 64.6186 588.351
142.827 65.6161 587.836
142.204 66.3793 585.271
141.586 67.1358 582.728
141.218 68.0035 581.214
141.096 68.9859 580.71
140.974 69.9666 580.208
140.974 71.007 580.208
140.73 71.923 579.206
140.852 73.0246 579.706
141.463 74.3856 582.223
141.956 75.6924 584.251
142.08 76.807 584.761
139.168 76.2599 572.776
139.049 77.221 572.287
138.694 78.0474 570.826
138.106 78.7359 568.407
137.64 79.4857 566.487
136.716 79.9612 562.685
136.601 80.9023 562.213
136.145 81.6367 560.335
135.466 82.2293 557.54
135.129 83.022 556.153
134.46 83.6034 553.4
133.688 84.1099 550.222
133.798 85.1664 550.674
133.578 86.0126 549.771
133.578 86.9984 549.771
133.578 87.9842 549.771
133.578 88.9701 549.771
133.469 89.8822 549.321
133.251 90.7186 548.422
132.816 91.4031 546.634
131.743 91.6364 542.215
131.318 92.3102 540.468
131.107 93.1292 539.598
131.001 94.0212 539.164
131.001 94.988 539.164
130.896 95.8777 538.731
129.75 97.9107 534.013
129.235 98.4762 531.896
128.826 100.066 530.214
128.725 100.937 529.795
128.522 101.727 528.959
127.716 102.031 525.643
127.516 102.813 524.82
127.019 103.35 522.775
126.821 104.125 521.961
126.037 104.411 518.732
126.037 105.341 518.732
126.037 106.271 518.732
126.134 107.284 519.133
125.842 107.964 517.931
125.939 108.977 518.331
125.842 109.822 517.931
125.551 110.494 516.734
125.166 111.079 515.146
124.496 111.403 512.391
123.74 111.64 509.279
123.552 112.382 508.507
123.086 112.866 506.586
123.086 113.775 506.586
122.993 114.597 506.204
122.9 115.417 505.822
121.98 115.454 502.036
121.525 115.92 500.164
120.894 116.21 497.567
120.894 117.102 497.567
120.805 117.907 497.198
120.626 118.623 496.462
116.905 125.317 481.148
116.737 125.999 480.459
116.737 126.86 480.459
116.487 127.448 479.428
116.321 128.125 478.744
116.072 129.564 477.721
115.99 130.328 477.381
115.907 131.091 477.042
115.825 131.852 476.703
115.825 132.707 476.703
115.907 133.657 477.042
115.99 134.608 477.381
115.907 135.368 477.042
115.743 136.03 476.364
115.496 136.593 475.351
115.496 137.445 475.351
108.571 146.03 446.849
108.427 146.636 446.254
108.571 147.633 446.849
108.499 148.335 446.552
108.644 149.335 447.147
108.789 150.337 447.744
108.211 150.337 445.365
108.067 150.935 444.775
107.996 151.632 444.48
107.853 152.228 443.892
107.639 152.72 443.012
107.497 153.312 442.428
107.426 154.004 442.136
104.331 159.577 429.398
104.465 160.552 429.949
103.536 159.888 426.125
103.405 160.449 425.584
103.405 161.212 425.584
103.405 161.975 425.584
223.055 -115.613 911.305
223.055 -113.978 911.305
221.251 -111.436 903.936
220.656 -109.52 901.506
220.656 -107.903 901.506
218.891 -105.436 894.294
217.154 -103.009 887.196
217.154 -101.418 887.196
216.011 -99.3017 882.527
215.444 -97.4627 880.211
214.88 -95.6334 877.906
213.205 -93.3262 871.065
213.205 -91.7643 871.065
211.557 -89.5049 864.33
209.398 -87.0575 855.511
208.865 -85.3058 853.334
208.071 -83.4572 850.089
208.071 -81.9328 850.089
208.071 -80.4085 850.089
208.071 -78.8842 850.089
207.283 -77.0668 846.869
206.242 -75.1686 842.614
204.444 -73.0156 835.268
204.189 -71.4289 834.229
203.683 -69.7595 832.159
203.178 -68.0983 830.1
202.178 -66.2817 826.01
201.187 -64.4829 821.961
200.205 -62.7016 817.952
198.271 -60.6433 810.049
197.793 -59.0481 808.097
196.609 -57.2542 803.258
196.373 -55.7471 802.297
196.139 -54.2435 801.339
194.974 -52.493 796.58
194.743 -51.0041 795.635
194.282 -49.4601 793.752
193.139 -47.7542 789.083
192.234 -46.1222 785.387
191.785 -44.6094 783.552
191.116 -43.0535 780.815
190.893 -41.6049 779.907
190.672 -40.1598 779.002
190.01 -38.6283 776.297
189.571 -37.1503 774.504
189.352 -35.7203 773.611
189.352 -34.3331 773.611
188.916 -32.87 771.83
187.407 -31.2344 765.663
185.711 -29.5913 758.734
185.711 -28.2307 758.734
184.874 -26.7492 755.316
183.839 -25.2526 751.087
182.612 -23.7463 746.074
180.802 -22.1863 738.679
180.009 -20.7703 735.439
179.615 -19.409 733.83
178.832 -18.0143 730.632
178.25 -16.6497 728.252
177.864 -15.3106 726.674
177.864 -14.0076 726.674
177.479 -12.6771 725.103
177.671 -11.3892 725.888
176.146 -10.001 719.657
175.581 -8.68258 717.348
175.019 -7.37261 715.054
174.833 -6.08393 714.292
174.461 -4.7929 712.774
173.539 -3.49621 709.007
173.173 -2.22017 707.511
173.539 -0.953513 709.007
173.723 0.318174 709.757
173.907 1.59256 710.509
171.366 4.08013 700.126
170.476 5.30786 696.491
169.946 6.5364 694.328
169.595 7.76535 692.893
169.071 8.97998 690.752
169.071 10.2186 690.752
169.071 11.4572 690.752
167.177 12.5536 683.015
166.162 13.6947 678.867
165.826 14.8819 677.495
165.826 16.0967 677.495
164.993 17.2246 674.091
164.993 18.4333 674.091
163.841 19.5048 669.382
163.514 20.6639 668.048
163.514 21.8618 668.048
163.351 23.0367 667.384
162.382 24.0896 663.423
160.008 24.9097 653.724
159.542 26.0059 651.818
159.542 27.1747 651.818
159.078 28.2611 649.923
158.77 29.3696 648.666
158.464 30.4738 647.414
158.464 31.6347 647.414
158.311 32.7639 646.789
157.551 33.7609 643.686
157.249 34.8483 642.452
156.053 35.7265 637.567
155.022 36.6261 633.353
154.584 37.6551 631.564
153.716 38.5697 628.015
153.716 39.6958 628.015
153.86 40.8602 628.604
153.716 41.948 628.015
153.572 43.0338 627.428
153.428 44.1176 626.842
152.857 45.0732 624.507
152.715 46.15 623.926
152.573 47.2249 623.346
152.008 48.1636 621.037
151.587 49.1407 619.317
151.587 50.2512 619.317
151.447 51.3144 618.746
150.89 52.2311 616.471
150.337 53.1412 614.213
150.062 54.1434 613.09
149.244 54.9414 609.746
148.434 55.7308 606.438
147.633 56.5117 603.166
146.972 57.3354 600.466
146.318 58.1518 597.79
146.057 59.1184 596.726
146.057 60.1884 596.726
146.057 61.2584 596.726
145.798 62.2177 595.666
145.282 63.0618 593.558
144.514 63.7874 590.423
144.007 64.6186 588.351
143.755 65.5586 587.321
143.004 66.2636 584.251
142.26 66.9613 581.214
142.137 67.9446 580.71
142.137 68.9859 580.71
142.014 69.9666 580.208
142.137 71.0685 580.71
141.524 71.799 578.207
141.891 73.0246 579.706
142.507 74.3856 582.223
143.253 75.8245 585.271
143.629 77.0758 586.807
143.755 78.1964 587.321
139.244 77.7826 568.889
138.422 78.3376 565.532
138.189 79.2181 564.579
137.379 79.7605 561.272
137.264 80.6994 560.803
136.807 81.4326 558.934
136.352 82.161 557.077
136.239 83.0909 556.615
135.452 83.6034 553.4
135.229 84.4563 552.488
134.896 85.2364 551.126
134.564 86.0126 549.771
134.564 86.9984 549.771
134.454 87.9122 549.321
134.454 88.8972 549.321
134.124 89.6619 547.974
134.234 90.7186 548.422
134.015 91.5523 547.527
132.608 91.5624 541.777
132.287 92.3102 540.468
131.968 93.0544 539.164
131.968 94.0212 539.164
131.968 94.988 539.164
131.862 95.8777 538.731
130.603 97.8328 533.588
130.189 98.4762 531.896
129.063 98.5702 527.296
129.47 100.778 528.959
129.063 101.407 527.296
128.558 101.951 525.231
128.457 102.813 524.82
128.056 103.43 523.183
126.869 103.4 518.331
126.575 104.089 517.132
126.478 104.935 516.734
126.478 105.861 516.734
126.186 107.466 515.542
126.283 108.474 515.939
126.186 109.315 515.542
125.896 109.986 514.356
125.607 110.654 513.176
125.415 111.403 512.391
124.464 111.471 508.507
124.276 112.212 507.737
123.994 112.866 506.586
123.901 113.689 506.204
123.714 114.424 505.441
123.621 115.243 505.061
122.88 115.454 502.036
122.514 116.006 500.538
121.877 116.296 497.936
121.787 117.102 497.567
121.516 117.733 496.462
121.606 118.711 496.83
117.599 125.999 480.459
117.179 128.125 478.744
117.096 128.891 478.403
116.929 129.564 477.721
116.514 129.958 476.026
116.431 130.719 475.688
116.266 131.385 475.014
116.431 132.425 475.688
116.763 133.657 477.042
116.929 134.704 477.721
116.929 135.56 477.721
116.846 136.32 477.381
116.763 137.078 477.042
116.514 137.64 476.026
116.266 138.199 475.014
109.519 146.225 447.445
109.445 146.93 447.147
109.592 147.929 447.744
109.519 148.632 447.445
109.592 149.534 447.744
108.433 149.543 443.012
108.649 150.636 443.892
108.577 151.332 443.598
108.649 152.228 443.892
108.649 153.024 443.892
108.362 153.413 442.72
105.642 159.624 431.609
105.507 160.192 431.054
105.507 160.965 431.054
105.439 161.634 430.777
104.366 161.519 426.396
104.3 162.181 426.125
104.234 162.841 425.854
224.689 -115.613 911.305
222.273 -112.753 901.506
222.273 -111.136 901.506
222.273 -109.52 901.506
221.677 -107.614 899.089
220.495 -105.436 894.294
219.325 -103.282 889.55
218.167 -101.15 884.855
218.167 -99.5637 884.855
217.593 -97.7192 882.527
216.454 -95.6334 877.906
215.327 -93.5693 873.334
214.211 -91.5265 868.809
213.107 -89.5049 864.33
213.107 -87.955 864.33
209.862 -85.0893 851.168
209.596 -83.4572 850.089
209.596 -81.9328 850.089
209.596 -80.4085 850.089
209.596 -78.8842 850.089
208.802 -77.0668 846.869
207.752 -75.1686 842.614
205.685 -72.9248 834.229
205.685 -71.4289 834.229
205.175 -69.7595 832.159
204.667 -68.0983 830.1
203.659 -66.2817 826.01
202.66 -64.4829 821.961
201.426 -62.6252 816.955
200.207 -60.7901 812.01
199.482 -59.1193 809.072
198.286 -57.3228 804.221
197.812 -55.7471 802.297
197.576 -54.2435 801.339
196.636 -52.5555 797.527
196.403 -51.0647 796.58
196.17 -49.5774 795.635
195.474 -47.98 792.814
193.643 -46.1222 785.387
192.74 -44.5054 781.725
192.516 -43.0535 780.815
192.292 -41.6049 779.907
192.068 -40.1598 779.002
191.402 -38.6283 776.297
190.739 -37.1075 773.611
190.52 -35.6791 772.719
190.3 -34.254 771.83
189.212 -32.682 767.415
188.995 -31.2701 766.538
186.86 -29.5578 757.876
187.071 -28.2307 758.734
186.649 -26.8096 757.021
185.393 -25.2809 751.929
183.95 -23.7463 746.074
182.327 -22.2108 739.493
181.726 -20.8159 737.055
180.931 -19.409 733.83
180.339 -18.0339 731.429
180.143 -16.7041 730.632
179.556 -15.3439 728.252
179.361 -14.0228 727.462
178.973 -12.6908 725.888
178.973 -11.3892 725.888
177.818 -10.0225 721.205
177.057 -8.69187 718.116
176.49 -7.38048 715.817
176.114 -6.08393 714.292
175.74 -4.7929 712.774
174.811 -3.49621 709.007
174.626 -2.22251 708.258
174.811 -0.953513 709.007
174.811 0.317838 709.007
174.626 1.58751 708.258
172.261 4.07163 698.667
171.547 5.30235 695.768
170.31 6.50274 690.752
170.31 7.74136 690.752
170.135 8.97074 690.042
170.135 10.2081 690.042
170.135 11.4454 690.042
168.574 12.5664 683.711
167.379 13.6947 678.867
167.21 14.8969 678.18
167.21 16.113 678.18
166.369 17.2419 674.769
166.202 18.4333 674.091
164.548 19.4466 667.384
164.712 21.8618 668.048
164.058 22.9682 665.397
163.088 24.0184 661.46
