ply
format ascii 1.0
element vertex 2026
property float x
property float y
property float z
end_header
74.6127 154.414 551.126
74.4292 155.02 549.771
74.4292 156.006 549.771
74.4292 156.991 549.771
73.4064 155.806 542.215
73.3471 156.652 541.777
73.2288 157.369 540.904
73.1108 158.084 540.033
72.9933 158.797 539.164
72.9347 159.635 538.731
72.7011 160.087 537.006
71.7249 159.837 529.795
71.6683 160.66 529.377
71.6117 161.482 528.959
71.499 162.175 528.126
71.1628 162.355 525.643
70.7745 162.406 522.775
70.7194 163.217 522.368
70.7194 164.153 522.368
70.7194 165.09 522.368
70.6094 165.768 521.556
70.2815 165.929 519.133
70.0646 166.345 517.531
69.7953 166.63 515.542
69.6882 167.298 514.751
69.3687 167.45 512.391
69.1048 167.728 510.442
69.1048 168.643 510.442
68.9998 169.301 509.666
68.9998 170.215 509.666
68.5828 170.095 506.586
68.5311 170.874 506.204
68.3248 171.265 504.681
68.1198 171.653 503.166
67.7134 171.526 500.164
67.3118 171.4 497.198
67.0138 171.529 494.997
67.0633 172.544 495.362
66.9644 173.176 494.632
66.7674 173.551 493.177
65.8953 176.521 486.735
65.8475 177.265 486.382
65.7998 178.008 486.029
65.7521 178.75 485.677
65.7045 179.491 485.326
65.7521 180.492 485.677
65.6096 180.969 484.625
65.3734 181.184 482.88
65.3734 182.05 482.88
65.3734 182.916 482.88
124.67 11.8151 908.835
124.333 13.4085 906.379
123.333 14.9128 899.089
123.003 16.4808 896.685
123.003 18.0887 896.685
122.024 19.5398 889.55
121.702 21.079 887.196
120.427 22.4325 877.906
119.334 25.3487 869.936
119.179 26.8737 868.809
118.412 28.2487 863.218
118.108 29.7201 861.002
117.806 31.1839 858.797
117.355 32.5986 855.511
116.908 34.0026 852.25
116.759 35.4857 851.168
116.17 36.825 846.869
115.877 38.247 844.736
89.3266 107.717 651.185
89.1535 108.674 649.923
89.1535 109.839 649.923
89.1535 111.005 649.923
88.981 111.953 648.666
88.8092 112.898 647.414
88.1287 113.185 642.452
87.5417 113.575 638.174
87.3755 114.502 636.961
87.2926 115.534 636.357
87.0448 116.344 634.551
87.1272 117.593 635.152
86.9625 118.508 633.951
86.8804 119.532 633.353
86.7985 120.553 632.755
86.635 121.459 631.564
85.667 121.222 624.507
85.5078 122.114 623.346
85.5078 123.232 623.346
85.5873 124.465 623.926
83.0382 127.271 605.343
82.9634 128.241 604.797
82.9634 129.325 604.797
82.7395 130.058 603.166
82.443 130.669 601.004
82.1485 131.277 598.858
81.8562 131.879 596.726
81.8562 132.949 596.726
81.7834 133.9 596.196
81.7834 134.969 596.196
81.7108 135.918 595.666
81.3496 136.38 593.033
80.0752 137.384 583.743
79.5903 137.592 580.208
79.4528 138.393 579.206
79.4528 139.432 579.206
79.2475 140.108 577.709
79.1112 140.901 576.716
78.5037 142.897 572.287
78.5037 143.924 572.287
78.2367 144.457 570.34
77.7738 144.619 566.966
77.7738 145.635 566.966
77.4464 146.035 564.579
76.1642 145.608 555.232
76.2905 146.847 556.153
76.1012 147.477 554.773
76.0383 148.349 554.314
75.9128 150.089 553.4
75.9128 151.081 553.4
75.6631 151.574 551.579
75.4151 152.062 549.771
75.4151 153.048 549.771
75.4769 154.16 550.222
75.1686 154.513 547.974
74.9848 155.116 546.634
74.3786 155.806 542.215
74.3786 156.779 542.215
74.1987 157.369 540.904
74.0792 158.084 540.033
73.9007 158.669 538.731
73.6051 158.997 536.576
73.5463 159.831 536.147
73.3703 160.408 534.865
72.963 160.471 531.896
72.6175 160.66 529.377
72.5602 161.482 528.959
72.446 162.175 528.126
71.5446 162.028 521.556
71.6003 163.09 521.961
71.6003 164.025 521.961
71.6003 164.961 521.961
71.2124 165.929 519.133
70.9926 166.345 517.531
70.7741 166.759 515.939
70.503 167.041 513.962
70.2875 167.45 512.391
70.0201 167.728 510.442
70.0201 168.643 510.442
69.9668 169.429 510.054
69.9137 170.215 509.666
69.7546 170.739 508.507
69.5437 171.132 506.969
69.3864 171.652 505.822
68.867 171.267 502.036
68.5591 171.398 499.792
68.3047 171.654 497.936
68.0018 171.782 495.728
68.1024 172.927 496.462
67.8013 173.048 494.267
66.8165 176.649 487.088
66.7681 177.394 486.735
66.7196 178.137 486.382
66.6713 178.88 486.029
66.5748 179.491 485.326
66.6713 180.623 486.029
66.623 181.363 485.677
66.3348 181.445 483.576
66.3827 182.444 483.925
125.958 11.7832 906.379
124.945 14.9128 899.089
124.445 16.4588 895.488
124.445 18.0646 895.488
123.292 19.4882 887.196
122.322 20.913 880.211
122.001 22.4325 877.906
120.581 26.839 867.685
120.115 28.2851 864.33
119.96 29.7966 863.218
119.499 31.2239 859.898
119.193 32.682 857.699
118.889 34.1327 855.511
118.436 35.5308 852.25
117.986 36.9183 849.013
117.097 38.1509 842.614
90.847 105.793 653.724
91.2026 107.384 656.282
91.2919 108.667 656.925
90.6703 109.097 652.452
90.5822 110.16 651.818
90.3189 111.005 649.923
90.3189 112.17 649.923
89.9701 112.898 647.414
89.1953 113.077 641.838
88.6861 113.575 638.174
88.6018 114.611 637.567
88.6018 115.754 637.567
88.4337 116.675 636.357
88.4337 117.816 636.357
88.3498 118.845 635.754
88.2662 119.871 635.152
88.0161 120.667 633.353
87.4381 121.003 629.194
86.6255 120.996 623.346
86.6255 122.114 623.346
86.6255 123.232 623.346
86.6255 124.35 623.346
86.6255 125.467 623.346
84.0479 127.156 604.797
83.9721 128.125 604.253
83.9721 129.209 604.253
83.5956 129.708 601.543
82.9262 129.739 596.726
83.074 131.043 597.79
82.9262 131.879 596.726
82.9262 132.949 596.726
82.8525 133.9 596.196
82.8525 134.969 596.196
82.7789 135.918 595.666
82.4859 136.501 593.558
81.3343 136.694 585.271
81.1219 137.384 583.743
80.7005 137.711 580.71
80.6307 138.633 580.208
80.6307 139.673 580.208
80.561 140.592 579.706
80.422 141.387 578.706
79.5299 143.924 572.287
79.4621 144.826 571.799
79.0577 145.109 568.889
78.9907 146.005 568.407
78.9907 147.025 568.407
78.4588 147.047 564.579
77.4162 146.092 557.077
77.3519 146.969 556.615
77.2237 147.722 555.692
77.0323 148.349 554.314
76.9687 149.22 553.857
76.9687 150.213 553.857
76.9687 151.206 553.857
76.9052 152.074 553.4
76.3383 151.938 549.321
76.2758 152.798 548.871
76.027 153.28 547.08
75.7797 153.76 545.301
75.5341 154.236 543.534
75.29 154.709 541.777
75.4119 155.932 542.654
75.4119 156.905 542.654
75.1686 157.369 540.904
75.2293 158.467 541.34
74.9872 158.924 539.598
74.8667 159.635 538.731
74.5076 159.831 536.147
74.4481 160.664 535.719
74.0342 160.726 532.741
73.8582 161.297 531.474
73.5087 161.482 528.959
72.6493 162.406 522.775
72.5927 163.217 522.368
72.6493 165.219 522.775
72.3673 165.511 520.746
72.2551 166.187 519.938
71.6993 165.833 515.939
71.5891 166.502 515.146
71.3153 166.786 513.176
71.152 167.322 512
70.9354 167.728 510.442
70.9354 168.643 510.442
70.8814 169.429 510.054
70.8814 170.344 510.054
70.8276 171.129 509.666
69.9768 170.879 503.544
69.9243 171.653 503.166
69.4553 171.398 499.792
69.1462 171.527 497.567
69.0949 172.292 497.198
69.0438 173.055 496.83
68.789 173.304 494.997
68.8398 174.32 495.362
67.8872 177.164 488.507
67.7884 177.781 487.797
67.6408 178.266 486.735
67.5428 178.88 486.029
67.3963 179.361 484.975
67.5428 180.623 486.029
67.4939 181.363 485.677
67.299 181.707 484.275
67.4451 182.972 485.326
127.756 11.7991 907.605
127.583 13.4085 906.379
126.898 14.9529 901.506
125.882 16.4369 894.294
125.548 17.9925 891.915
124.226 19.3856 882.527
123.576 20.8583 877.906
123.576 22.4325 877.906
121.665 26.7352 864.33
121.196 28.1762 861.002
121.041 29.682 859.898
120.886 31.1839 858.797
120.117 32.5157 853.334
120.117 34.0458 853.334
119.812 35.4857 851.168
118.907 36.7323 844.736
116.846 39.0728 830.1
92.5606 104.057 657.569
92.3794 105.03 656.282
92.199 105.999 655
92.4699 107.489 656.925
92.6514 108.88 658.214
92.0193 109.31 653.724
92.0193 110.482 653.724
92.0193 111.654 653.724
91.751 112.497 651.818
91.131 112.898 647.414
90.3462 113.077 641.838
89.8304 113.575 638.174
89.745 114.611 637.567
89.745 115.754 637.567
89.745 116.897 637.567
89.6598 117.928 636.961
89.4898 118.845 635.754
89.0677 119.419 632.755
88.9 120.326 631.564
88.4005 120.777 628.015
88.1529 121.561 626.256
87.9886 122.455 625.089
87.8249 123.346 623.926
87.7433 124.35 623.346
87.7433 125.467 623.346
85.1323 128.241 604.797
84.9791 129.092 603.709
83.9216 129.624 596.196
84.071 130.926 597.258
83.9216 131.762 596.196
83.9962 132.949 596.726
83.9216 133.9 596.196
83.847 134.85 595.666
83.6984 135.677 594.61
83.5502 136.501 593.558
83.4764 137.444 593.033
82.2402 136.456 584.251
81.6711 136.552 580.208
81.6711 137.592 580.208
81.6005 138.513 579.706
81.6711 139.673 580.208
81.6005 140.592 579.706
81.53 141.509 579.206
80.4874 142.775 571.799
80.4874 143.801 571.799
80.4874 144.826 571.799
80.5561 145.976 572.287
80.5561 147.002 572.287
79.8746 146.776 567.445
79.4712 147.047 564.579
78.5456 146.335 558.004
78.4803 147.213 557.54
78.35 147.967 556.615
78.2202 148.718 555.692
77.9618 149.22 553.857
77.9618 150.213 553.857
77.8975 151.081 553.4
77.8975 152.074 553.4
77.26 151.814 548.871
76.9452 152.175 546.634
76.8825 153.031 546.189
76.5708 153.385 543.974
76.4468 154.111 543.093
76.3849 154.959 542.654
76.4468 156.059 543.093
76.4468 157.032 543.093
75.8937 156.863 539.164
75.9548 157.957 539.598
75.7719 158.542 538.299
75.469 158.87 536.147
75.3486 159.576 535.292
75.3486 160.536 535.292
75.0491 160.854 533.164
74.93 161.553 532.318
74.8112 162.25 531.474
72.5686 165.706 515.542
72.4572 166.375 514.751
72.1251 166.531 512.391
72.07 167.322 512
71.8507 167.728 510.442
71.8507 168.643 510.442
71.796 169.429 510.054
71.796 170.344 510.054
71.7415 171.129 509.666
70.933 171.007 503.922
70.7734 171.524 502.789
70.4565 171.654 500.538
70.1946 171.91 498.677
69.9865 172.292 497.198
69.7796 173.56 495.728
69.9865 174.966 497.198
69.7796 175.338 495.728
69.7796 176.227 495.728
68.8634 177.422 489.22
68.8132 178.169 488.863
68.4639 178.137 486.382
68.3153 178.621 485.326
68.1182 178.973 483.925
68.3648 180.492 485.677
68.3648 181.363 485.677
68.1673 181.707 484.275
68.3153 182.972 485.326
129.911 10.2131 911.305
129.384 11.7991 907.605
129.034 13.3904 905.156
127.827 14.8729 896.685
126.474 16.3064 887.196
126.307 17.8736 886.024
125.478 19.3347 880.211
125.478 20.913 880.211
125.15 22.4325 877.906
124.175 23.8197 871.065
123.853 25.3159 868.809
123.215 26.7352 864.33
122.74 28.1762 861.002
122.583 29.682 859.898
122.269 31.144 857.699
121.492 32.4744 852.25
121.647 34.0458 853.334
121.031 35.3958 849.013
120.725 36.825 846.869
120.119 38.1509 842.614
118.776 39.2184 833.193
93.7397 106.415 657.569
93.5562 109.737 656.282
93.5562 110.914 656.282
93.3735 111.872 655
93.1007 112.716 653.087
92.4705 113.116 648.666
91.4096 112.968 641.224
90.9747 113.575 638.174
90.9747 114.72 638.174
90.8883 115.754 637.567
90.802 116.786 636.961
90.802 117.928 636.961
90.544 118.732 635.152
90.2023 119.419 632.755
90.0325 120.326 631.564
89.8632 121.231 630.376
89.5266 121.903 628.015
89.4429 122.914 627.428
89.1926 123.692 625.672
88.9437 124.465 623.926
88.5319 125.003 621.037
86.3726 128.472 605.89
86.2946 129.442 605.343
84.9906 128.555 596.196
84.9906 129.624 596.196
85.0663 130.809 596.726
85.0663 131.879 596.726
85.0663 132.949 596.726
84.9906 133.9 596.196
84.9152 134.85 595.666
83.7254 136.12 587.321
83.2154 136.337 583.743
82.8548 136.789 581.214
82.7115 137.592 580.208
82.64 138.513 579.706
82.7115 139.673 580.208
82.64 140.592 579.706
81.5823 142.897 572.287
81.4433 143.678 571.312
81.4433 144.703 571.312
81.4433 145.727 571.312
81.1668 146.253 569.372
80.9606 146.9 567.926
80.3483 146.8 563.631
79.6124 147.458 558.468
79.414 148.09 557.077
79.2823 148.841 556.153
79.0202 149.343 554.314
78.955 150.213 553.857
78.8898 151.081 553.4
78.5012 151.325 550.674
78.3083 151.938 549.321
77.8619 152.051 546.189
77.7986 152.906 545.745
77.4206 153.137 543.093
77.358 153.986 542.654
77.358 156.905 542.654
76.6756 156.486 537.867
76.6756 157.45 537.867
76.3694 157.782 535.719
76.3694 158.743 535.719
76.3084 159.576 535.292
75.9448 159.771 532.741
75.7642 160.344 531.474
75.6444 161.042 530.633
75.4652 161.61 529.377
72.9881 166.404 512
72.9325 167.194 511.61
72.7106 167.6 510.054
72.7106 168.515 510.054
72.7106 169.429 510.054
72.766 170.474 510.442
72.7106 171.259 510.054
72.6554 172.042 509.666
71.8366 171.007 503.922
71.4607 171.011 501.286
71.2477 171.398 499.792
70.9833 171.654 497.936
70.878 172.292 497.198
70.9306 173.312 497.567
70.878 174.075 497.198
70.9306 175.096 497.567
70.7731 175.597 496.462
70.7731 176.488 496.462
69.6898 177.293 488.863
69.5884 177.91 488.152
69.3361 178.137 486.382
69.2357 178.75 485.677
69.0357 179.102 484.275
69.1856 180.361 485.326
69.0357 180.839 484.275
68.9362 181.445 483.576
131.189 10.1854 908.835
131.011 11.7991 907.605
130.657 13.3904 905.156
129.435 14.8729 896.685
128.065 17.8973 887.196
126.89 19.3094 879.057
126.89 20.8856 879.057
126.724 22.4325 877.906
126.558 23.9753 876.759
125.573 25.3487 869.936
124.764 26.7352 864.33
124.284 28.1762 861.002
124.284 29.7201 861.002
123.807 31.144 857.699
123.021 32.4744 852.25
123.177 34.0458 853.334
122.244 35.3065 846.869
121.936 36.7323 844.736
121.477 38.103 841.556
120.72 39.3651 836.31
120.419 40.7631 834.229
96.3355 102.02 667.384
96.4314 103.319 668.048
96.3355 104.413 667.384
96.2397 105.505 666.72
95.8586 106.278 664.08
95.1053 106.624 658.861
94.9188 107.594 657.569
94.733 109.737 656.282
94.733 110.914 656.282
94.548 111.872 655
94.2718 112.716 653.087
93.2728 112.68 646.166
92.5594 112.968 641.224
92.2068 113.684 638.781
92.2068 114.829 638.781
92.1191 115.864 638.174
92.0315 116.897 637.567
92.0315 118.04 637.567
91.6829 118.732 635.152
91.3369 119.419 632.755
90.568 119.538 627.428
90.6528 120.777 628.015
90.6528 121.903 628.015
90.6528 123.029 628.015
90.6528 124.155 628.015
89.9788 124.35 623.346
89.9788 125.467 623.346
86.6761 127.322 600.466
86.4439 128.055 598.858
86.1363 128.669 596.726
86.213 130.926 597.258
86.1363 132.949 596.726
86.1363 134.019 596.726
86.0597 134.969 596.196
85.5275 135.197 592.509
84.9273 135.303 588.351
84.6304 135.882 586.294
84.3355 136.456 584.251
84.2621 137.384 583.743
84.1157 138.19 582.728
83.8244 138.753 580.71
83.897 139.915 581.214
84.0427 141.202 582.223
82.3976 142.532 570.826
82.2576 143.312 569.856
82.1877 144.211 569.372
82.0484 144.986 568.407
81.9096 145.758 567.445
81.7022 146.404 566.009
81.4959 147.047 564.579
81.359 147.811 563.631
80.6138 148.46 558.468
80.3462 148.965 556.615
79.9481 149.22 553.857
79.9481 150.213 553.857
79.8821 151.081 553.4
79.4234 151.201 550.222
79.2284 151.814 548.871
78.8413 152.051 546.189
78.7131 152.782 545.301
78.3945 153.137 543.093
78.331 153.986 542.654
77.7648 156.737 538.731
77.5157 157.198 537.006
77.2683 157.656 535.292
77.1452 158.363 534.439
76.9 158.815 532.741
76.7781 159.517 531.896
76.4145 159.711 529.377
76.4145 160.66 529.377
76.3542 161.482 528.959
74.9359 162.206 519.133
74.8779 163.011 518.732
73.9627 166.531 512.391
73.7374 166.94 510.831
73.5693 167.473 509.666
73.5693 168.387 509.666
73.6252 169.429 510.054
73.6252 170.344 510.054
73.5134 170.999 509.279
72.6856 170.879 503.544
72.4679 171.267 502.036
72.2516 171.654 500.538
71.983 171.91 498.677
71.8761 172.547 497.936
71.983 173.698 498.677
71.8761 174.333 497.936
71.8761 175.226 497.936
71.8228 175.988 497.567
70.6179 177.422 489.22
70.5664 178.169 488.863
70.4125 178.655 487.797
70.1066 178.75 485.677
69.8033 178.844 483.576
69.8033 179.711 483.576
69.8033 180.578 483.576
69.8033 181.445 483.576
132.818 10.1854 908.835
132.459 11.7832 906.379
132.281 13.3904 905.156
131.394 14.9128 899.089
130.346 16.3932 891.915
129.485 17.8736 886.024
128.635 19.3347 880.211
128.466 20.8856 879.057
128.298 22.4325 877.906
127.963 23.944 875.614
126.969 25.3159 868.809
126.152 26.7008 863.218
125.99 28.2124 862.109
125.828 29.7201 861.002
125.666 31.2239 859.898
125.025 32.5986 855.511
125.025 34.1327 855.511
123.451 35.2175 844.736
123.295 36.6861 843.673
123.141 38.1509 842.614
121.764 39.2184 833.193
121.162 40.5111 829.073
120.714 41.8426 826.01
97.7267 99.8251 668.714
97.8242 101.125 669.382
97.7267 102.223 668.714
97.6293 103.319 668.048
97.6293 104.517 668.048
97.3385 105.4 666.058
96.9534 106.173 663.423
96.2867 106.624 658.861
96.0979 107.594 657.569
96.0979 108.773 657.569
95.5359 109.31 653.724
95.4429 110.374 653.087
95.3501 111.437 652.452
94.9805 112.17 649.923
94.5225 112.789 646.789
93.8887 113.185 642.452
93.4412 113.792 639.39
93.4412 114.938 639.39
93.2634 115.864 638.174
93.2634 117.008 638.174
93.1748 118.04 637.567
92.8218 118.732 635.152
92.1239 118.97 630.376
91.7789 119.65 628.015
91.6073 120.551 626.842
91.1813 121.109 623.926
91.4364 122.57 625.672
91.0965 123.232 623.346
91.0119 124.234 622.767
88.1474 126.813 603.166
87.8314 127.436 601.004
87.3617 127.827 597.79
87.2063 128.669 596.726
87.2063 130.809 596.726
87.2839 131.997 597.258
87.2839 133.068 597.258
87.2063 134.019 596.726
87.1288 134.969 596.196
86.5136 135.078 591.986
85.907 135.185 587.836
85.8317 136.12 587.321
85.4576 136.575 584.761
85.4576 137.623 584.761
85.3088 138.431 583.743
85.0129 138.993 581.718
85.0867 140.158 582.223
85.2347 141.448 583.235
83.1381 142.049 568.889
83.2087 143.19 569.372
83.2087 144.211 569.372
83.1381 145.109 568.889
83.0677 146.005 568.407
82.9973 146.9 567.926
82.6474 147.295 565.532
82.5083 148.059 564.579
81.8196 148.831 559.867
81.3443 148.965 556.615
80.8745 149.097 553.4
80.8745 150.089 553.4
80.8745 151.081 553.4
80.5422 151.449 551.126
80.2784 151.938 549.321
79.8858 152.175 546.634
79.7558 152.906 545.745
79.4326 153.261 543.534
79.3041 153.986 542.654
78.2281 157.656 535.292
77.9792 158.111 533.588
77.7935 158.689 532.318
77.7935 159.644 532.318
77.7318 160.471 531.896
77.6702 161.297 531.474
77.4861 161.865 530.214
75.9844 161.525 519.938
75.9255 162.332 519.536
75.8668 163.137 519.133
75.8668 164.068 519.133
75.8668 164.999 519.133
75.7495 165.673 518.331
74.8815 166.531 512.391
74.5965 166.813 510.442
74.5398 167.6 510.054
74.5398 168.515 510.054
74.6534 169.688 510.831
74.6534 170.604 510.831
74.4832 171.129 509.666
74.2575 171.521 508.122
74.0891 172.041 506.969
72.8772 170.121 498.677
72.8231 170.889 498.306
72.8231 171.782 498.306
72.769 172.547 497.936
72.8231 173.569 498.306
72.769 174.333 497.936
72.769 175.226 497.936
72.6073 175.727 496.83
72.286 176.724 494.632
72.286 177.611 494.632
71.5996 177.681 489.935
71.443 178.169 488.863
71.132 178.266 486.735
71.0289 178.88 486.029
70.7725 179.102 484.275
70.7214 179.841 483.925
70.7214 180.708 483.925
70.7214 181.576 483.925
70.6195 182.181 483.228
134.813 10.2131 911.305
134.813 11.8472 911.305
134.085 13.4085 906.379
133.006 14.9128 899.089
131.945 16.3932 891.915
130.9 17.8501 884.855
130.043 19.3094 879.057
130.043 20.8856 879.057
129.703 22.4032 876.759
129.703 23.9753 876.759
128.527 25.3159 868.809
128.029 26.7697 865.446
127.864 28.2851 864.33
127.535 29.7583 862.109
127.208 31.2239 859.898
126.559 32.5986 855.511
125.917 33.9594 851.168
124.965 35.2175 844.736
124.808 36.6861 843.673
124.495 38.103 841.556
123.411 39.2672 834.229
122.497 40.4611 828.05
99.2226 100.125 670.72
99.1234 101.226 670.05
98.9258 102.223 668.714
98.8273 103.319 668.048
98.7289 104.413 667.384
98.3375 105.191 664.738
98.143 106.173 663.423
97.277 106.415 657.569
97.1817 107.489 656.925
97.277 108.773 657.569
96.897 109.523 655
96.8025 110.59 654.361
96.614 111.545 653.087
96.3326 112.388 651.185
95.7747 112.898 647.414
95.2232 113.402 643.686
94.9498 114.228 641.838
94.859 115.268 641.224
94.5878 116.085 639.39
94.4977 117.12 638.781
94.4078 118.153 638.174
94.318 119.184 637.567
93.0793 118.747 629.194
92.8181 119.538 627.428
92.8181 120.664 627.428
92.4721 121.335 625.089
92.7314 122.799 626.842
92.3 123.346 623.926
92.1286 124.234 622.767
89.2289 126.813 603.166
88.7501 127.208 599.929
88.4337 127.827 597.79
88.5125 129.014 598.323
88.5125 130.087 598.323
88.5125 131.159 598.323
88.5125 132.232 598.323
88.3549 133.068 597.258
88.3549 134.139 597.258
87.9633 134.61 594.61
87.3438 134.721 590.423
87.0373 135.303 588.351
87.0373 136.358 588.351
86.961 137.293 587.836
86.5061 137.623 584.761
86.4308 138.551 584.251
86.3556 139.477 583.743
86.3556 140.524 583.743
86.2055 141.325 582.728
84.2297 142.169 569.372
84.3729 143.434 570.34
84.4447 144.58 570.826
84.5167 145.727 571.312
84.2297 146.253 569.372
84.1582 147.149 568.889
83.8028 147.544 566.487
82.5479 148.336 558.004
82.3424 148.965 556.615
81.9344 149.22 553.857
82.0021 150.337 554.314
81.9344 151.206 553.857
81.5304 151.449 551.126
81.33 152.062 549.771
80.9319 152.299 547.08
80.8001 153.031 546.189
80.4725 153.385 543.974
80.2772 153.986 542.654
78.9988 157.28 534.013
78.8106 157.86 532.741
78.7481 158.689 532.318
78.7481 159.644 532.318
78.6856 160.471 531.896
78.6233 161.297 531.474
78.4989 161.993 530.633
77.5176 160.908 524
77.216 162.154 521.961
76.8571 162.332 519.536
76.8571 163.263 519.536
76.9764 164.45 520.342
76.7976 164.999 519.133
76.7382 165.801 518.732
75.4544 165.771 510.054
75.3971 166.559 509.666
75.3971 167.473 509.666
75.3971 168.387 509.666
75.5118 169.558 510.442
75.627 170.734 511.22
75.627 171.65 511.22
75.3971 172.042 509.666
73.7714 171.016 498.677
73.7714 171.91 498.677
73.6619 172.547 497.936
73.8813 173.957 499.42
73.7714 174.592 498.677
73.7714 175.487 498.677
73.5527 175.858 497.198
73.3895 177.247 496.095
73.227 177.742 494.997
72.6905 178.202 491.37
72.5842 178.821 490.651
71.5375 178.844 483.576
71.5375 179.711 483.576
71.5891 180.708 483.925
71.5891 181.576 483.925
71.486 182.181 483.228
136.447 11.8472 911.305
135.71 13.4085 906.379
134.98 14.9529 901.506
133.9 16.4369 894.294
132.838 17.8973 887.196
131.619 19.3094 879.057
131.275 22.4032 876.759
131.103 23.944 875.614
130.253 25.3487 869.936
129.414 26.7352 864.33
129.414 28.2851 864.33
129.081 29.7583 862.109
128.916 31.264 861.002
128.585 32.7239 858.797
128.093 34.1327 855.511
126.8 35.3065 846.869
126.162 36.64 842.614
126.004 38.103 841.556
125.063 39.3161 835.268
124.597 40.6619 832.159
123.829 43.3772 827.029
123.676 44.8049 826.01
101.542 98.8061 678.18
101.031 99.519 674.769
100.627 100.325 672.065
100.225 101.125 669.382
100.225 102.325 669.382
100.025 103.319 668.048
100.025 104.517 668.048
99.6282 105.296 665.397
99.2345 106.068 662.767
98.5527 106.52 658.214
98.3597 107.489 656.925
98.3597 108.667 656.925
98.1674 109.63 655.641
97.8804 110.482 653.724
97.6899 111.437 652.452
97.595 112.497 651.818
97.0292 113.007 648.039
96.3774 113.402 643.686
96.1007 114.228 641.838
96.0089 115.268 641.224
95.7343 116.085 639.39
95.8256 117.343 640
95.4613 118.04 637.567
94.1193 118.635 628.604
94.0311 119.65 628.015
94.0311 120.777 628.015
94.0311 121.903 628.015
94.1193 123.144 628.604
94.3846 124.622 630.376
93.332 124.35 623.346
90.6365 126.186 605.343
90.5548 127.156 604.797
90.1483 127.665 602.083
90.1483 128.745 602.083
89.9868 129.592 601.004
89.9868 130.669 601.004
89.8258 131.511 599.929
89.7455 132.469 599.393
89.4259 133.068 597.258
89.2669 133.9 596.196
88.9506 134.491 594.084
88.6366 135.078 591.986
88.4804 135.9 590.943
88.3248 136.718 589.904
88.0923 137.413 588.351
87.9381 138.226 587.321
87.6311 138.793 585.271
87.5547 139.721 584.761
87.5547 140.769 584.761
87.4784 141.694 584.251
85.3956 142.411 570.34
85.3231 143.312 569.856
85.4683 144.58 570.826
85.3231 145.356 569.856
85.0341 145.882 567.926
85.0341 146.9 567.926
84.6043 147.171 565.055
84.391 147.811 563.631
83.479 148.213 557.54
83.479 149.212 557.54
82.9961 149.343 554.314
83.1335 150.586 555.232
82.9275 151.206 553.857
82.7908 151.948 552.943
82.451 152.312 550.674
81.9129 152.299 547.08
81.713 152.906 545.745
81.5802 153.635 544.858
81.316 154.111 543.093
80.9881 154.459 540.904
80.0839 157.53 534.865
80.0201 158.363 534.439
79.7659 158.815 532.741
79.7026 159.644 532.318
79.7026 160.598 532.318
79.4504 161.042 530.633
79.1997 161.482 528.959
78.4572 160.908 524
78.1519 162.154 521.961
77.9094 162.583 520.342
77.9094 163.516 520.342
77.9094 164.45 520.342
77.7285 164.999 519.133
77.7285 165.929 519.133
76.311 165.645 509.666
76.253 166.433 509.279
76.369 167.6 510.054
76.369 168.515 510.054
76.4853 170.604 510.831
76.4853 171.52 510.831
74.7768 172.166 499.42
74.5548 172.547 497.936
74.6656 173.698 498.677
74.7212 174.722 499.048
74.8325 175.879 499.792
74.4442 175.858 497.198
74.4442 176.749 497.198
74.3891 177.509 496.83
74.2241 178.005 495.728
73.2496 178.299 489.22
72.4569 178.973 483.925
72.4569 179.841 483.925
72.5092 181.707 484.275
138.081 11.8472 911.305
137.335 13.4085 906.379
136.597 14.9529 901.506
135.866 16.4808 896.685
134.785 17.9448 889.55
134.607 19.514 888.371
132.847 22.4032 876.759
132.847 23.9753 876.759
131.813 25.3487 869.936
130.964 26.7352 864.33
130.964 28.2851 864.33
130.627 29.7583 862.109
130.46 31.264 861.002
130.292 32.7658 859.898
128.806 33.9164 850.089
127.673 35.129 842.614
127.834 36.6861 843.673
127.513 38.103 841.556
126.56 39.3161 835.268
125.467 43.4308 828.05
125.467 44.9156 828.05
125.004 46.2291 824.994
102.758 96.3739 678.18
102.654 97.4914 677.495
102.862 98.9061 678.867
102.241 99.519 674.769
101.73 100.225 671.392
101.526 101.226 670.05
101.526 102.428 670.05
101.324 103.422 668.714
101.223 104.517 668.048
100.821 105.296 665.397
100.423 106.068 662.767
99.831 106.624 658.861
99.733 107.7 658.214
99.6353 108.773 657.569
99.5377 109.845 656.925
99.246 110.698 655
98.9561 111.545 653.087
98.7638 112.497 651.818
98.1913 113.007 648.039
98.0019 113.949 646.789
97.4381 114.447 643.068
97.4381 115.6 643.068
97.3448 116.641 642.452
96.9732 117.343 640
96.7885 118.265 638.781
95.1573 117.398 628.015
95.1573 118.524 628.015
95.1573 119.65 628.015
95.1573 120.777 628.015
95.2464 122.017 628.604
95.6949 123.724 631.564
91.8048 126.3 605.89
91.6393 127.156 604.797
91.3921 127.895 603.166
91.228 128.745 602.083
91.1461 129.708 601.543
91.1461 130.787 601.543
91.0645 131.747 601.004
90.8203 132.469 599.393
90.336 133.9 596.196
90.2557 134.85 595.666
89.6981 135.078 591.986
89.54 135.9 590.943
89.4612 136.839 590.423
89.2256 137.534 588.868
89.0692 138.347 587.836
88.9912 139.279 587.321
89.0692 140.455 587.836
88.6806 140.892 585.271
86.4919 142.532 570.826
86.4919 143.556 570.826
86.6394 144.826 571.799
86.4919 145.603 570.826
86.1254 146.005 568.407
86.1254 147.025 568.407
86.1254 148.044 568.407
85.5454 148.059 564.579
85.2584 148.572 562.685
84.9732 149.08 560.803
84.4086 149.089 557.077
84.0595 149.467 554.773
84.1988 150.711 555.692
83.99 151.331 554.314
83.4384 151.325 550.674
83.2334 151.938 549.321
82.7589 152.051 546.189
82.6916 152.906 545.745
82.5572 153.635 544.858
82.3565 154.236 543.534
82.2233 154.959 542.654
80.7853 155.117 533.164
80.7212 155.949 532.741
80.9785 157.405 534.439
80.8496 158.111 533.588
80.7212 158.815 532.741
80.6571 159.644 532.318
80.6571 160.598 532.318
80.4019 161.042 530.633
79.7082 160.596 526.055
79.5834 161.286 525.231
79.0264 162.028 521.556
78.7814 162.457 519.938
78.8425 163.516 520.342
78.7814 164.322 519.938
78.6594 164.999 519.133
78.5986 165.801 518.732
77.2836 166.686 510.054
77.3424 168.643 510.442
77.4013 169.688 510.831
77.2249 170.215 509.666
77.0492 170.739 508.507
76.9909 171.521 508.122
75.8418 172.551 500.538
75.8418 174.346 500.538
75.7852 175.113 500.164
75.6723 175.748 499.42
75.3917 175.988 497.567
75.3917 176.88 497.567
75.2242 177.378 496.462
74.181 177.552 489.577
74.181 178.429 489.577
73.3776 179.102 484.275
73.2718 179.711 483.576
139.716 11.8472 911.305
139.337 13.4448 908.835
138.213 14.9529 901.506
137.474 16.4808 896.685
136.743 17.9925 891.915
136.38 19.5398 889.55
136.019 21.079 887.196
135.303 22.5506 882.527
134.595 24.0067 877.906
133.373 25.3487 869.936
132.514 26.7352 864.33
132.685 28.3216 865.446
132.173 29.7583 862.109
132.173 31.3041 862.109
132.173 32.85 862.109
130.001 33.8306 847.94
129.51 35.2175 844.736
129.51 36.7323 844.736
129.184 38.1509 842.614
128.058 39.3161 835.268
126.795 43.3772 827.029
126.795 44.8602 827.029
126.483 46.2291 824.994
104.503 95.6413 681.626
104.503 96.8636 681.626
104.291 97.8869 680.244
104.185 99.0063 679.555
104.08 100.123 678.867
103.14 100.426 672.739
103.14 101.632 672.739
103.037 102.735 672.065
102.728 103.629 670.05
102.421 104.517 668.048
102.015 105.296 665.397
101.611 106.068 662.767
100.814 106.415 657.569
100.617 107.384 656.282
100.421 108.348 655
100.323 109.416 654.361
100.127 110.374 653.087
99.9326 111.328 651.818
99.4494 111.953 648.666
99.2574 112.898 647.414
99.1617 113.949 646.789
98.5912 114.447 643.068
98.6858 115.711 643.686
98.5912 116.753 643.068
97.934 117.12 638.781
97.934 118.265 638.781
96.464 117.618 629.194
96.3736 118.635 628.604
96.3736 119.763 628.604
96.2834 120.777 628.015
96.3736 122.017 628.604
96.6453 123.491 630.376
96.8274 124.856 631.564
96.6453 125.752 630.376
96.6453 126.882 630.376
92.8074 126.186 605.343
92.7238 127.156 604.797
92.4736 127.895 603.166
92.3076 128.745 602.083
92.8074 130.527 605.343
92.7238 131.494 604.797
92.4736 132.221 603.166
92.1422 132.825 601.004
91.4864 134.019 596.726
91.4864 135.089 596.726
90.9201 135.317 593.033
90.8398 136.26 592.509
90.8398 137.322 592.509
90.6796 138.141 591.464
90.2815 138.59 588.868
90.0443 139.279 587.321
89.5737 139.599 584.251
87.59 142.654 571.312
87.59 143.678 571.312
87.6647 144.826 571.799
87.2926 145.232 569.372
86.9972 145.758 567.445
87.1446 147.025 568.407
86.5578 147.047 564.579
86.485 147.935 564.105
86.195 148.447 562.213
85.907 148.956 560.335
85.3366 148.965 556.615
84.9138 149.22 553.857
84.9138 150.213 553.857
84.7738 150.957 552.943
84.3566 151.201 550.222
84.012 151.565 547.974
83.7383 152.051 546.189
83.7383 153.031 546.189
83.6702 153.885 545.745
83.6022 154.737 545.301
82.3964 154.433 537.436
82.1988 155.024 536.147
82.1331 155.861 535.719
82.0676 156.696 535.292
82.1331 157.782 535.719
81.8064 158.111 533.588
81.6764 158.815 532.741
81.6116 159.644 532.318
81.6116 160.598 532.318
80.8417 160.974 527.296
81.0967 162.431 528.959
79.8995 162.836 521.15
79.9616 163.898 521.556
79.8995 164.705 521.15
79.7137 165.254 519.938
79.6519 166.058 519.536
78.4967 167.322 512
78.4967 168.24 512
78.6167 169.417 512.783
78.4967 170.076 512
78.1982 170.344 510.054
78.1388 171.129 509.666
78.0202 171.781 508.893
77.902 172.432 508.122
78.1388 173.87 509.666
76.7966 175.375 500.911
76.7966 176.273 500.911
76.2273 175.858 497.198
76.2273 176.749 497.198
74.9495 175.54 488.863
74.9495 177.293 488.863
141.35 11.8472 911.305
140.967 13.4448 908.835
140.396 15.0134 905.156
139.268 16.5029 897.885
138.342 17.9925 891.915
137.975 19.5398 889.55
137.793 21.1069 888.371
137.247 22.6101 884.855
136.169 24.0067 877.906
135.108 25.3816 871.065
134.584 26.839 867.685
134.584 28.3949 867.685
134.237 29.8735 865.446
133.891 31.3444 863.218
133.376 32.7658 859.898
130.86 33.6604 843.673
130.86 35.1732 843.673
130.695 36.64 842.614
130.695 38.1509 842.614
129.556 39.3161 835.268
129.074 40.6619 832.159
128.278 41.8942 827.029
128.278 43.3772 827.029
128.278 44.8602 827.029
127.962 46.2291 824.994
127.962 47.7085 824.994
125.644 48.2967 810.049
106.374 96.2281 685.808
106.592 97.6576 687.214
106.156 98.4862 684.409
105.51 99.1067 680.244
105.19 100.022 678.18
104.556 100.628 674.091
104.451 101.734 673.414
104.451 102.942 673.414
104.242 103.941 672.065
103.722 104.621 668.714
103.413 105.505 666.72
102.8 106.068 662.767
101.993 106.415 657.569
101.694 107.279 655.641
101.397 108.137 653.724
101.397 109.31 653.724
101.2 110.267 652.452
101.101 111.328 651.818
100.71 112.062 649.294
100.418 112.898 647.414
100.321 113.949 646.789
99.936 114.666 644.304
99.8401 115.711 643.686
99.6488 116.641 642.452
99.2685 117.343 640
99.2685 118.491 640
97.3184 118.413 627.428
97.4095 119.65 628.015
97.4095 120.777 628.015
97.3184 121.789 627.428
97.5923 123.26 629.194
97.9598 124.856 631.564
95.6189 125.189 616.471
93.8929 126.186 605.343
93.7237 127.042 604.253
93.4711 127.78 602.624
93.3035 128.629 601.543
93.7237 130.292 604.253
93.8083 131.494 604.797
92.7213 134.258 597.79
92.6388 135.21 597.258
92.2281 135.677 594.61
91.9835 136.38 593.033
91.9023 137.322 592.509
91.8211 138.262 591.986
91.2573 138.468 588.351
90.7795 138.793 585.271
90.6214 139.599 584.251
88.3135 142.169 569.372
88.3886 143.312 569.856
88.69 144.826 571.799
88.2386 145.109 568.889
88.0147 145.758 567.445
88.1639 147.025 568.407
87.7178 147.295 565.532
87.4965 147.935 564.105
87.1301 148.323 561.742
86.8392 148.831 559.867
86.2631 148.841 556.153
85.907 149.22 553.857
85.907 150.213 553.857
85.6947 150.833 552.488
85.2732 151.077 549.771
84.7177 152.051 546.189
84.7177 153.031 546.189
84.7177 154.01 546.189
84.58 154.737 545.301
83.0274 155.736 535.292
82.9612 156.571 534.865
83.0937 157.782 535.719
82.8291 158.237 534.013
82.6317 158.815 532.741
82.5661 159.644 532.318
82.0452 161.482 528.959
82.0452 162.431 528.959
80.7712 161.776 520.746
80.7712 162.71 520.746
80.8969 163.898 521.556
80.646 164.322 519.938
80.5212 164.999 519.133
80.4589 165.801 518.732
79.5362 167.578 512.783
79.4754 168.368 512.391
79.5971 170.467 513.176
79.4148 170.994 512
79.0527 172.042 509.666
79.0527 172.956 509.666
79.0527 173.87 509.666
77.6948 175.375 500.911
77.1761 175.096 497.567
77.0047 175.597 496.462
76.8909 176.227 495.728
75.8814 174.79 489.22
75.8814 175.668 489.22
75.7708 176.288 488.507
75.9368 177.552 489.577
142.984 13.4813 911.305
141.446 14.9529 901.506
140.502 16.4588 895.488
140.315 18.0405 894.294
139.756 19.5658 890.731
139.385 21.1069 888.371
138.834 22.6101 884.855
137.924 24.0382 879.057
137.563 25.5475 876.759
136.67 26.9436 871.065
136.493 28.4685 869.936
136.14 29.9508 867.685
135.964 31.4659 866.564
132.874 32.2693 846.869
132.206 33.6181 842.614
132.206 35.129 842.614
132.206 36.64 842.614
132.04 38.103 841.556
130.728 39.2184 833.193
129.921 40.4611 828.05
129.761 41.8942 827.029
129.761 43.3772 827.029
129.761 44.8602 827.029
129.601 46.2861 826.01
129.601 47.7672 826.01
126.943 48.2385 809.072
126.943 49.6893 809.072
107.384 96.0317 684.409
107.384 97.259 684.409
106.947 98.0859 681.626
106.622 99.0063 679.555
106.299 99.9211 677.495
105.765 100.628 674.091
105.659 101.734 673.414
105.659 102.942 673.414
105.553 104.045 672.739
105.026 104.726 669.382
104.505 105.4 666.058
103.886 105.963 662.113
103.274 106.52 658.214
103.072 107.489 656.925
102.77 108.348 655
102.569 109.31 653.724
102.469 110.374 653.087
102.27 111.328 651.818
102.171 112.388 651.185
101.776 113.116 648.666
101.677 114.169 648.039
101.481 115.109 646.789
101.383 116.157 646.166
100.801 116.641 642.452
100.704 117.68 641.838
100.704 118.831 641.838
98.7205 118.747 629.194
98.5356 119.65 628.015
98.5356 120.777 628.015
98.4434 121.789 627.428
98.628 123.144 628.604
99.2793 125.092 632.755
96.6355 125.074 615.905
94.9784 126.186 605.343
94.9784 127.271 605.343
94.8927 128.241 604.797
94.6367 128.976 603.166
94.8073 130.292 604.253
94.7219 131.258 603.709
93.7098 133.068 597.258
93.6264 134.019 596.726
93.5432 134.969 596.196
92.9647 135.197 592.509
92.8827 136.139 591.986
92.719 136.959 590.943
92.5559 137.776 589.904
92.2314 138.347 587.836
91.9092 138.914 585.782
91.669 139.599 584.251
89.1831 141.929 568.407
89.1831 142.948 568.407
89.2587 144.089 568.889
89.2587 145.109 568.889
89.1831 146.005 568.407
89.3345 147.274 569.372
89.1831 148.044 568.407
88.5825 148.059 564.579
88.1374 148.323 561.742
87.8431 148.831 559.867
87.3328 148.965 556.615
86.9001 149.22 553.857
86.8284 150.089 553.4
86.7568 150.957 552.943
86.3298 151.201 550.222
86.4007 152.312 550.674
86.4007 153.3 550.674
86.1884 153.908 549.321
85.767 154.135 546.634
85.767 155.116 546.634
84.1888 155.148 536.576
84.0544 155.861 535.719
84.0544 156.821 535.719
84.1215 157.908 536.147
83.7867 158.237 534.013
83.5207 158.689 532.318
83.5207 159.644 532.318
83.0592 161.61 529.377
81.8321 162.028 521.556
81.7685 162.836 521.15
81.8958 164.025 521.961
81.7685 164.705 521.15
81.5151 165.126 519.536
81.389 165.801 518.732
81.0755 166.089 516.734
80.7025 170.859 514.356
80.0883 170.474 510.442
80.0274 171.259 510.054
80.1493 172.436 510.831
80.0883 173.22 510.442
80.1493 174.268 510.831
78.0104 174.075 497.198
78.1262 175.226 497.936
77.9526 175.727 496.83
76.9269 174.294 490.293
76.7586 174.79 489.22
76.7586 175.668 489.22
76.6468 176.288 488.507
76.4797 176.777 487.442
144.618 13.4813 911.305
144.031 15.0541 907.605
142.108 16.4588 895.488
141.541 17.9925 891.915
141.165 19.5398 889.55
140.978 21.1069 888.371
140.421 22.6101 884.855
139.5 24.0382 879.057
139.136 25.5475 876.759
138.592 27.0137 873.334
138.232 28.5055 871.065
137.518 29.9121 866.564
137.163 31.3848 864.33
134.392 32.2693 846.869
133.885 33.6604 843.673
133.717 35.129 842.614
133.717 36.64 842.614
133.549 38.103 841.556
132.386 39.2672 834.229
131.894 40.6115 831.128
131.406 41.9459 828.05
131.406 43.4308 828.05
131.244 44.8602 827.029
131.082 46.2861 826.01
130.76 47.6499 823.981
128.86 48.4137 812.01
128.549 49.7493 810.049
128.549 51.2018 810.049
127.931 52.4012 806.154
127.319 53.5891 802.297
109.505 89.3981 690.042
109.392 90.5422 689.332
109.168 91.5901 687.918
109.505 93.1101 690.042
109.505 95.5848 690.042
109.056 96.4253 687.214
108.833 97.4579 685.808
108.611 98.4862 684.409
107.841 99.0063 679.555
107.623 100.022 678.18
107.081 100.729 674.769
106.974 101.836 674.091
106.974 103.045 674.091
106.866 104.149 673.414
106.545 105.04 671.392
105.804 105.505 666.72
104.969 105.859 661.46
104.25 106.311 656.925
103.944 107.174 655
103.944 108.348 655
103.944 109.523 655
104.046 110.806 655.641
103.54 111.437 652.452
103.439 112.497 651.818
103.138 113.336 649.923
102.839 114.169 648.039
102.74 115.22 647.414
102.641 116.269 646.789
102.051 116.753 643.068
101.758 117.568 641.224
101.274 118.153 638.174
100.509 118.396 633.353
100.225 119.194 631.564
99.6617 119.65 628.015
99.6617 120.777 628.015
99.6617 121.903 628.015
99.6617 123.029 628.015
99.6617 124.155 628.015
98.9208 124.35 623.346
98.2814 124.656 619.317
98.1002 125.535 618.175
96.2376 127.501 606.438
96.1506 128.472 605.89
96.0638 129.442 605.343
94.6122 131.762 596.196
94.4443 132.596 595.138
94.5282 133.781 595.666
94.4443 134.73 595.138
94.1936 135.437 593.558
94.1103 136.38 593.033
93.8613 137.08 591.464
93.8613 138.141 591.464
93.3673 138.468 588.351
93.1223 139.157 586.807
92.7167 139.599 584.251
90.1259 141.808 567.926
90.2023 142.948 568.407
90.3555 144.211 569.372
90.2023 144.986 568.407
90.2023 146.005 568.407
90.5091 147.525 570.34
90.1259 147.919 567.926
89.6704 148.184 565.055
89.5196 148.946 564.105
88.9956 149.08 560.803
88.2577 148.841 556.153
87.8933 149.22 553.857
87.8207 150.089 553.4
87.7484 150.957 552.943
87.3881 151.325 550.674
87.5319 152.563 551.579
86.6765 154.01 546.189
86.6765 154.989 546.189
85.0829 155.985 536.147
84.9471 156.696 535.292
85.015 157.782 535.719
84.5423 157.86 532.741
84.4752 158.689 532.318
84.4752 159.644 532.318
84.1413 160.914 530.214
83.9422 161.482 528.959
82.703 161.902 521.15
82.6388 162.71 520.746
82.703 163.771 521.15
82.5107 164.322 519.938
82.3829 164.999 519.133
82.3192 165.801 518.732
82.0653 166.217 517.132
78.7269 173.688 496.095
78.9605 175.096 497.567
78.902 175.858 497.198
77.92 174.55 491.011
77.6925 174.918 489.577
77.6358 175.668 489.22
77.2976 175.776 487.088
145.856 11.8151 908.835
145.856 13.4448 908.835
145.461 15.0337 906.379
143.906 16.4808 896.685
143.522 18.0405 894.294
142.95 19.5658 890.731
142.571 21.1069 888.371
142.195 22.6399 886.024
141.447 24.1014 881.367
141.262 25.6481 880.211
141.077 27.1907 879.057
139.794 28.5055 871.065
138.357 29.7583 862.109
138.179 31.264 861.002
135.569 32.1881 844.736
135.398 33.6604 843.673
135.228 35.129 842.614
135.228 36.64 842.614
135.058 38.103 841.556
134.552 39.4635 838.401
133.882 40.7631 834.229
132.563 41.8426 826.01
132.563 43.3238 826.01
132.563 44.8049 826.01
132.4 46.2291 824.994
132.563 47.7672 826.01
130.633 48.5312 813.981
130.002 49.7493 810.049
129.845 51.14 809.072
129.377 52.4012 806.154
129.221 53.7821 805.187
128.758 55.0277 802.297
114.027 75.4871 710.509
114.027 84.4054 710.509
110.971 88.3425 691.464
111.2 89.7675 692.893
110.742 90.6354 690.042
110.742 91.8727 690.042
110.856 93.206 690.752
110.856 94.4446 690.752
110.628 95.4865 689.332
110.401 96.5242 687.918
110.288 97.6576 687.214
109.838 98.4862 684.409
109.281 99.2073 680.934
108.949 100.123 678.867
108.729 101.136 677.495
108.619 102.248 676.812
108.619 103.461 676.812
108.182 104.254 674.091
107.965 105.251 672.739
106.787 105.296 665.397
106.26 105.963 662.113
105.634 106.52 658.214
105.427 107.489 656.925
105.427 108.667 656.925
105.427 109.845 656.925
105.427 111.023 656.925
104.812 111.545 653.087
104.608 112.497 651.818
104.102 113.116 648.666
104.001 114.169 648.039
103.801 115.109 646.789
103.701 116.157 646.166
103.105 116.641 642.452
102.321 116.897 637.567
102.03 117.705 635.754
101.644 118.396 633.353
101.549 119.419 632.755
100.694 119.538 627.428
100.788 120.777 628.015
100.694 121.789 627.428
100.694 122.914 627.428
100.694 124.039 627.428
99.8529 124.119 622.19
99.5758 124.887 620.463
99.3002 125.651 618.746
98.9352 126.294 616.471
98.7536 127.166 615.34
97.0617 128.241 604.797
96.887 129.092 603.709
96.887 131.258 603.709
96.4529 131.747 601.004
95.4268 132.478 594.61
95.4268 133.544 594.61
95.5115 134.73 595.138
95.0896 135.197 592.509
95.0896 136.26 592.509
94.5883 136.598 589.385
94.5883 137.655 589.385
94.4223 138.468 588.351
94.257 139.279 587.321
93.7643 139.599 584.251
91.2216 142.948 568.407
91.3764 144.211 569.372
91.2216 144.986 568.407
91.0672 145.758 567.445
91.2216 147.025 568.407
91.0672 147.793 567.445
90.5311 147.935 564.105
90.455 148.821 563.631
90.455 149.832 563.631
89.1071 149.59 555.232
88.7399 149.965 552.943
88.5209 150.584 551.579
88.2307 151.077 549.771
88.3031 152.187 550.222
87.6559 153.031 546.189
87.6559 154.01 546.189
87.5846 154.863 545.745
87.0885 154.959 542.654
87.0885 155.932 542.654
86.2512 156.36 537.436
85.9756 156.821 535.719
86.0443 157.908 536.147
85.6336 158.111 533.588
85.4976 158.815 532.741
85.4976 159.771 532.741
85.362 160.471 531.896
85.2268 161.169 531.053
84.8907 161.482 528.959
83.7677 162.154 521.961
83.7025 162.963 521.556
83.6375 163.771 521.15
83.3138 164.068 519.133
83.2494 164.871 518.732
82.9926 165.29 517.132
82.8011 165.833 515.939
79.8527 175.096 497.567
79.8527 175.988 497.567
78.9739 174.934 492.091
78.6278 175.046 489.935
78.4559 175.54 488.863
78.001 175.393 486.029
77.8882 176.01 485.326
78.001 177.136 486.029
147.286 11.7991 907.605
147.485 13.4448 908.835
147.087 15.0337 906.379
145.904 16.525 899.089
145.319 18.0646 895.488
144.932 19.6179 893.103
144.356 21.1349 889.55
143.974 22.6699 887.196
143.594 24.1968 884.855
143.594 25.7834 884.855
142.653 27.1907 879.057
140.99 28.4316 868.809
139.544 29.682 859.898
138.832 31.0646 855.511
136.739 32.1072 842.614
136.567 33.5759 841.556
136.739 35.129 842.614
136.567 36.594 841.556
136.567 38.103 841.556
136.055 39.4635 838.401
134.708 40.5613 830.1
134.045 41.8426 826.01
134.375 43.4308 828.05
134.045 44.8049 826.01
133.715 46.1724 823.981
134.045 47.7672 826.01
131.454 48.2967 810.049
131.296 49.6893 809.072
131.296 51.14 809.072
130.822 52.4012 806.154
130.352 53.6533 803.258
130.196 55.0277 802.297
129.269 56.064 796.58
129.576 57.6293 798.477
128.962 58.7811 794.692
115.301 75.4871 710.509
115.792 77.0878 713.532
115.792 78.3673 713.532
115.792 79.6467 713.532
115.669 80.8402 712.774
115.669 82.1183 712.774
115.669 83.3964 712.774
115.546 84.5846 712.017
115.057 85.4983 709.007
115.301 86.9535 710.509
112.909 87.6447 695.768
112.909 88.8923 695.768
112.909 90.1399 695.768
112.442 91.0099 692.893
112.21 92.0622 691.464
112.21 93.3021 691.464
112.21 94.542 691.464
111.864 95.4865 689.332
111.75 96.6233 688.625
111.635 97.7577 687.918
111.065 98.4862 684.409
110.726 99.4091 682.32
110.166 100.123 678.867
110.055 101.238 678.18
109.944 102.351 677.495
109.944 103.566 677.495
109.611 104.464 675.449
109.281 105.357 673.414
107.766 105.087 664.08
107.66 106.173 663.423
107.13 106.834 660.158
106.71 107.594 657.569
106.605 108.667 656.925
106.605 109.845 656.925
106.397 110.806 655.641
105.674 111.22 651.185
105.674 112.388 651.185
105.062 112.898 647.414
105.062 114.059 647.414
105.062 115.22 647.414
105.062 116.381 647.414
103.661 115.974 638.781
103.072 116.454 635.152
102.78 117.26 633.353
102.683 118.284 632.755
102.586 119.306 632.159
101.914 119.65 628.015
101.914 120.777 628.015
101.819 121.789 627.428
101.819 122.914 627.428
101.723 123.923 626.842
100.595 123.66 619.889
100.502 125.767 619.317
99.7655 125.947 614.776
99.6741 126.933 614.213
98.6801 126.758 608.087
98.3235 127.386 605.89
98.2348 128.357 605.343
98.0578 129.209 604.253
97.8814 130.058 603.166
97.8814 131.139 603.166
97.1823 131.277 598.858
96.8364 131.879 596.726
96.5786 132.596 595.138
96.6644 133.781 595.666
96.3223 134.372 593.558
96.0672 135.078 591.986
95.6451 135.541 589.385
95.4773 136.358 588.351
95.4773 137.413 588.351
95.3936 138.347 587.836
94.812 138.551 584.251
94.4828 139.114 582.223
92.1627 143.845 567.926
92.1627 144.863 567.926
92.1627 145.882 567.926
92.2408 147.025 568.407
92.2408 148.044 568.407
91.8516 148.434 566.009
91.6196 149.072 564.579
91.5426 149.958 564.105
89.9538 149.343 554.314
89.6574 149.842 552.488
89.2897 150.214 550.222
89.0705 150.829 548.871
89.2165 152.062 549.771
88.6353 153.031 546.189
88.6353 154.01 546.189
88.5632 154.863 545.745
88.2759 155.336 543.974
88.1329 156.059 543.093
87.9904 156.779 542.215
87.3549 156.611 538.299
87.0057 156.947 536.147
87.0057 157.908 536.147
86.5216 157.986 533.164
86.5216 158.942 533.164
86.4529 159.771 532.741
86.3842 160.598 532.318
86.3157 161.425 531.896
86.0428 161.865 530.214
84.7036 162.154 521.961
84.572 162.836 521.15
84.3753 163.39 519.938
84.3099 164.195 519.536
84.1795 164.871 518.732
83.9199 165.29 517.132
83.7907 165.961 516.336
83.7907 166.887 516.336
83.7263 167.684 515.939
83.5976 168.35 515.146
80.6253 174.837 496.83
80.4465 175.338 495.728
80.1503 175.578 493.903
79.4483 174.918 489.577
78.9298 174.648 486.382
78.8155 175.266 485.677
78.5878 175.629 484.275
78.8155 177.008 485.677
149.52 11.8472 911.305
148.913 15.0541 907.605
147.912 16.5694 901.506
147.121 18.0887 896.685
146.925 19.6703 895.488
145.757 21.1069 888.371
145.372 22.6399 886.024
145.181 24.1968 884.855
144.798 25.7156 882.527
144.229 27.1907 879.057
144.04 28.7294 877.906
140.009 29.4554 853.334
139.653 30.9069 851.168
139.124 32.3101 847.94
138.598 33.7028 844.736
138.598 35.2175 844.736
138.25 36.64 842.614
138.076 38.103 841.556
137.045 39.3161 835.268
136.197 40.5613 830.1
135.526 41.8426 826.01
135.526 43.3238 826.01
134.861 44.5853 821.961
134.532 45.9466 819.952
134.532 47.4169 819.952
132.907 48.2967 810.049
132.746 49.6893 809.072
132.746 51.14 809.072
132.109 52.3383 805.187
131.793 53.6533 803.258
131.635 55.0277 802.297
130.542 55.9975 795.635
130.542 57.4242 795.635
130.079 58.6422 792.814
117.321 74.6878 715.054
117.071 75.8083 713.532
116.947 77.0059 712.774
117.071 78.3673 713.532
117.071 79.6467 713.532
117.071 80.9262 713.532
117.071 82.2057 713.532
117.196 83.5741 714.292
116.947 84.6745 712.774
117.071 86.0441 713.532
117.071 87.3235 713.532
115.112 87.1201 701.59
114.632 88.0099 698.667
114.275 88.9846 696.491
114.275 90.2336 696.491
114.156 91.3876 695.768
113.334 91.9674 690.752
113.334 93.206 690.752
113.217 94.3474 690.042
113.101 95.4865 689.332
112.984 96.6233 688.625
112.984 97.8581 688.625
112.293 98.4862 684.409
112.064 99.5104 683.015
111.383 100.123 678.867
111.271 101.238 678.18
111.271 102.454 678.18
111.158 103.566 677.495
110.711 104.359 674.769
110.267 105.146 672.065
109.39 105.505 666.72
108.849 106.173 663.423
108.635 107.151 662.113
107.995 107.7 658.214
107.783 108.667 656.925
107.783 109.845 656.925
107.154 110.374 653.087
106.325 110.683 648.039
106.223 111.737 647.414
106.223 112.898 647.414
106.223 114.059 647.414
106.223 115.22 647.414
105.409 115.489 642.452
104.508 115.644 636.961
104.014 116.234 633.951
103.916 117.26 633.353
103.818 118.284 632.755
103.72 119.306 632.159
103.137 119.763 628.604
103.04 120.777 628.015
102.944 121.789 627.428
101.426 123.318 618.175
101.426 124.427 618.175
101.239 125.304 617.038
100.868 125.947 614.776
100.868 127.049 614.776
99.4998 127.501 606.438
99.2307 128.241 604.797
98.963 128.976 603.166
98.7853 129.824 602.083
