ply
format ascii 1.0
element vertex 1916
property float x
property float y
property float z
end_header
-44.852 -69.4929 617.606
-44.7695 -68.2597 616.471
-44.7284 -67.0926 615.905
-44.852 -66.1705 617.606
-45.7794 -65.278 630.376
-46.1262 -64.6336 635.152
-46.1262 -63.4947 635.152
-46.2576 -62.5334 636.961
-46.2576 -61.3913 636.961
-46.1262 -60.0779 635.152
-46.039 -58.8276 633.951
-46.039 -57.6908 633.951
-45.9955 -56.5007 633.353
-45.9955 -55.365 633.353
-45.9521 -54.1781 632.755
-45.9521 -53.0435 632.755
-45.9088 -51.86 632.159
-45.9088 -50.7264 632.159
-45.8656 -49.5462 631.564
-45.6935 -48.232 629.194
-45.3109 -46.7094 623.926
-45.3954 -45.6756 625.089
-45.3109 -44.4718 623.926
-45.3109 -43.3531 623.926
-45.3109 -42.2343 623.926
-45.3531 -41.1538 624.507
-45.3531 -40.0339 624.507
-45.3109 -38.8779 623.926
-45.4802 -37.9001 626.256
-45.5227 -36.8115 626.842
-45.5227 -35.6875 626.842
-45.5227 -34.5635 626.842
-45.6079 -33.5021 628.015
-46.6564 -23.9042 642.452
-46.8358 -22.8397 644.923
-46.6564 -21.6002 642.452
-46.4783 -20.3701 640
-46.3016 -19.1494 637.567
-46.3016 -18.0062 637.567
-46.3016 -16.8629 637.567
-46.3016 -15.7197 637.567
-46.3016 -14.5764 637.567
-46.3456 -13.446 638.174
-46.3456 -12.3016 638.174
-46.3456 -11.1573 638.174
-46.3456 -10.0129 638.174
-46.3456 -8.86861 638.174
-46.3898 -7.73163 638.781
-46.4783 -6.59877 640
-46.5227 -5.45636 640.612
-46.6564 -4.32003 642.452
-46.6564 -3.16803 642.452
-46.9261 -0.869001 646.166
-46.9713 0.289946 646.789
-47.0167 1.45113 647.414
-47.0621 2.61456 648.039
-47.0621 3.77659 648.039
-48.3227 11.0367 665.397
-48.1317 12.1815 662.767
-48.1317 13.3699 662.767
-48.0842 14.544 662.113
-48.0842 15.7312 662.113
-48.0367 16.9018 661.46
-48.0367 18.0879 661.46
-48.0367 19.274 661.46
-48.0367 20.4601 661.46
-48.0842 21.6676 662.113
-48.1317 22.8774 662.767
-48.0842 24.0421 662.113
-48.1793 25.2793 663.423
-48.3227 26.5476 665.397
-48.3227 27.7408 665.397
-48.2748 28.9053 664.738
-48.227 30.0674 664.08
-48.1793 31.2273 663.423
-48.227 32.449 664.08
-48.227 33.6398 664.08
-48.1793 34.7961 663.423
-48.1793 35.9858 663.423
-48.1793 37.1754 663.423
-48.1793 38.365 663.423
-48.1317 39.5155 662.767
-48.0842 40.6638 662.113
-48.1793 41.9338 663.423
-48.4187 43.3378 666.72
-48.5152 44.622 668.048
-48.5152 45.8199 668.048
-48.7093 47.2059 670.72
-49.907 71.7799 687.214
-49.7541 72.7884 685.108
-49.251 73.2685 678.18
-49.251 74.4846 678.18
-49.2013 75.6242 677.495
-49.2013 76.839 677.495
-49.2013 78.0539 677.495
-49.251 79.3489 678.18
-49.4009 80.8101 680.244
-42.6526 138.226 587.321
-42.578 139.036 586.294
-42.3927 139.477 583.743
-42.0996 139.552 579.706
-42.0633 140.471 579.206
-41.9546 141.143 577.709
-41.8824 141.935 576.716
-41.7747 142.601 575.232
-41.6318 143.142 573.265
-41.5608 143.924 572.287
-41.4547 144.58 570.826
-41.3491 145.232 569.372
-41.279 146.005 568.407
-41.279 147.025 568.407
-41.2441 147.919 567.926
-41.1744 148.685 566.966
-41.1049 149.449 566.009
-41.0356 150.211 565.055
-40.8292 150.463 562.213
-40.6928 150.965 560.335
-40.6588 151.843 559.867
-40.5572 152.465 558.468
-40.4898 153.211 557.54
-40.3556 153.7 555.692
-40.1892 154.058 553.4
-40.024 154.414 551.126
-39.8929 154.893 549.321
-39.8277 155.623 548.422
-39.6332 155.842 545.745
-39.4407 156.059 543.093
-39.4727 157.16 543.534
-39.4407 158.006 543.093
-39.3134 158.467 541.34
-39.1239 158.669 538.731
-38.9674 158.997 536.576
-38.9986 160.087 537.006
-38.9363 160.792 536.147
-38.9052 161.624 535.719
-38.1137 159.277 524.82
-38.1734 160.47 525.643
-38.3537 162.175 528.126
-38.4142 163.379 528.959
-38.4142 164.328 528.959
-38.1435 164.111 525.231
-38.1137 164.924 524.82
-38.0839 165.735 524.41
-37.7591 166.187 519.938
-37.7591 167.119 519.938
-37.6133 167.403 517.931
-37.4687 167.684 515.939
-37.2965 167.834 513.568
-37.2395 168.497 512.783
-37.211 169.287 512.391
-37.0695 169.558 510.442
-37.0413 170.344 510.054
-36.985 170.999 509.279
-36.9289 171.651 508.507
-36.8451 172.171 507.353
-36.3231 172.423 500.164
-36.2151 172.804 498.677
-36.242 173.827 499.048
-36.1882 174.463 498.306
-35.9743 175.208 495.362
-35.9213 175.837 494.632
-35.8948 176.594 494.267
-35.6844 176.44 491.37
-35.5802 176.803 489.935
-35.5802 177.681 489.935
-35.5802 178.56 489.935
-35.0931 180.448 483.228
-35.0679 181.184 482.88
-34.9672 181.527 481.493
-34.6685 182.545 477.381
-34.5701 182.88 476.026
-34.5211 183.473 475.351
-34.5211 184.326 475.351
-34.4966 185.047 475.014
-34.2782 185.568 472.006
-34.254 186.283 471.674
-34.1819 186.735 470.681
-48.0349 -99.4141 678.18
-48.0349 -98.198 678.18
-47.8897 -96.6886 676.129
-47.7933 -95.2841 674.769
-47.7453 -93.9797 674.091
-47.6973 -92.6778 673.414
-44.1101 -83.4741 622.767
-44.1101 -82.3574 622.767
-44.1101 -81.2407 622.767
-44.1101 -80.124 622.767
-44.1101 -79.0073 622.767
-44.1511 -77.963 623.346
-44.1511 -76.8452 623.346
-44.1511 -75.7275 623.346
-44.1101 -74.5405 622.767
-43.9469 -73.1521 620.463
-43.7848 -71.7739 618.175
-43.7848 -70.6654 618.175
-43.7848 -69.5569 618.175
-43.7043 -68.3225 617.038
-43.7043 -67.2161 617.038
-44.7331 -65.4009 631.564
-44.8598 -64.4505 633.353
-44.9873 -63.4947 635.152
-45.1154 -62.5334 636.961
-45.1154 -61.3913 636.961
-45.0299 -60.1349 635.754
-44.8598 -58.772 633.353
-44.8598 -57.6364 633.353
-44.8175 -56.4474 632.755
-44.8175 -55.3127 632.755
-44.8175 -54.1781 632.755
-44.8175 -53.0435 632.755
-44.7753 -51.86 632.159
-44.7753 -50.7264 632.159
-44.7331 -49.5462 631.564
-44.5235 -48.1868 628.604
-44.1511 -46.666 623.346
-44.1921 -45.5906 623.926
-44.1511 -44.4305 623.346
-44.1511 -43.3128 623.346
-44.1921 -42.2343 623.926
-44.1921 -41.1155 623.926
-44.2333 -40.0339 624.507
-44.1511 -38.8418 623.346
-44.2333 -37.7943 624.507
-44.2333 -36.6744 624.507
-44.2333 -35.5546 624.507
-44.2333 -34.4348 624.507
-44.3987 -33.4395 626.842
-44.5653 -32.4367 629.194
-45.2443 -20.3313 638.781
-45.2013 -19.1676 638.174
-45.2013 -18.0233 638.174
-45.1583 -16.8629 637.567
-45.1583 -15.7197 637.567
-45.1583 -14.5764 637.567
-45.2013 -13.446 638.174
-45.2013 -12.3016 638.174
-45.2013 -11.1573 638.174
-45.2013 -10.0129 638.174
-45.2443 -8.87705 638.781
-45.2875 -7.739 639.39
-45.374 -6.60507 640.612
-45.4174 -5.46158 641.224
-45.5044 -4.32003 642.452
-45.548 -3.17106 643.068
-45.5044 -2.01602 642.452
-45.5917 -0.865665 643.686
-45.8115 0.289946 646.789
-45.8558 1.45113 647.414
-45.9444 2.61709 648.666
-46.2126 3.8023 652.452
-46.3479 4.98679 654.361
-46.5751 6.19036 657.569
-46.6208 7.3767 658.214
-46.6666 8.56538 658.861
-46.7584 9.766 660.158
-46.8507 10.9714 661.46
-46.8507 12.1574 661.46
-46.8969 13.3567 662.113
-46.8507 14.5296 661.46
-46.8969 15.7312 662.113
-46.8969 16.9185 662.113
-46.8969 18.1058 662.113
-46.8969 19.293 662.113
-46.8969 20.4803 662.113
-46.8969 21.6676 662.113
-46.9432 22.8774 662.767
-46.9897 24.0896 663.423
-47.0362 25.3043 664.08
-47.2232 26.6004 666.72
-47.1763 27.7683 666.058
-47.0362 28.8766 664.08
-47.0362 30.0674 664.08
-46.9897 31.2273 663.423
-47.0362 32.449 664.08
-47.0362 33.6398 664.08
-46.9897 34.7961 663.423
-46.9897 35.9858 663.423
-46.9897 37.1754 663.423
-47.0362 38.403 664.08
-46.9432 39.5155 662.767
-46.7584 40.5437 660.158
-46.9432 41.8924 662.767
-47.1295 43.2518 665.397
-47.3173 44.622 668.048
-47.3645 45.8656 668.714
-47.5541 47.2531 671.392
-47.6973 48.603 673.414
-47.7453 49.8606 674.091
-47.7933 51.1207 674.769
-47.8897 52.4362 676.129
-48.0349 53.8113 678.18
-48.6747 71.7799 687.214
-48.4761 72.7141 684.409
-48.279 73.6408 681.626
-48.1323 74.6355 679.555
-48.1323 75.854 679.555
-48.1323 77.0726 679.555
-48.1323 78.2911 679.555
-48.1323 79.5097 679.555
-48.1811 80.8101 680.244
-41.382 136.456 584.251
-41.382 137.504 584.251
-41.346 138.431 583.743
-41.2026 138.993 581.718
-41.0956 139.673 580.208
-41.0601 140.592 579.706
-40.9893 141.387 578.706
-40.8834 142.057 577.212
-40.7782 142.724 575.726
-40.6039 143.142 573.265
-40.5346 143.924 572.287
-40.4311 144.58 570.826
-40.3281 145.232 569.372
-40.2939 146.129 568.889
-40.2598 147.025 568.407
-40.2598 148.044 568.407
-40.1917 148.811 567.445
-40.0224 149.197 565.055
-39.9551 149.958 564.105
-39.7544 150.211 561.272
-39.7212 151.091 560.803
-39.6549 151.843 559.867
-39.6218 152.72 559.4
-39.5229 153.339 558.004
-39.3918 153.828 556.153
-39.1968 154.058 553.4
-38.9398 154.034 549.771
-38.8761 154.766 548.871
-38.8443 155.623 548.422
-38.6861 155.969 546.189
-38.4357 155.932 542.654
-38.25 156.147 540.033
-38.3736 157.623 541.777
-38.25 158.084 540.033
-38.1273 158.542 538.299
-37.9749 158.87 536.147
-37.9749 159.831 536.147
-37.9445 160.664 535.719
-37.7636 160.854 533.164
-37.2893 159.778 526.468
-37.3186 160.848 526.882
-37.3773 162.047 527.711
-37.4067 163.122 528.126
-37.4657 164.328 528.959
-37.4067 165.016 528.126
-37.26 165.312 526.055
-37.2308 166.125 525.643
-36.7983 166.058 519.536
-36.7698 166.86 519.133
-36.5998 167.016 516.734
-36.5435 167.684 515.939
-36.32 167.578 512.783
-36.2923 168.368 512.391
-36.2645 169.158 512
-36.1817 169.688 510.831
-36.1267 170.344 510.054
-36.0992 171.129 509.666
-36.0718 171.912 509.279
-36.0171 172.563 508.507
-35.9898 173.343 508.122
-35.3209 171.91 498.677
-35.2684 172.547 497.936
-35.2684 173.44 497.936
-35.2684 174.333 497.936
-35.2423 175.096 497.567
-35.0861 175.208 495.362
-35.0343 175.837 494.632
-34.957 176.334 493.54
-34.8544 176.699 492.091
-34.7779 177.191 491.011
-34.8033 178.202 491.37
-34.7524 178.821 490.651
-34.5 179.269 487.088
-34.475 180.012 486.735
-34.202 179.452 482.88
-34.202 180.318 482.88
-34.202 181.184 482.88
-34.1038 181.527 481.493
-33.6687 183.473 475.351
-33.6687 184.326 475.351
-33.6449 185.047 475.014
-33.4318 185.568 472.006
-33.3848 186.152 471.343
-33.3613 186.866 471.012
-46.6773 -97.901 676.129
-46.5834 -96.4941 674.769
-46.5365 -95.1884 674.091
-46.5365 -93.9797 674.091
-46.5365 -92.7709 674.091
-46.4898 -91.4702 673.414
-42.9535 -83.3967 622.19
-42.9934 -82.3574 622.767
-42.9934 -81.2407 622.767
-42.9934 -80.124 622.767
-43.0333 -79.0807 623.346
-43.0333 -77.963 623.346
-43.0333 -76.8452 623.346
-43.0333 -75.7275 623.346
-42.9934 -74.5405 622.767
-42.9535 -73.3556 622.19
-42.7947 -71.9729 619.889
-42.7947 -70.8613 619.889
-42.7552 -69.6854 619.317
-42.7552 -68.5749 619.317
-42.7552 -67.4643 619.317
-43.5187 -65.278 630.376
-43.6417 -64.329 632.159
-43.7241 -63.3148 633.353
-43.8069 -62.2968 634.551
-43.8069 -61.1589 634.551
-43.7241 -59.9077 633.353
-43.7241 -58.772 633.353
-43.6829 -57.582 632.755
-43.6829 -56.4474 632.755
-43.6417 -55.2606 632.159
-43.6829 -54.1781 632.755
-43.6829 -53.0435 632.755
-43.6829 -51.9089 632.755
-43.6829 -50.7743 632.755
-43.5187 -49.453 630.376
-43.0333 -46.666 623.346
-42.7947 -45.2957 619.889
-42.9535 -44.3481 622.19
-42.9934 -43.2725 622.767
-43.0333 -42.195 623.346
-43.0734 -41.1155 623.926
-43.0734 -39.9967 623.926
-42.9934 -38.8057 622.767
-43.0734 -37.7591 623.926
-43.0734 -36.6403 623.926
-43.0734 -35.5215 623.926
-43.1135 -34.4348 624.507
-43.2746 -33.4395 626.842
-43.3557 -32.376 628.015
-44.0151 -20.2927 637.567
-44.0151 -19.1494 637.567
-44.0151 -18.0062 637.567
-44.0151 -16.8629 637.567
-44.0151 -15.7197 637.567
-44.0151 -14.5764 637.567
-44.0569 -13.446 638.174
-44.0569 -12.3016 638.174
-44.141 -11.1786 639.39
-44.1831 -10.0416 640
-44.2676 -8.911 641.224
-44.3099 -7.76862 641.838
-44.3524 -6.62405 642.452
-44.3524 -5.47204 642.452
-44.3949 -4.32418 643.068
-44.3949 -3.17106 643.068
-44.3524 -2.01602 642.452
-44.5229 -0.86733 644.923
-44.6517 0.289946 646.789
-44.738 1.45253 648.039
-44.9116 2.6247 650.553
-45.0865 3.80601 653.087
-45.3071 5.00143 656.282
-45.4405 6.19643 658.214
-45.4851 7.38395 658.861
-45.4851 8.56538 658.861
-45.6196 9.77562 660.808
-45.6196 10.9605 660.808
-45.6646 12.1574 661.46
-45.6646 13.3435 661.46
-45.6196 14.5153 660.808
-45.6196 15.7002 660.808
-45.6196 16.8852 660.808
-45.6196 18.0701 660.808
-45.6196 19.255 660.808
-45.6646 20.4601 661.46
-45.7096 21.6676 662.113
-45.7548 22.8774 662.767
-45.7096 24.0421 662.113
-45.7548 25.2543 662.767
-45.7096 26.4166 662.113
-45.7096 27.6039 662.113
-45.6646 28.7627 661.46
-45.7096 29.9784 662.113
-45.7548 31.1965 662.767
-45.7548 32.3849 662.767
-45.8001 33.6065 663.423
-45.8001 34.7961 663.423
-45.8001 35.9858 663.423
-45.8001 37.1754 663.423
-45.8001 38.365 663.423
-45.7096 39.4765 662.113
-45.4851 40.464 658.861
-45.3959 41.5638 657.569
-45.5747 42.9112 660.158
-46.1654 44.6665 668.714
-46.2114 45.9114 669.382
-46.5365 47.4431 674.091
-46.5834 48.7008 674.769
-46.6303 49.961 675.449
-46.6303 51.1722 675.449
-46.7716 52.5421 677.495
-46.7716 53.7569 677.495
-46.6303 54.8057 675.449
-46.6773 56.0734 676.129
-47.6377 70.8379 690.042
-47.5399 71.9272 688.625
-47.5399 73.162 688.625
-47.4425 74.2444 687.214
-47.2488 75.1686 684.409
-47.2007 76.318 683.711
-47.2488 77.6231 684.409
-47.2488 78.8503 684.409
-47.1526 79.9145 683.015
-47.0568 80.9743 681.626
-40.3695 136.575 584.761
-40.3344 137.504 584.251
-40.3344 138.551 584.251
-40.2642 139.356 583.235
-40.0899 139.794 580.71
-40.0206 140.592 579.706
-39.9861 141.509 579.206
-39.8484 142.057 577.212
-39.7458 142.724 575.726
-39.576 143.142 573.265
-39.5084 143.924 572.287
-39.4075 144.58 570.826
-39.3072 145.232 569.372
-39.2738 146.129 568.889
-39.2406 147.025 568.407
-39.2406 148.044 568.407
-39.2073 148.937 567.926
-39.108 149.575 566.487
-38.9763 150.084 564.579
-38.8781 150.716 563.157
-38.7156 151.091 560.803
-38.6187 151.716 559.4
-38.5865 152.592 558.934
-38.5223 153.339 558.004
-38.4264 153.955 556.615
-38.2677 154.313 554.314
-37.954 154.034 549.771
-37.7375 154.135 546.634
-37.7682 155.242 547.08
-37.6454 155.715 545.301
-37.493 156.059 543.093
-37.372 156.525 541.34
-37.4324 157.751 542.215
-37.3117 158.211 540.468
-37.162 158.542 538.299
-37.0431 158.997 536.576
-37.0135 159.831 536.147
-36.9839 160.664 535.719
-36.7491 160.598 532.318
-36.5461 160.66 529.377
-36.4885 161.355 528.542
-36.5172 162.431 528.959
-36.4885 163.25 528.542
-36.5172 164.328 528.959
-36.5172 165.276 528.959
-36.3453 165.442 526.468
-36.2883 166.125 525.643
-35.8667 165.126 519.536
-35.8112 165.801 518.732
-35.8112 166.731 518.732
-35.7283 167.273 517.531
-35.6184 167.684 515.939
-35.4547 167.834 513.568
-35.4005 168.497 512.783
-35.3735 169.287 512.391
-35.2926 169.817 511.22
-35.2121 170.344 510.054
-35.1853 171.129 509.666
-35.1853 172.042 509.666
-35.1586 172.825 509.279
-34.35 172.419 497.567
-34.3755 173.44 497.936
-34.3755 174.333 497.936
-34.35 175.096 497.567
-34.2484 175.468 496.095
-34.1474 176.724 494.632
-33.7492 175.54 488.863
-33.7246 176.288 488.507
-33.7492 177.293 488.863
-33.7492 178.169 488.863
-33.6266 179.269 487.088
-33.6266 180.143 487.088
-33.3601 179.581 483.228
-33.3601 180.448 483.228
-33.3601 181.314 483.228
-33.3361 182.05 482.88
-32.8396 183.603 475.688
-32.8163 184.326 475.351
-32.5854 184.721 472.006
-32.5854 185.568 472.006
-32.5854 186.414 472.006
-32.5625 187.129 471.674
-45.4649 -99.1134 676.129
-45.5567 -98.0988 677.495
-45.4649 -96.6886 676.129
-45.3734 -95.2841 674.769
-45.3278 -93.9797 674.091
-45.3278 -92.7709 674.091
-45.2823 -91.4702 673.414
-41.8767 -83.4741 622.767
-41.8767 -82.3574 622.767
-41.9156 -81.3162 623.346
-41.9156 -80.1985 623.346
-41.9156 -79.0807 623.346
-41.9546 -78.0355 623.926
-41.9546 -76.9167 623.926
-41.9546 -75.7979 623.926
-41.9156 -74.6097 623.346
-41.9156 -73.492 623.346
-41.8378 -72.2399 622.19
-41.799 -71.0584 621.613
-41.7217 -69.8143 620.463
-41.6831 -68.6382 619.889
-41.8378 -67.7773 622.19
-42.5082 -66.5961 632.159
-42.5082 -65.4626 632.159
-42.5483 -64.3897 632.755
-42.6287 -63.3747 633.951
-42.7499 -62.4149 635.754
-42.7905 -61.333 636.357
-42.7094 -60.0779 635.152
-42.6287 -58.8276 633.951
-42.5884 -57.6364 633.353
-42.5483 -56.4474 632.755
-42.5082 -55.2606 632.159
-42.4681 -54.0761 631.564
-42.4282 -52.8938 630.969
-42.3088 -51.6167 629.194
-42.19 -50.3468 627.428
-41.799 -43.1923 621.613
-41.9156 -42.195 623.346
-41.9156 -41.0773 623.346
-41.9156 -39.9595 623.346
-41.8378 -38.7697 622.19
-41.9546 -37.7591 623.926
-41.9546 -36.6403 623.926
-41.9546 -35.5215 623.926
-42.0328 -34.4669 625.089
-42.19 -33.4708 627.428
-42.2296 -32.376 628.015
-43.0355 -23.813 640
-43.0355 -22.6653 640
-43.0355 -21.5177 640
-42.8718 -20.2927 637.567
-42.8718 -19.1494 637.567
-42.8718 -18.0062 637.567
-42.9126 -16.879 638.174
-42.9126 -15.7346 638.174
-42.9126 -14.5903 638.174
-42.9126 -13.446 638.174
-42.9535 -12.3133 638.781
-43.0766 -11.1999 640.612
-43.0766 -10.0512 640.612
-43.159 -8.91953 641.838
-43.159 -7.76862 641.838
-43.2003 -6.62405 642.452
-43.2003 -5.47204 642.452
-43.2003 -4.32003 642.452
-43.2418 -3.17106 643.068
-43.2003 -2.01602 642.452
-43.3248 -0.866497 644.304
-43.4501 0.289667 646.166
-43.576 1.45253 648.039
-43.8727 2.63236 652.452
-43.9582 3.80971 653.724
-44.1735 5.00633 656.925
-44.3037 6.20252 658.861
-44.3037 7.38395 658.861
-44.3473 8.5738 659.509
-44.3909 9.766 660.158
-44.4346 10.9605 660.808
-44.4785 12.1574 661.46
-44.4785 13.3435 661.46
-44.4785 14.5296 661.46
-44.4346 15.7002 660.808
-44.4346 16.8852 660.808
-44.4346 18.0701 660.808
-44.3473 19.2171 659.509
-44.4346 20.4399 660.808
-44.4785 21.6462 661.46
-44.5224 22.8548 662.113
-44.4346 23.9947 660.808
-44.5224 25.2293 662.113
-44.5224 26.4166 662.113
-44.5224 27.6039 662.113
-44.4785 28.7627 661.46
-44.5224 29.9784 662.113
-44.5664 31.1965 662.767
-44.5664 32.3849 662.767
-44.6104 33.6065 663.423
-44.6546 34.8306 664.08
-44.6989 36.0571 664.738
-44.7876 37.323 666.058
-44.7876 38.5174 666.058
-44.7432 39.6723 665.397
-44.5664 40.704 662.767
-44.4785 41.8098 661.46
-44.5664 43.0808 662.767
-44.7432 44.4449 665.397
-44.7876 45.6834 666.058
-45.3278 47.4431 674.091
-45.4649 48.799 676.129
-45.4649 50.0114 676.129
-45.4649 51.2238 676.129
-45.6489 52.6485 678.867
-45.6489 53.8658 678.867
-45.4649 54.861 676.129
-45.4649 56.0734 676.129
-45.5567 57.4015 677.495
-45.6028 58.6756 678.18
-46.4004 70.8379 690.042
-46.0216 71.4869 684.409
-46.1157 72.8628 685.808
-46.0216 73.9414 684.409
-46.0216 75.1686 684.409
-45.9747 76.318 683.711
-46.0216 77.6231 684.409
-46.2102 79.1735 687.214
-46.2102 80.4058 687.214
-45.9279 81.1392 683.015
-39.842 137.322 592.509
-39.5277 137.293 587.836
-39.3897 137.864 585.782
-39.321 138.672 584.761
-39.1503 139.114 582.223
-38.9811 139.552 579.706
-38.8803 140.228 578.207
-38.8468 141.143 577.709
-38.78 141.935 576.716
-38.7134 142.724 575.726
-38.548 143.142 573.265
-38.4822 143.924 572.287
-38.3513 144.457 570.34
-38.2537 145.109 568.889
-38.2213 146.005 568.407
-38.189 146.9 567.926
-38.1567 147.793 567.445
-38.0601 148.434 566.009
-37.9639 149.072 564.579
-37.932 149.958 564.105
-37.8683 150.716 563.157
-37.71 151.091 560.803
-37.553 151.464 558.468
-37.553 152.465 558.468
-37.4594 153.084 557.077
-37.4594 154.083 557.077
-37.1815 153.931 552.943
-36.9379 153.908 549.321
-36.7573 154.135 546.634
-36.7872 155.242 547.08
-36.6974 155.842 545.745
-36.5192 156.059 543.093
-36.2258 155.771 538.731
-36.255 156.863 539.164
-36.2258 157.703 538.731
-36.0233 157.782 535.719
-35.9945 158.616 535.292
-35.9658 159.449 534.865
-35.9372 160.28 534.439
-35.7946 160.598 532.318
-35.5968 160.66 529.377
-35.5407 161.355 528.542
-35.5407 162.303 528.542
-35.5127 163.122 528.126
-35.5687 164.328 528.959
-35.4012 164.498 526.468
-35.3457 165.182 525.643
-35.2628 165.735 524.41
-34.9351 166.058 519.536
-34.9351 166.99 519.536
-34.881 167.661 518.732
-34.7199 167.813 516.336
-34.5338 167.834 513.568
-34.481 168.497 512.783
-34.4547 169.287 512.391
-34.3497 169.688 510.831
-34.2975 170.344 510.054
-34.2454 170.999 509.279
-34.2454 171.912 509.279
-34.1934 172.563 508.507
-33.4827 172.547 497.936
-33.4827 173.44 497.936
-33.4827 174.333 497.936
-33.4083 174.837 496.83
-33.3588 175.468 496.095
-33.2604 175.837 494.632
-33.2115 176.464 493.903
-32.8726 175.54 488.863
-32.8486 176.288 488.507
-32.8726 177.293 488.863
-32.8486 178.04 488.507
-32.7532 178.396 487.088
-32.7532 179.269 487.088
-32.777 180.274 487.442
-32.4936 180.448 483.228
-32.4702 181.184 482.88
-32.4936 182.181 483.228
-31.9866 183.603 475.688
-31.9866 184.456 475.688
-31.9413 185.047 475.014
-31.8736 185.504 474.007
-31.7838 185.829 472.671
-31.7838 186.677 472.671
-31.7614 187.392 472.338
-44.2525 -95.4762 676.129
-44.1634 -94.0742 674.769
-44.1634 -92.8642 674.769
-44.1634 -91.6543 674.769
-40.7978 -83.5517 623.346
-40.8358 -82.5107 623.926
-40.8358 -81.3919 623.926
-40.8358 -80.2731 623.926
-40.7978 -79.0807 623.346
-40.8358 -78.0355 623.926
-40.8358 -76.9167 623.926
-40.8358 -75.7979 623.926
-40.8358 -74.6791 623.926
-40.8738 -73.6288 624.507
-40.7978 -72.3742 623.346
-40.7978 -71.2565 623.346
-40.7599 -70.0736 622.767
-40.7221 -68.8929 622.19
-40.7978 -67.9032 623.346
-41.1805 -67.412 629.194
-41.3746 -66.5961 632.159
-41.4136 -65.5243 632.755
-41.5705 -64.6336 635.152
-41.6494 -63.6152 636.357
-41.6889 -62.5334 636.961
-41.6889 -61.3913 636.961
-41.6494 -60.1919 636.357
-41.5312 -58.8833 634.551
-41.4528 -57.6364 633.353
-41.4136 -56.4474 632.755
-41.3357 -55.2086 631.564
-41.258 -53.9744 630.376
-41.1805 -52.745 629.194
-41.142 -51.5683 628.604
-40.2001 -48.185 614.213
-40.2001 -47.0836 614.213
-40.2001 -45.9823 614.213
-40.2001 -44.8809 614.213
-40.2738 -43.8598 615.34
-40.5341 -43.0328 619.317
-40.6844 -42.0777 621.613
-40.7599 -41.0391 622.767
-40.7978 -39.9595 623.346
-40.6844 -38.7338 621.613
-40.7978 -37.724 623.346
-40.7978 -36.6063 623.346
-40.7978 -35.4885 623.346
-40.8358 -34.4027 623.926
-40.9501 -33.3771 625.672
-41.1034 -32.376 628.015
-41.8878 -24.9606 640
-41.9679 -23.8585 641.224
-42.0483 -22.7522 642.452
-42.129 -21.6416 643.686
-41.7286 -20.2927 637.567
-41.7286 -19.1494 637.567
-41.7286 -18.0062 637.567
-41.7683 -16.879 638.174
-41.7683 -15.7346 638.174
-41.7286 -14.5764 637.567
-41.7683 -13.446 638.174
-41.8479 -12.3251 639.39
-41.8878 -11.1892 640
-41.8878 -10.0416 640
-41.9679 -8.911 641.224
-42.0081 -7.76862 641.838
-42.0483 -6.62405 642.452
-42.0483 -5.47204 642.452
-42.0887 -4.32418 643.068
-42.129 -3.17411 643.686
-42.129 -2.01989 643.686
-42.1695 -0.866497 644.304
-42.2101 0.28911 644.923
-42.414 1.45253 648.039
-42.7028 2.63236 652.452
-42.9535 3.82463 656.282
-43.0377 5.01124 657.569
-43.1223 6.20252 658.861
-43.1223 7.38395 658.861
-43.0799 8.55698 658.214
-43.1223 9.74681 658.861
-43.1647 10.939 659.509
-43.2497 12.1455 660.808
-43.2497 13.3304 660.808
-43.2497 14.5153 660.808
-43.2497 15.7002 660.808
-43.2497 16.8852 660.808
-43.2497 18.0701 660.808
-43.1647 19.2171 659.509
-43.2497 20.4399 660.808
-43.3351 21.6676 662.113
-43.3351 22.8548 662.113
-43.2497 23.9947 660.808
-43.3351 25.2293 662.113
-43.2924 26.3906 661.46
-43.2924 27.5766 661.46
-43.1223 28.6497 658.861
-43.2497 29.9193 660.808
-43.3351 31.1657 662.113
-43.3351 32.3529 662.113
-43.3779 33.5733 662.767
-43.4208 34.7961 663.423
-43.4638 36.0214 664.08
-43.5933 37.323 666.058
-43.6801 38.594 667.384
-43.6801 39.7907 667.384
-43.4638 40.7845 664.08
-43.3779 41.8924 662.767
-43.6801 43.3809 667.384
-43.7236 44.622 668.048
-43.7236 45.8199 668.048
-43.7236 47.0178 668.048
-43.8546 48.3602 670.05
-43.7672 49.4629 668.714
-43.7236 50.6115 668.048
-43.6801 51.7579 667.384
-43.6801 52.9546 667.384
-43.7236 54.2053 668.048
-43.7236 55.4032 668.048
-43.7672 56.6575 668.714
-43.8985 58.0302 670.72
-44.2079 59.6504 675.449
-44.3867 61.1077 678.18
-44.2525 69.4097 676.129
-44.3419 70.7648 677.495
-44.5218 72.2716 680.244
-44.4316 73.3426 678.867
-44.6123 74.863 681.626
-44.7031 76.2403 683.015
-44.7944 77.6231 684.409
-45.163 79.4993 690.042
-44.9779 80.4058 687.214
-44.9779 81.638 687.214
-38.7796 137.322 592.509
-38.5412 137.534 588.868
-38.4737 138.347 587.836
-38.3728 139.036 586.294
-38.2058 139.477 583.743
-38.0073 139.794 580.71
-37.7784 139.987 577.212
-37.7784 141.022 577.212
-37.7459 141.935 576.716
-37.7135 142.846 576.22
-37.6165 143.51 574.739
-37.488 144.046 572.776
-37.3604 144.58 570.826
-37.2336 145.109 568.889
-37.2021 146.005 568.407
-37.2021 147.025 568.407
-37.2021 148.044 568.407
-37.1391 148.811 567.445
-37.0139 149.323 565.532
-37.0451 150.464 566.009
-36.9827 151.224 565.055
-36.7044 151.091 560.803
-36.4908 151.212 557.54
-36.4303 151.959 556.615
-36.3699 152.704 555.692
-36.2199 153.066 553.4
-36.2199 154.058 553.4
-35.9823 154.034 549.771
-35.8063 154.261 547.08
-35.8355 155.369 547.527
-35.7188 155.842 545.745
-35.5166 155.932 542.654
-35.2598 155.771 538.731
-35.2598 156.737 538.731
-35.2033 157.45 537.867
-35.0627 157.782 535.719
-35.0347 158.616 535.292
-35.0347 159.576 535.292
-35.0068 160.408 534.865
-34.8954 160.854 533.164
-34.84 161.553 532.318
-34.5114 160.974 527.296
-34.5114 161.92 527.296
-34.5385 162.993 527.711
-34.5385 163.94 527.711
-34.4302 164.369 526.055
-34.4032 165.182 525.643
-34.2422 165.347 523.183
-34.0035 165.126 519.536
-33.9509 165.801 518.732
-33.9246 166.602 518.331
-33.8201 167.016 516.734
-33.7421 167.555 515.542
-33.5872 167.706 513.176
-33.5359 168.368 512.391
-33.5103 169.158 512
-33.4592 169.817 511.22
-33.4083 170.474 510.442
-33.2564 171.521 508.122
-33.181 172.041 506.969
-32.5656 173.312 497.567
-32.5898 174.333 497.936
-32.5656 175.096 497.567
-32.4213 175.208 495.362
-32.3974 175.967 494.997
-32.3258 176.464 493.903
-32.2546 176.958 492.814
-31.9727 176.288 488.507
-31.996 177.293 488.863
-31.996 178.169 488.863
-31.9262 178.655 487.797
-31.903 179.399 487.442
-31.8105 179.751 486.029
-31.6271 180.448 483.228
-31.6271 181.314 483.228
-31.5589 182.653 482.186
-31.1116 183.473 475.351
-31.1337 184.456 475.688
-30.9144 185.698 472.338
-30.8492 186.152 471.343
-30.7628 186.473 470.021
-42.9535 -97.704 674.769
-42.9103 -96.3971 674.091
-42.9103 -95.1884 674.091
-42.9103 -93.9797 674.091
-43.127 -93.2394 677.495
-43.127 -92.0246 677.495
-39.6801 -83.5517 623.346
-39.6801 -82.434 623.346
-39.717 -81.3919 623.926
-39.717 -80.2731 623.926
-39.717 -79.1543 623.926
-39.754 -78.1082 624.507
-39.754 -76.9883 624.507
-39.754 -75.8685 624.507
-39.754 -74.7487 624.507
-39.9026 -73.9041 626.842
-39.8281 -72.6443 625.672
-39.717 -71.3228 623.926
-39.717 -70.204 623.926
-39.717 -69.0852 623.926
-39.6801 -67.9032 623.346
-40.0899 -66.346 629.784
-40.2032 -65.4009 631.564
-40.279 -64.3897 632.755
-40.3171 -63.3148 633.353
-40.4316 -62.3558 635.152
-40.4699 -61.2749 635.754
-40.4699 -60.1349 635.754
-40.3933 -58.8833 634.551
-40.3171 -57.6364 633.353
-40.2411 -56.3942 632.159
-40.1654 -55.1566 630.969
-40.0899 -53.9238 629.784
-40.0148 -52.6955 628.604
-39.9773 -51.5201 628.015
-39.3872 -49.6501 618.746
-39.0987 -48.185 614.213
-39.0987 -47.0836 614.213
-39.0987 -45.9823 614.213
-39.0629 -44.8398 613.651
-39.0629 -43.7395 613.651
-39.3147 -42.9139 617.606
-39.4236 -41.9223 619.317
-39.5331 -40.9251 621.037
-39.6432 -39.9224 622.767
-39.5331 -38.6979 621.037
-39.6801 -37.724 623.346
-39.6432 -36.5723 622.767
-39.6801 -35.4885 623.346
-39.6432 -34.3389 622.767
-39.6432 -33.2221 622.767
-39.6065 -32.0757 622.19
-39.0629 -29.4347 613.651
-38.956 -28.2568 611.971
-38.956 -26.0621 611.971
-40.7402 -24.9606 640
-40.7402 -23.813 640
-40.8181 -22.7087 641.224
-40.8572 -21.5795 641.838
-40.6239 -20.312 638.174
-40.6239 -19.1676 638.174
-40.6239 -18.0233 638.174
-40.6626 -16.895 638.781
-40.7014 -15.7646 639.39
-40.5853 -14.5764 637.567
-40.5468 -13.4204 636.961
-40.6626 -12.3133 638.781
-40.8181 -11.2106 641.224
-40.8181 -10.0608 641.224
-40.8572 -8.91953 641.838
-40.8963 -7.77606 642.452
-40.8963 -6.62405 642.452
-40.8963 -5.47204 642.452
-40.8963 -4.32003 642.452
-40.9748 -3.17411 643.686
-41.0142 -2.02183 644.304
-41.0142 -0.866497 644.304
-41.0536 0.28911 644.923
-41.1724 1.44973 646.789
-41.6951 2.64265 655
-41.8586 3.83213 657.569
-41.8997 5.01616 658.214
-41.9821 6.20862 659.509
-41.9408 7.38395 658.861
-41.8997 8.55698 658.214
-41.9408 9.74681 658.861
-41.9408 10.9282 658.861
-41.9821 12.1216 659.509
-42.0234 13.3173 660.158
-42.0234 14.501 660.158
-42.0648 15.7002 660.808
-41.9821 16.852 659.509
-41.9821 18.0346 659.509
-41.9821 19.2171 659.509
-42.0648 20.4399 660.808
-42.1063 21.6462 661.46
-42.1478 22.8548 662.113
-42.0648 23.9947 660.808
-42.1478 25.2293 662.113
-42.1063 26.3906 661.46
-42.0648 27.5495 660.808
-41.9821 28.6779 659.509
-42.1478 29.9784 662.113
-42.1478 31.1657 662.113
-42.1895 32.3849 662.767
-42.2312 33.6065 663.423
-42.273 34.8306 664.08
-42.399 36.1287 666.058
-42.399 37.323 666.058
-42.4834 38.594 667.384
-42.4834 39.7907 667.384
-42.3149 40.825 664.738
-42.1895 41.8924 662.767
-42.4411 43.3378 666.72
-42.5257 44.622 668.048
-42.5257 45.8199 668.048
-42.4834 46.971 667.384
-42.5257 48.2157 668.048
-42.5257 49.4136 668.048
-42.4834 50.5612 667.384
-42.4834 51.7579 667.384
-42.5257 53.0073 668.048
-42.5681 54.2593 668.714
-42.5681 55.4584 668.714
-42.6105 56.714 669.382
-42.7813 58.1465 672.065
-42.9967 59.6504 675.449
-43.2143 61.1696 678.867
-43.2143 62.3869 678.867
-43.5227 66.51 683.711
-43.5227 67.736 683.711
-43.4784 68.8918 683.015
-43.302 69.8321 680.244
-43.2143 70.908 678.867
-43.1706 72.0524 678.18
-43.2143 73.3426 678.867
-43.302 74.7112 680.244
-43.39 76.0853 681.626
-43.39 77.3075 681.626
-43.5227 78.77 683.711
-43.6562 80.2413 685.808
-43.5671 81.3048 684.409
-37.7171 136.26 592.509
-37.7171 137.322 592.509
-37.5843 137.897 590.423
-37.5512 138.834 589.904
-37.4853 139.646 588.868
-36.6802 138.713 576.22
-36.6802 139.746 576.22
-36.7433 141.022 577.212
-36.7118 141.935 576.716
-36.6802 142.846 576.22
-36.6173 143.633 575.232
-36.5233 144.293 573.756
-36.3988 144.826 571.799
-36.2751 145.356 569.856
-36.2135 146.129 568.889
-36.1829 147.025 568.407
-36.1522 147.919 567.926
-36.0911 148.685 566.966
-35.9998 149.323 565.532
-35.9695 150.211 565.055
-35.9392 151.096 564.579
-35.669 150.965 560.335
-35.4322 150.961 556.615
-35.3735 151.707 555.692
-35.2858 152.325 554.314
-35.2275 153.066 553.4
-35.2275 154.058 553.4
-35.1116 154.541 551.579
-34.8537 154.387 547.527
-34.8253 155.242 547.08
-34.7403 155.842 545.745
-34.2663 155.646 538.299
-34.2938 156.737 538.731
-34.184 157.198 537.006
-34.0748 157.656 535.292
-34.0748 158.616 535.292
-34.0748 159.576 535.292
-34.0205 160.28 534.439
-33.9394 160.854 533.164
-33.8855 161.553 532.318
-33.4869 162.482 526.055
-33.5132 163.554 526.468
-33.4869 164.369 526.055
-33.4344 165.053 525.231
-33.0719 164.195 519.536
-33.0463 164.999 519.133
-33.0207 165.801 518.732
-32.9952 166.602 518.331
-32.9189 167.144 517.132
-32.8429 167.684 515.939
-32.667 167.706 513.176
-32.5922 168.24 512
-32.5673 169.029 511.61
-32.5177 169.688 510.831
-32.4683 170.344 510.054
-32.3208 171.391 507.737
-32.2232 171.782 506.204
-31.6969 173.44 497.936
-31.6734 174.204 497.567
-31.5331 176.097 495.362
-31.4634 176.594 494.267
-31.3939 177.088 493.177
-31.1421 176.545 489.22
-31.1421 177.422 489.22
-31.1421 178.299 489.22
-31.0967 178.916 488.507
-31.0741 179.661 488.152
-30.9166 179.621 485.677
-30.7828 179.711 483.576
-30.7606 180.448 483.228
-30.7606 181.314 483.228
-30.7385 182.05 482.88
-30.7606 183.047 483.228
-30.2807 183.603 475.688
-30.0674 185.698 472.338
-29.983 186.021 471.012
-29.983 186.866 471.012
-41.6597 -97.5079 673.414
-41.7435 -96.4941 674.769
-41.7435 -95.2841 674.769
-41.7435 -94.0742 674.769
-41.7435 -92.8642 674.769
-38.5265 -84.5909 622.767
-38.5623 -83.5517 623.346
-38.5982 -82.5107 623.926
-38.6341 -81.4676 624.507
-38.5982 -80.2731 623.926
-38.5982 -79.1543 623.926
-38.6702 -78.181 625.089
-38.7424 -77.204 626.256
-38.6702 -75.9392 625.089
-38.7062 -74.8881 625.672
-38.8512 -74.0425 628.015
-38.7786 -72.7801 626.842
-38.7062 -71.5224 625.672
-38.6341 -70.2693 624.507
-38.6341 -69.1495 624.507
-38.5982 -67.9664 623.926
-38.8512 -67.2858 628.015
-38.9241 -66.2838 629.194
-39.0339 -65.3394 630.969
-39.1075 -64.329 632.159
-39.1444 -63.2551 632.755
-39.2184 -62.2379 633.951
-39.3299 -61.2749 635.754
-39.3299 -60.1349 635.754
-39.3299 -58.9949 635.754
-39.1814 -57.6364 633.353
-39.1075 -56.3942 632.159
-39.0339 -55.1566 630.969
-38.9241 -53.8732 629.194
-38.5265 -52.2062 622.767
-38.4195 -50.9476 621.037
-38.2777 -49.6501 618.746
-38.067 -48.2734 615.34
-38.0321 -47.1268 614.776
-37.9973 -45.9823 614.213
-37.9626 -44.8398 613.651
-37.8932 -43.6596 612.53
-37.9973 -42.6781 614.213
-38.4195 -39.8115 621.037
-38.4908 -38.7697 622.19
-38.5623 -37.724 623.346
-38.5623 -36.6063 623.346
-38.5623 -35.4885 623.346
-38.5265 -34.3389 622.767
-38.137 -31.7808 616.471
-38.137 -30.6754 616.471
-37.9973 -29.4617 614.213
-37.9626 -28.3344 613.651
-37.8586 -27.1595 611.971
-37.8586 -26.0621 611.971
-39.4421 -24.8657 637.567
-39.5926 -23.813 640
-39.7063 -22.7304 641.838
-39.7063 -21.5795 641.838
-39.6304 -20.3896 640.612
-39.5926 -19.2225 640
-39.5926 -18.0749 640
-39.5926 -16.9273 640
-39.5926 -15.7797 640
-39.5926 -14.6321 640
-39.5549 -13.4716 639.39
-39.7443 -12.3841 642.452
-39.7824 -11.2429 643.068
-39.7443 -10.0801 642.452
-39.7443 -8.92807 642.452
-39.7824 -7.78352 643.068
-39.7824 -6.6304 643.068
-39.7824 -5.47729 643.068
-39.7824 -4.32418 643.068
-39.8206 -3.17411 643.686
-39.8589 -2.02183 644.304
-39.9356 -0.868165 645.544
-39.9741 0.289667 646.166
-40.1287 1.45394 648.666
-40.5206 2.64265 655
-40.6396 3.82837 656.925
-40.7194 5.01616 658.214
-40.7995 6.20862 659.509
-40.7594 7.38395 658.861
-40.7194 8.55698 658.214
-40.7194 9.73725 658.214
-40.7594 10.9282 658.861
-40.7594 12.1097 658.861
-40.7995 13.3042 659.509
-40.7995 14.4868 659.509
-40.8799 15.7002 660.808
-40.7995 16.852 659.509
-40.8396 18.0523 660.158
-40.7995 19.2171 659.509
-40.8799 20.4399 660.808
-40.9606 21.6676 662.113
-40.9606 22.8548 662.113
-40.8396 23.9711 660.158
-40.7995 25.1301 659.509
-40.7594 26.2869 658.861
-40.7594 27.4683 658.861
-40.7194 28.6216 658.214
-40.8799 29.9193 660.808
-40.9606 31.1657 662.113
-41.0011 32.3849 662.767
-41.123 33.6731 664.738
-41.2866 35.0039 667.384
-41.2866 36.2006 667.384
-41.2866 37.3973 667.384
-41.2866 38.594 667.384
-41.2866 39.7907 667.384
-41.2046 40.9061 666.058
-41.0416 41.9338 663.423
-41.1638 43.2518 665.397
-41.2866 44.5776 667.384
-41.2866 45.7743 667.384
-41.2456 46.9243 666.72
-41.2866 48.1677 667.384
-41.2866 49.3645 667.384
-41.2046 50.4608 666.058
-41.2456 51.7064 666.72
-41.2866 52.9546 667.384
-41.2866 54.1513 667.384
-41.2866 55.348 667.384
-41.369 56.6575 668.714
-41.5762 58.1465 672.065
-41.7016 59.5305 674.091
-41.9546 61.1077 678.18
-41.997 62.3869 678.867
-42.0396 63.6687 679.555
-42.2536 65.2176 683.015
-42.1678 66.3073 681.626
-42.0822 67.3925 680.244
-42.1678 68.7518 681.626
-42.0396 69.7613 679.555
-41.997 70.908 678.867
-41.9122 71.9796 677.495
-41.997 73.3426 678.867
-41.997 74.56 678.867
-42.0396 75.854 679.555
-42.0822 77.1507 680.244
-42.0822 78.3705 680.244
-42.2536 79.9145 683.015
-42.1678 80.9743 681.626
-36.7195 136.501 593.558
-36.6871 137.444 593.033
-35.647 137.68 576.22
-35.6164 138.594 575.726
-35.6164 139.626 575.726
-35.6776 140.901 576.716
-35.6776 141.935 576.716
-35.647 142.846 576.22
-35.5858 143.633 575.232
-35.4642 144.17 573.265
-35.3735 144.826 571.799
-35.2832 145.479 570.34
-35.1934 146.129 568.889
-35.2233 147.274 569.372
-35.1934 148.17 568.889
-35.1934 149.19 568.889
-35.1934 150.21 568.889
-35.1934 151.23 568.889
-34.8975 150.969 564.105
-34.6353 150.839 559.867
-34.4913 151.212 557.54
-34.4341 151.959 556.615
-34.2918 152.325 554.314
-34.2352 153.066 553.4
-34.2635 154.186 553.857
-34.2635 155.179 553.857
-33.8443 154.261 547.08
-33.8167 155.116 546.634
-33.7617 155.842 545.745
-33.3278 155.771 538.731
-33.301 156.611 538.299
-33.221 157.198 537.006
-33.115 157.656 535.292
-33.115 158.616 535.292
-33.0886 159.449 534.865
-33.0886 160.408 534.865
-33.0359 161.11 534.013
-32.9572 161.681 532.741
-32.5436 162.482 526.055
-32.1652 164.322 519.938
-32.0905 164.871 518.732
-32.0905 165.801 518.732
-32.0905 166.731 518.732
-32.0657 167.532 518.331
-31.9423 167.813 516.336
-31.9177 168.609 515.939
-31.6983 168.368 512.391
-31.6741 169.158 512
-31.6258 169.817 511.22
-31.5777 170.474 510.442
-31.5057 171.912 509.279
-31.4104 172.302 507.737
-30.8041 172.547 497.936
-30.7812 173.312 497.567
-30.7812 174.204 497.567
-30.7812 175.096 497.567
-30.5996 175.837 494.632
-30.5771 176.594 494.267
-30.4872 176.958 492.814
-30.3756 177.191 491.011
-30.3534 177.941 490.651
-30.309 178.56 489.935
-30.2428 179.046 488.863
-30.1987 179.661 488.152
-30.0674 179.751 486.029
-29.9373 179.841 483.925
-29.8941 180.448 483.228
-29.8941 181.314 483.228
-29.9157 182.312 483.576
-29.4069 183.473 475.351
-29.0568 184.658 469.692
-29.0364 186.212 469.363
-40.4522 -97.5079 673.414
-40.6153 -96.6886 676.129
-40.7797 -95.8628 678.867
-40.6973 -94.4543 677.495
-40.7797 -93.4282 678.867
-37.4446 -83.5517 623.346
-37.5843 -82.7416 625.672
-37.6194 -81.6958 626.256
-37.5493 -80.4227 625.089
-37.5493 -79.3018 625.089
-37.6898 -78.4735 627.428
-37.6898 -77.3484 627.428
-37.6546 -76.1521 626.842
-37.6898 -75.0983 627.428
-37.7604 -74.1119 628.604
-37.6898 -72.8481 627.428
-37.6898 -71.7231 627.428
-37.6546 -70.532 626.842
-37.6546 -69.408 626.842
-37.6546 -68.284 626.842
-37.7251 -67.2858 628.015
-37.8669 -66.4084 630.376
-37.8313 -65.2167 629.784
-37.9025 -64.208 630.969
-38.0098 -63.2551 632.755
-38.0457 -62.1791 633.353
-38.1177 -61.1589 634.551
-38.1177 -60.0211 634.551
-38.2262 -59.0509 636.357
-38.1899 -57.8549 635.754
-38.0098 -56.4474 632.755
-37.8669 -55.1048 630.376
-37.7604 -53.8227 628.604
-37.3751 -52.1578 622.19
-37.2369 -50.8534 619.889
-37.134 -49.6044 618.175
-36.9636 -48.2734 615.34
-36.9298 -47.1268 614.776
-36.9298 -46.0244 614.776
-36.8622 -44.8398 613.651
-36.7949 -43.6596 612.53
-36.8622 -42.6391 613.651
-36.8959 -41.5768 614.213
-36.8285 -40.4014 613.09
-37.134 -39.6281 618.175
-37.1682 -38.5551 618.746
-37.4446 -37.724 623.346
-37.1682 -36.3361 618.746
-37.2026 -35.2591 619.317
-37.134 -34.0857 618.175
-37.0998 -32.9468 617.606
-36.9976 -31.7517 615.905
-36.9636 -30.6191 615.34
-36.9298 -29.4887 614.776
-36.9298 -28.3863 614.776
-36.8622 -27.234 613.651
-36.8622 -26.1336 613.651
-38.2988 -24.8657 637.567
-38.5185 -23.8585 641.224
-38.5923 -22.7522 642.452
-38.6293 -21.6209 643.068
-38.5923 -20.4482 642.452
-38.5554 -19.2777 641.838
-38.5554 -18.1268 641.838
-38.5554 -16.9759 641.838
-38.5923 -15.8401 642.452
-38.5923 -14.6881 642.452
-38.5923 -13.5361 642.452
-38.6664 -12.4079 643.686
-38.8903 -11.3188 647.414
-38.7035 -10.1091 644.304
-38.7035 -8.9538 644.304
-38.778 -7.81348 645.544
-38.778 -6.65593 645.544
-38.7035 -5.48781 644.304
-38.7035 -4.33248 644.304
-38.778 -3.18327 645.544
-38.778 -2.02572 645.544
-38.8154 -0.869001 646.166
-38.8528 0.289946 646.789
-39.7341 2.66871 661.46
-39.6559 3.84721 660.158
-39.6559 5.03097 660.158
-39.6949 6.22085 660.808
-39.6169 7.39121 659.509
-39.578 8.56538 658.861
-39.5391 9.73725 658.214
-39.578 10.9282 658.861
-39.6169 12.1216 659.509
-39.578 13.2911 658.861
-39.578 14.4725 658.861
-39.6169 15.6694 659.509
-39.578 16.8354 658.861
-39.5391 17.9992 658.214
-39.5004 19.1606 657.569
-39.578 20.3797 658.861
-39.7733 21.6676 662.113
-39.8126 22.8774 662.767
-39.6559 23.9711 660.158
-39.578 25.1054 658.861
-39.5391 26.2611 658.214
-39.5004 27.4144 657.569
-39.5004 28.5935 657.569
-39.5391 29.8019 658.214
-39.6559 31.0736 660.158
-39.7733 32.3529 662.113
-39.931 33.6731 664.738
-40.0501 34.9691 666.72
-40.0899 36.2006 667.384
-40.0899 37.3973 667.384
-40.0899 38.594 667.384
-40.0899 39.7907 667.384
-40.0501 40.9467 666.72
-39.8915 41.9753 664.08
-39.931 43.2089 664.738
-40.0501 44.5333 666.72
-40.0501 45.7288 666.72
-40.0103 46.8777 666.058
-40.0501 48.1199 666.72
-40.0501 49.3154 666.72
-40.0103 50.4608 666.058
-40.0501 51.7064 666.72
-40.0899 52.9546 667.384
-40.1299 54.2053 668.048
-40.1299 55.4032 668.048
-40.1699 56.6575 668.714
-40.3307 58.0882 671.392
-40.4928 59.5305 674.091
-40.7385 61.1077 678.18
-40.7385 62.3238 678.18
-40.7797 63.6042 678.867
-40.9455 65.085 681.626
-40.821 66.1057 679.555
-40.821 67.3243 679.555
-40.821 68.5428 679.555
-40.7797 69.6907 678.867
-40.7385 70.8363 678.18
-40.6973 71.9796 677.495
-40.7385 73.2685 678.18
-40.7797 74.56 678.867
-40.821 75.854 679.555
-40.821 77.0726 679.555
-40.8624 78.3705 680.244
-40.9455 79.752 681.626
-40.9455 80.9743 681.626
-35.6237 136.38 593.033
-35.6237 137.444 593.033
-34.6137 138.713 576.22
-34.584 139.626 575.726
-34.6435 140.901 576.716
-34.6733 142.057 577.212
-34.6435 142.969 576.716
-34.584 143.756 575.726
-34.584 144.788 575.726
-34.3774 144.95 572.287
-34.2897 145.603 570.826
-34.2024 146.253 569.372
-34.2024 147.274 569.372
-34.2024 148.295 569.372
-34.1733 149.19 568.889
-33.7158 149.205 561.272
-33.6876 150.086 560.803
-33.5753 150.588 558.934
-33.436 150.961 556.615
-33.4083 151.833 556.153
-33.2978 152.325 554.314
-33.2155 152.94 552.943
-33.2429 154.058 553.4
-32.9978 153.908 549.321
-32.8365 154.135 546.634
-32.8365 155.116 546.634
-32.8097 155.969 546.189
-32.4138 156.022 539.598
-32.3617 156.737 538.731
-32.3358 157.577 538.299
-32.1551 157.656 535.292
-32.1295 158.489 534.865
-32.1295 159.449 534.865
-32.1295 160.408 534.865
-32.0528 160.982 533.588
-32.0019 161.681 532.741
-31.9511 162.378 531.896
-31.6003 161.539 526.055
-31.6003 162.482 526.055
-31.4277 164.409 523.183
-31.3788 165.09 522.368
-31.2571 165.383 520.342
-31.2087 166.058 519.536
-31.1845 166.86 519.133
-31.1845 167.791 519.133
-30.9926 167.684 515.939
-30.803 167.578 512.783
-30.7795 168.368 512.391
-30.7795 169.287 512.391
-30.756 170.076 512
-30.6391 172.173 510.054
-30.6158 172.956 509.666
-30.2253 171.653 503.166
-30.1349 172.039 501.661
-29.9112 172.547 497.936
-29.9112 173.44 497.936
-29.889 174.204 497.567
-29.8447 174.837 496.83
-29.7127 174.95 494.632
-29.7346 175.967 494.997
-29.7127 176.724 494.632
-29.6689 177.349 493.903
-29.5168 177.321 491.37
-29.4951 178.071 491.011
-29.4736 178.821 490.651
-29.3876 179.177 489.22
-29.3448 179.791 488.507
-29.1959 179.751 486.029
-29.1326 180.231 484.975
-29.0276 180.448 483.228
-29.0276 181.314 483.228
-28.6153 183.864 476.364
-28.595 184.587 476.026
-28.2145 184.658 469.692
-28.2343 185.63 470.021
-28.2145 186.342 469.692
-39.0877 -97.1178 670.72
-39.4029 -96.6886 676.129
-36.5989 -83.0515 628.015
-36.5305 -81.7722 626.842
-36.4964 -80.5729 626.256
-36.4964 -79.4499 626.256
-36.5989 -78.547 628.015
-36.5647 -77.3484 627.428
-36.5647 -76.2234 627.428
-36.5989 -75.1686 628.015
-36.6332 -74.1119 628.604
-36.5989 -72.9164 628.015
-36.5647 -71.7231 627.428
-36.4964 -70.4662 626.256
-36.4624 -69.2785 625.672
-36.3606 -67.9664 623.926
-36.3268 -66.7855 623.346
-36.5989 -66.1596 628.015
-36.6332 -65.0945 628.604
-36.7365 -64.1476 630.376
-36.8752 -63.2551 632.755
-36.8752 -62.1205 632.755
-36.91 -61.0434 633.353
-36.9449 -59.9644 633.951
-37.0499 -58.9949 635.754
-37.0148 -57.8001 635.152
-36.6676 -56.1297 629.194
-36.5989 -54.8984 628.015
-36.5989 -53.7723 628.015
-36.0587 -51.8691 618.746
-36.0587 -50.7596 618.746
-36.0255 -49.6044 618.175
-35.8932 -48.3177 615.905
-35.8932 -47.2133 615.905
-35.9262 -46.1513 616.471
-35.8274 -44.922 614.776
-35.7618 -43.7395 613.651
-35.7618 -42.6391 613.651
-35.7946 -41.5768 614.213
-35.7291 -40.4014 613.09
-35.9923 -39.5916 617.606
-35.9262 -38.4134 616.471
-35.9923 -37.3767 617.606
-35.8603 -36.1361 615.34
-35.9262 -35.0971 616.471
-35.8603 -33.9293 615.34
-35.8603 -32.8259 615.34
-35.8274 -31.6935 614.776
-35.8274 -30.5911 614.776
-35.8274 -29.4887 614.776
-35.7946 -28.3603 614.213
-35.7946 -27.2589 614.213
-35.7618 -26.1336 613.651
-37.2974 -24.9606 640
-37.4045 -23.8813 641.838
-37.4762 -22.774 643.068
-37.5843 -21.6833 644.923
-37.4403 -20.4482 642.452
-37.4045 -19.2777 641.838
-37.4045 -18.1268 641.838
-37.4045 -16.9759 641.838
-37.4403 -15.8401 642.452
-37.4403 -14.6881 642.452
-37.4403 -13.5361 642.452
-37.5122 -12.4079 643.686
-37.5843 -10.1188 644.923
-37.6205 -8.97104 645.544
-37.6567 -7.82101 646.166
-37.693 -6.66877 646.789
-37.6567 -5.50367 646.166
-37.6205 -4.34082 645.544
-37.6205 -3.18327 645.544
-37.6567 -2.02767 646.166
-37.693 -0.869839 646.789
-37.693 0.289946 646.789
-38.7775 1.49144 665.397
-38.7007 2.67928 664.08
-38.6624 3.86624 663.423
-38.5861 5.04587 662.113
-38.5861 6.23313 662.113
-38.548 7.41308 661.46
-38.3965 8.56538 658.861
-38.3965 9.74681 658.861
-38.3965 10.9282 658.861
-38.4343 12.1216 659.509
-38.3965 13.2911 658.861
-38.3965 14.4725 658.861
-38.3589 15.6386 658.214
-38.2837 16.7859 656.925
-38.1716 17.9113 655
-38.2463 19.1231 656.282
-38.3589 20.3597 658.214
-38.4343 21.5823 659.509
-38.51 22.8098 660.808
-38.3589 23.9005 658.214
-38.3965 25.1054 658.861
-38.3589 26.2611 658.214
-38.3589 27.4413 658.214
-38.3589 28.6216 658.214
-38.3965 29.8312 658.861
-38.51 31.1042 660.808
-38.548 32.321 661.46
-38.6624 33.6065 663.423
-38.739 34.8651 664.738
-38.816 36.1287 666.058
-38.8545 37.3601 666.72
-38.8932 38.594 667.384
-38.8932 39.7907 667.384
-38.9319 41.0283 668.048
-38.7007 41.9753 664.08
-38.739 43.2089 664.738
-38.816 44.4891 666.058
-38.816 45.6834 666.058
-38.7775 46.8312 665.397
-38.739 47.9768 664.738
-38.7775 49.2175 665.397
-38.739 50.3607 664.738
-38.7775 51.6038 665.397
-38.8545 52.902 666.72
-38.8932 54.1513 667.384
-38.8932 55.348 667.384
-38.9319 56.6011 668.048
-39.0486 57.9722 670.05
-39.2841 59.5305 674.091
-39.5224 61.1077 678.18
-39.5224 62.3238 678.18
-39.5624 63.6042 678.867
-39.6427 64.953 680.244
-39.6025 66.1057 679.555
-39.6025 67.3243 679.555
-39.6025 68.5428 679.555
-39.6025 69.7613 679.555
-39.5624 70.908 678.867
-39.5224 72.0524 678.18
-39.5624 73.3426 678.867
-39.6025 74.6355 679.555
-39.6025 75.854 679.555
-39.6025 77.0726 679.555
-39.6427 78.3705 680.244
-39.7232 79.752 681.626
-39.7232 80.9743 681.626
-33.6383 136.882 577.212
-33.5517 137.562 575.726
-33.5517 138.594 575.726
-33.5229 139.507 575.232
-33.5805 140.78 576.22
-33.6093 141.935 576.716
-33.6093 142.969 576.716
-33.4942 143.51 574.739
-33.4655 144.416 574.247
-33.3513 144.95 572.287
-33.3228 145.851 571.799
-33.2378 146.502 570.34
-33.1532 147.149 568.889
-32.7094 149.205 561.272
-32.4379 149.963 556.615
-32.3842 150.711 555.692
-32.3039 151.331 554.314
-32.2506 152.074 553.4
-32.1181 152.437 551.126
-32.1445 153.552 551.579
-32.0917 154.287 550.674
-32.0128 154.893 549.321
-31.9605 155.623 548.422
-31.9344 156.478 547.974
-31.4462 156.022 539.598
-31.2451 156.947 536.147
-31.1704 157.53 534.865
-31.1953 158.616 535.292
-31.1704 159.449 534.865
-31.1704 160.408 534.865
-31.1456 161.238 534.439
-31.0713 161.81 533.164
-31.0466 162.636 532.741
-30.4658 160.532 522.775
-30.4421 161.343 522.368
-30.4184 162.154 521.961
-30.4184 164.961 521.961
-30.3005 165.254 519.938
-30.2771 166.058 519.536
-30.2771 166.99 519.536
-30.2536 167.791 519.133
-30.0906 167.813 516.336
-29.9752 168.092 514.356
-29.8607 168.368 512.391
-29.8379 169.158 512
-29.7924 169.817 511.22
-29.7245 170.344 510.054
-29.3892 169.327 504.301
-29.3671 170.104 503.922
-29.3231 170.751 503.166
-29.2792 171.396 502.412
-29.2135 171.91 501.286
-29.1917 172.68 500.911
-29.1482 173.319 500.164
-29.0399 173.569 498.306
-28.9968 174.204 497.567
-28.847 174.191 494.997
-28.8045 174.821 494.267
-28.8257 175.837 494.632
-28.8045 176.594 494.267
-28.8045 177.48 494.267
-28.6777 177.581 492.091
-28.6567 178.333 491.731
-28.6567 179.214 491.731
-28.5938 179.701 490.651
-28.4688 179.791 488.507
-28.4481 180.536 488.152
-28.3039 180.492 485.677
-28.1611 180.448 483.228
-28.1409 181.184 482.88
-28.1409 182.05 482.88
-27.8402 184.388 477.721
-27.7611 184.718 476.364
-27.7021 185.178 475.351
-27.3723 185.5 469.692
-27.334 186.082 469.035
-37.9609 -98.5176 672.065
-38.0371 -97.5079 673.414
-37.885 -95.9151 670.72
-35.5061 -82.0021 628.604
-35.4728 -80.7992 628.015
-35.4728 -79.6731 628.015
-35.5061 -78.6206 628.604
-35.5061 -77.4934 628.604
-35.5061 -76.3662 628.604
-35.5061 -75.2391 628.604
-35.5727 -74.251 629.784
-35.5061 -72.9847 628.604
-35.4728 -71.7902 628.015
-35.4396 -70.598 627.428
-35.3405 -69.2785 625.672
-35.2418 -67.9664 623.926
-35.2418 -66.8476 623.926
-35.4065 -66.036 626.842
-35.4728 -65.0335 628.015
-35.5061 -63.9673 628.604
-35.6062 -63.0173 630.376
-35.6732 -62.0035 631.564
-35.7069 -60.9284 632.159
-35.7405 -59.8512 632.755
-35.7743 -58.772 633.353
-35.8081 -57.6908 633.951
