ply
format ascii 1.0
element vertex 1910
property float x
property float y
property float z
end_header
-67.7309 -11.0775 706.021
-67.8022 -9.82182 706.765
-67.8738 -8.56351 707.511
-67.8022 -7.28716 706.765
-67.7309 -6.01349 706.021
-67.7309 -4.74749 706.021
-67.8022 -3.48516 706.765
-67.8738 -2.22017 707.511
-67.9454 -0.952506 708.258
-68.0173 0.317838 709.007
-68.3787 1.59763 712.774
-68.4514 2.8788 713.532
-68.3787 4.15384 712.774
-68.4514 5.43773 713.532
-68.5243 6.72435 714.292
-68.6706 8.02226 715.817
-68.7439 9.31577 716.582
-68.8911 10.6234 718.116
-68.965 11.9239 718.886
-69.1131 13.2413 720.43
-69.039 14.5175 719.657
-69.039 15.808 719.657
-69.1131 17.1168 720.43
-69.1874 18.4284 721.205
-69.1874 19.7217 721.205
-69.5614 21.1285 725.103
-69.9395 22.5506 729.044
-69.9395 23.8579 729.044
-70.0919 25.22 730.632
-70.0919 26.5301 730.632
-69.8635 27.7495 728.252
-69.8635 29.0554 728.252
-69.8635 30.3613 728.252
-69.9395 31.7015 729.044
-69.8635 32.973 728.252
-69.9395 34.3161 729.044
-70.0919 35.701 730.632
-70.1683 37.0515 731.429
-70.2449 38.4049 732.228
-70.2449 39.7179 732.228
-70.2449 41.0309 732.228
-70.7081 42.6231 737.055
-71.0202 44.1387 740.31
-71.4937 45.7693 745.245
-71.5732 47.1581 746.074
-71.6529 48.5499 746.905
-71.8129 50.0005 748.572
-71.8129 51.3428 748.572
-71.8931 52.744 749.408
-71.8129 54.0274 748.572
-71.8129 55.3697 748.572
-71.8129 56.712 748.572
-72.1349 58.3147 751.929
-63.5814 83.4877 662.767
-63.7072 84.8438 664.08
-63.7072 86.0346 664.08
-63.7072 87.2253 664.08
-63.5814 88.2414 662.767
-56.5416 137.655 589.385
-56.4424 138.468 588.351
-56.4424 139.523 588.351
-56.2942 140.21 586.807
-56.1469 140.892 585.271
-55.9516 141.448 583.235
-55.6612 141.754 580.208
-55.3262 141.935 576.716
-55.2786 142.846 576.22
-55.1838 143.633 575.232
-55.0422 144.293 573.756
-54.9013 144.95 572.287
-54.9013 145.976 572.287
-54.8078 146.752 571.312
-54.5291 147.025 568.407
-54.5291 148.044 568.407
-54.3908 148.685 566.966
-54.1619 149.072 564.579
-54.1163 149.958 564.105
-53.8446 150.211 561.272
-53.7996 151.091 560.803
-53.7098 151.843 559.867
-53.1771 151.331 554.314
-53.0019 151.823 552.488
-52.7845 152.187 550.222
-52.7413 153.048 549.771
-52.6549 153.782 548.871
-52.4404 154.135 546.634
-52.3977 154.989 546.189
-52.1007 155.085 543.093
-51.9744 155.68 541.777
-51.807 156.147 540.033
-51.7237 156.863 539.164
-51.6407 157.577 538.299
-51.5167 158.161 537.006
-51.3932 158.743 535.719
-51.2296 159.195 534.013
-51.1075 159.771 532.741
-51.0264 160.471 531.896
-50.8651 160.914 530.214
-50.7848 161.61 529.377
-50.7447 162.431 528.959
-50.6648 163.122 528.126
-50.4266 163.297 525.643
-50.3871 164.111 525.231
-50.269 164.666 524
-50.1515 165.219 522.775
-50.1124 166.027 522.368
-49.8407 166.058 519.536
-49.6484 166.345 517.531
-49.4956 166.759 515.939
-49.4956 167.684 515.939
-49.2305 167.706 513.176
-49.1178 168.24 512
-48.931 168.515 510.054
-48.8939 169.301 509.666
-48.8567 170.085 509.279
-48.7827 170.739 508.507
-48.6352 171.132 506.969
-48.7457 172.432 508.122
-48.5251 172.559 505.822
-48.0899 172.809 501.286
-47.7686 172.547 497.936
-47.7332 173.312 497.567
-47.6978 174.075 497.198
-47.6625 174.837 496.83
-47.5568 175.338 495.728
-47.5568 176.227 495.728
-47.5217 176.985 495.362
-47.4866 177.742 494.997
-47.1042 177.191 491.011
-46.8982 177.293 488.863
-46.864 178.04 488.507
-46.7619 178.525 487.442
-46.6601 179.009 486.382
-46.6263 179.751 486.029
-46.458 179.97 484.275
-46.3576 180.448 483.228
-46.2909 181.054 482.533
-46.125 181.267 480.803
-46.0589 181.868 480.115
-45.7967 181.689 477.381
-45.5374 182.362 474.678
-45.4409 182.825 473.673
-45.3768 183.416 473.005
-45.3768 184.264 473.005
-44.8705 184.724 467.727
-44.8705 185.563 467.727
-72.0795 -158.918 765.663
-72.1619 -149.478 766.538
-72.2444 -148.273 767.415
-72.0795 -146.562 765.663
-72.1619 -145.355 766.538
-72.3272 -144.31 768.294
-72.5766 -143.425 770.943
-72.6601 -142.206 771.83
-72.6601 -140.822 771.83
-72.7438 -139.599 772.719
-72.7438 -138.213 772.719
-72.6601 -136.67 771.83
-72.6601 -135.286 771.83
-72.6601 -133.902 771.83
-72.6601 -132.518 771.83
-72.7438 -131.285 772.719
-72.7438 -129.9 772.719
-66.3252 -112.121 704.538
-66.3252 -110.858 704.538
-66.0477 -109.136 701.59
-65.364 -106.761 694.328
-65.0945 -105.081 691.464
-64.8938 -103.521 689.332
-61.8429 -82.1628 656.925
-61.8429 -80.9848 656.925
-61.9036 -79.8851 657.569
-61.8429 -78.6289 656.925
-61.8429 -77.4509 656.925
-61.8429 -76.2729 656.925
-61.8429 -75.095 656.925
-61.9036 -73.9895 657.569
-62.0252 -72.9534 658.861
-63.3316 -69.6648 672.739
-63.3316 -68.4585 672.739
-63.3952 -67.3197 673.414
-63.1416 -65.8477 670.72
-62.8901 -64.3875 668.048
-62.8901 -63.1895 668.048
-63.2682 -62.3643 672.065
-63.1416 -61.0369 670.72
-63.2048 -59.8941 671.392
-63.2682 -58.749 672.065
-63.3316 -57.6016 672.739
-63.3316 -56.3953 672.739
-63.3316 -55.189 672.739
-63.4589 -54.0912 674.091
-63.5867 -52.9889 675.449
-63.5228 -51.7257 674.769
-63.5867 -50.5666 675.449
-63.8439 -49.555 678.18
-63.7151 -48.2414 676.812
-63.6508 -46.9804 676.129
-63.4589 -45.63 674.091
-63.3952 -44.3766 673.414
-63.3952 -43.1691 673.414
-63.4589 -42.0038 674.091
-63.3952 -40.7541 673.414
-63.3952 -39.5465 673.414
-63.3952 -38.339 673.414
-63.9085 -37.4321 678.867
-56.987 -31.2072 605.343
-57.2973 -30.2857 608.639
-57.2973 -29.1943 608.639
-57.3493 -28.1285 609.192
-57.2973 -27.0116 608.639
-57.2973 -25.9202 608.639
-57.2973 -24.8288 608.639
-57.4015 -23.7806 609.746
-57.0385 -22.5438 605.89
-57.0901 -21.4767 606.438
-57.1935 -20.4263 607.537
-57.0901 -19.3019 606.438
-57.1417 -18.2309 606.987
-57.1417 -17.1425 606.987
-57.1935 -16.0687 607.537
-66.3252 -14.8442 704.538
-66.1862 -13.5524 703.061
-66.3252 -12.3175 704.538
-66.4649 -11.0775 706.021
-66.6051 -9.83218 707.511
-66.6754 -8.57255 708.258
-66.5349 -7.28716 706.765
-66.5349 -6.01982 706.765
-66.4649 -4.74749 706.021
-66.5349 -3.48516 706.765
-66.6051 -2.22017 707.511
-66.7459 -0.953513 709.007
-66.8873 0.318511 710.509
-67.0293 1.59594 712.017
-67.1006 2.87574 712.774
-67.1006 4.15384 712.774
-67.2435 5.44352 714.292
-67.3152 6.73152 715.054
-67.6035 8.04803 718.116
-67.6759 9.34572 718.886
-67.6759 10.6348 718.886
-67.7485 11.9366 719.657
-67.8942 13.2555 721.205
-67.8942 14.5488 721.205
-67.7485 15.808 719.657
-67.6759 17.0801 718.886
-67.8213 18.4086 720.43
-67.8213 19.7005 720.43
-68.2612 21.1285 725.103
-68.6322 22.5506 729.044
-68.6322 23.8579 729.044
-68.6322 25.1651 729.044
-68.7817 26.5301 730.632
-68.6322 27.7797 729.044
-68.5577 29.0554 728.252
-68.5577 30.3613 728.252
-68.5577 31.6671 728.252
-68.4833 32.9372 727.462
-68.4833 34.2417 727.462
-68.7817 35.701 730.632
-68.7817 37.0111 730.632
-68.8567 38.363 731.429
-68.9319 39.7179 732.228
-69.2342 41.2109 735.439
-69.6159 42.7641 739.493
-70.0018 44.3345 743.593
-70.1574 45.7693 745.245
-70.2354 47.1581 746.074
-70.3136 48.5499 746.905
-70.6282 50.1124 750.247
-70.6282 51.4577 750.247
-70.6282 52.803 750.247
-70.6282 54.1483 750.247
-70.7073 55.5557 751.087
-70.6282 56.8389 750.247
-70.7866 58.3147 751.929
-62.6405 82.6258 665.397
-62.5165 83.653 664.08
-62.5165 84.8438 664.08
-62.5165 86.0346 664.08
-62.3929 87.053 662.767
-62.6405 88.5916 665.397
-55.5824 136.839 590.423
-55.6314 138.019 590.943
-55.5824 138.956 590.423
-55.4847 139.769 589.385
-55.4847 140.826 589.385
-55.3874 141.633 588.351
-54.6681 140.835 580.71
-54.4794 141.387 578.706
-54.292 141.935 576.716
-54.2454 142.846 576.22
-54.1988 143.756 575.726
-54.1523 144.664 575.232
-53.9211 145.073 572.776
-53.9211 146.101 572.776
-53.9211 147.128 572.776
-53.5099 147.025 568.407
-53.5552 148.17 568.889
-53.5099 149.063 568.407
-53.3291 149.575 566.487
-53.1495 150.084 564.579
-52.8382 150.211 561.272
-52.618 150.588 558.934
-52.4432 151.086 557.077
-52.1832 151.331 554.314
-52.0971 152.074 553.4
-51.9684 152.688 552.033
-51.7979 153.174 550.222
-51.713 153.908 549.321
-51.4183 154.01 546.189
-51.3764 154.863 545.745
-51.1268 155.085 543.093
-51.0442 155.806 542.215
-50.8796 156.273 540.468
-50.7978 156.989 539.598
-50.7162 157.703 538.731
-50.6348 158.415 537.867
-50.4729 158.87 536.147
-50.3924 159.576 535.292
-50.272 160.152 534.013
-50.1522 160.726 532.741
-50.033 161.297 531.474
-49.8749 161.737 529.795
-49.8355 162.559 529.377
-49.8355 163.508 529.377
-49.757 164.198 528.542
-49.6396 164.756 527.296
-49.4453 165.053 525.231
-49.4066 165.865 524.82
-49.1375 165.897 521.961
-48.947 166.187 519.938
-48.7957 166.602 518.331
-48.6079 166.887 516.336
-48.5705 167.684 515.939
-48.3473 167.834 513.568
-48.2365 168.368 512.391
-48.053 168.643 510.442
-47.98 169.301 509.666
-47.9435 170.085 509.279
-47.8708 170.739 508.507
-47.7622 171.262 507.353
-47.7984 172.302 507.737
-47.6541 172.689 506.204
-47.0855 172.423 500.164
-46.841 172.419 497.567
-46.841 173.312 497.567
-46.8062 174.075 497.198
-46.8062 174.966 497.198
-46.7716 175.727 496.83
-46.737 176.488 496.462
-46.5646 176.724 494.632
-46.496 177.349 493.903
-46.2915 177.451 491.731
-46.2576 178.202 491.37
-45.9881 178.04 488.507
-45.8212 178.266 486.735
-45.7548 178.88 486.029
-45.7217 179.621 485.677
-45.5896 179.97 484.275
-45.4911 180.448 483.228
-45.4583 181.184 482.88
-45.2628 181.267 480.803
-44.9087 181.559 477.042
-44.8131 182.026 476.026
-44.7179 182.491 475.014
-44.4659 182.31 472.338
-44.4659 183.157 472.338
-44.4346 183.875 472.006
-44.1859 183.687 469.363
-44.155 184.4 469.035
-70.7065 -165.783 765.663
-70.7873 -164.598 766.538
-70.7873 -163.223 766.538
-70.7873 -161.849 766.538
-70.7873 -160.474 766.538
-70.7065 -158.918 765.663
-70.7065 -157.545 765.663
-70.3851 -155.462 762.182
-70.7065 -154.799 765.663
-70.7873 -153.602 766.538
-70.6259 -150.509 764.79
-70.7065 -149.307 765.663
-70.8683 -148.273 767.415
-70.7065 -146.562 765.663
-70.3851 -144.529 762.182
-70.7873 -143.98 766.538
-71.0309 -143.096 769.175
-70.8683 -141.393 767.415
-71.0309 -140.338 769.175
-71.3582 -139.599 772.719
-71.3582 -138.213 772.719
-71.1942 -136.513 770.943
-71.2761 -135.286 771.83
-71.1942 -133.748 770.943
-71.1124 -132.214 770.058
-71.1942 -130.983 770.943
-71.2761 -129.75 771.83
-71.1942 -128.219 770.943
-64.5197 -113.693 698.667
-65.0619 -113.385 704.538
-64.7897 -111.652 701.59
-64.722 -110.279 700.857
-64.5197 -108.681 698.667
-64.252 -106.983 695.768
-64.119 -105.516 694.328
-63.7232 -103.628 690.042
-60.7244 -83.4224 657.569
-60.665 -82.1628 656.925
-60.665 -80.9848 656.925
-60.665 -79.8068 656.925
-60.665 -78.6289 656.925
-60.665 -77.4509 656.925
-60.665 -76.2729 656.925
-60.665 -75.095 656.925
-60.665 -73.917 656.925
-60.665 -72.7391 656.925
-62.1253 -70.8711 672.739
-62.1877 -69.7347 673.414
-62.1877 -68.5272 673.414
-62.1877 -67.3197 673.414
-62.2502 -66.1786 674.091
-61.6922 -64.3875 668.048
-61.7537 -63.2525 668.714
-62.0631 -62.3643 672.065
-62.0631 -61.1592 672.065
-62.0009 -59.8941 671.392
-62.0009 -58.6902 671.392
-62.0009 -57.4863 671.392
-62.1253 -56.3953 672.739
-62.1253 -55.189 672.739
-62.2502 -54.0912 674.091
-62.2502 -52.8824 674.091
-62.3128 -51.7257 674.769
-62.3756 -50.5666 675.449
-62.4384 -49.4052 676.129
-62.3128 -48.0958 674.769
-62.3128 -46.8858 674.769
-62.1877 -45.5842 673.414
-62.1253 -44.3321 672.739
-62.0009 -43.0395 671.392
-61.8153 -41.7103 669.382
-61.8153 -40.51 669.382
-61.8153 -39.3097 669.382
-61.7537 -38.0714 668.714
-56.2059 -30.2857 608.639
-56.257 -29.2209 609.192
-56.3081 -28.1541 609.746
-56.257 -27.0361 609.192
-56.257 -25.9438 609.192
-56.257 -24.8514 609.192
-56.3081 -23.7806 609.746
-56.0533 -22.5846 606.987
-56.1041 -21.5157 607.537
-56.2059 -20.4633 608.639
-56.155 -19.3544 608.087
-56.155 -18.264 608.087
-56.2059 -17.1892 608.639
-64.7897 -14.7821 701.59
-64.9255 -13.5524 703.061
-64.9255 -12.2917 703.061
-65.1989 -11.0775 706.021
-65.3364 -9.83218 707.511
-65.4054 -8.57255 708.258
-65.2676 -7.28716 706.765
-65.2676 -6.01982 706.765
-65.3364 -4.75751 707.511
-65.4054 -3.49252 708.258
-65.4746 -2.22486 709.007
-65.7526 -0.957562 712.017
-65.8225 0.319526 712.774
-65.8225 1.59763 712.774
-65.8225 2.87574 712.774
-65.7526 4.14943 712.017
-65.8925 5.43773 713.532
-66.033 6.73152 715.054
-66.4581 8.0653 719.657
-66.4581 9.35575 719.657
-66.5295 10.6576 720.43
-66.5295 11.9495 720.43
-66.7445 13.2841 722.759
-66.601 14.5488 721.205
-66.5295 15.825 720.43
-66.5295 17.1168 720.43
-66.7445 18.4681 722.759
-66.7445 19.7642 722.759
-67.0335 21.1513 725.888
-67.3249 22.5506 729.044
-67.5452 23.9359 731.429
-67.5452 25.2475 731.429
-67.5452 26.559 731.429
-67.5452 27.8706 731.429
-67.5452 29.1821 731.429
-67.4716 30.4605 730.632
-67.4716 31.7706 730.632
-67.3249 33.0088 729.044
-67.3249 34.3161 729.044
-67.4716 35.701 730.632
-67.4716 37.0111 730.632
-67.5452 38.363 731.429
-67.6189 39.7179 732.228
-68.2899 41.438 739.493
-68.5165 42.906 741.947
-68.7447 44.3837 744.418
-68.9743 45.8713 746.905
-68.8976 47.1581 746.074
-68.9743 48.5499 746.905
-69.1283 50.0005 748.572
-69.3605 51.5153 751.087
-69.2829 52.803 750.247
-69.2829 54.1483 750.247
-69.5162 55.6804 752.773
-69.4383 56.9663 751.929
-69.4383 58.3147 751.929
-61.4473 82.6258 665.397
-61.4473 83.819 665.397
-61.4473 85.0121 665.397
-61.4473 86.2053 665.397
-61.2045 87.053 662.767
-61.2045 88.2414 662.767
-61.4473 89.7847 665.397
-61.2045 90.6183 662.767
-54.6199 137.08 591.464
-54.6199 138.141 591.464
-54.6681 139.324 591.986
-54.5717 140.138 590.943
-53.5804 140.714 580.208
-53.5341 141.631 579.706
-53.3037 142.057 577.212
-53.2579 142.969 576.716
-53.2121 143.879 576.22
-53.1665 144.788 575.726
-52.894 145.073 572.776
-52.8489 145.976 572.287
-52.8489 147.002 572.287
-52.5351 147.149 568.889
-52.5797 148.295 569.372
-52.5797 149.316 569.372
-52.4018 149.828 567.445
-51.7884 150.086 560.803
-51.4443 150.087 557.077
-51.359 150.836 556.153
-51.1047 151.081 553.4
-51.0626 151.948 552.943
-50.853 152.312 550.674
-50.7696 153.048 549.771
-50.728 153.908 549.321
-50.48 154.135 546.634
-50.4389 154.989 546.189
-50.1936 155.21 543.534
-50.0719 155.806 542.215
-49.9105 156.273 540.468
-49.7501 156.737 538.731
-49.7501 157.703 538.731
-49.6704 158.415 537.867
-49.5115 158.87 536.147
-49.3144 159.195 534.013
-49.236 159.898 533.164
-49.1189 160.471 531.896
-48.8863 160.66 529.377
-48.8092 161.355 528.542
-48.8092 162.303 528.542
-48.8092 163.25 528.542
-48.7708 164.069 528.126
-48.8092 165.146 528.542
-48.6941 165.702 527.296
-48.4655 165.865 524.82
-48.239 166.027 522.368
-47.9775 166.058 519.536
-47.9033 166.731 518.732
-47.7555 167.144 517.132
-47.6453 167.684 515.939
-47.4628 167.963 513.962
-47.3177 168.368 512.391
-47.1377 168.643 510.442
-47.0661 169.301 509.666
-46.9946 169.956 508.893
-46.8879 170.481 507.737
-46.817 171.132 506.969
-46.817 172.041 506.969
-46.7111 172.559 505.822
-46.1886 172.423 500.164
-45.9488 172.419 497.567
-45.9488 173.312 497.567
-45.9147 174.075 497.198
-45.8807 174.837 496.83
-45.8467 175.597 496.462
-45.779 176.227 495.728
-45.6777 176.724 494.632
-45.5433 177.088 493.177
-45.3433 177.191 491.011
-45.1779 177.422 489.22
-45.145 178.169 488.863
-45.0465 178.655 487.797
-44.9158 179.009 486.382
-44.8833 179.751 486.029
-44.7536 180.1 484.625
-44.5925 180.318 482.88
-44.5283 180.923 482.186
-44.4007 181.267 480.803
-44.1475 181.09 478.062
-43.9907 181.302 476.364
-43.9283 181.897 475.688
-43.9283 182.75 475.688
-43.8351 183.214 474.678
-43.6805 183.416 473.005
-43.619 184.004 472.338
-43.3746 183.816 469.692
-43.2837 184.271 468.707
-43.1931 185.563 467.727
-69.0184 -167.763 762.182
-69.4923 -166.162 767.415
-69.6516 -165.164 769.175
-69.4923 -163.41 767.415
-69.5719 -162.22 768.294
-69.4923 -160.658 767.415
-69.4128 -159.1 766.538
-69.4128 -157.725 766.538
-69.3336 -156.172 765.663
-69.4128 -154.976 766.538
-69.4923 -153.777 767.415
-69.6516 -152.751 769.175
-69.4128 -150.853 766.538
-69.4128 -149.478 766.538
-69.6516 -148.613 769.175
-69.3336 -146.562 765.663
-69.4128 -145.355 766.538
-69.3336 -143.816 765.663
-69.6516 -143.096 769.175
-69.6516 -141.717 769.175
-69.3336 -139.697 765.663
-68.5511 -136.763 757.021
-69.0184 -136.329 762.182
-69.3336 -135.578 765.663
-69.4128 -134.359 766.538
-69.4128 -132.984 766.538
-69.4128 -131.609 766.538
-69.5719 -130.533 768.294
-69.8921 -129.75 771.83
-69.8118 -128.219 770.943
-63.2669 -114.945 698.667
-63.2669 -113.693 698.667
-63.5316 -112.91 701.59
-63.2669 -111.187 698.667
-63.1354 -109.706 697.215
-63.1354 -108.455 697.215
-63.0044 -106.983 695.768
-62.8739 -105.516 694.328
-62.4858 -103.628 690.042
-59.5453 -86.9598 657.569
-59.4288 -85.6128 656.282
-59.3127 -84.2711 655
-59.4288 -83.2592 656.282
-59.3707 -82.0021 655.641
-59.4288 -80.9055 656.282
-59.487 -79.8068 656.925
-59.487 -78.6289 656.925
-59.487 -77.4509 656.925
-59.4288 -76.1983 656.282
-59.3707 -74.9482 655.641
-59.3707 -73.7725 655.641
-59.3707 -72.5969 655.641
-59.4288 -71.4911 656.282
-59.487 -70.3831 656.925
-61.0414 -71.0136 674.091
-60.9802 -69.7347 673.414
-60.858 -68.3899 672.065
-60.7362 -67.0504 670.72
-60.7362 -65.8477 670.72
-60.374 -64.2594 666.72
-60.374 -63.0639 666.72
-60.615 -62.1154 669.382
-60.7362 -61.0369 670.72
-60.615 -59.7148 669.382
-60.615 -58.5145 669.382
-60.7362 -57.4288 670.72
-60.858 -56.3388 672.065
-60.858 -55.1337 672.065
-60.9802 -54.0369 673.414
-61.0414 -52.8824 674.091
-61.0414 -51.6737 674.091
-60.9802 -50.4143 673.414
-61.0414 -49.2562 674.091
-60.9802 -47.9992 673.414
-60.919 -46.7448 672.739
-60.7362 -45.4018 670.72
-60.858 -44.2877 672.065
-60.797 -43.0395 671.392
-60.5546 -41.6687 668.714
-60.4943 -40.4293 668.048
-60.5546 -39.2705 668.714
-60.5546 -38.0714 668.714
-55.265 -30.3684 610.301
-55.3658 -29.3274 611.413
-55.4163 -28.2568 611.971
-55.3153 -27.11 610.857
-55.3153 -26.0146 610.857
-55.265 -24.8966 610.301
-55.4669 -23.8892 612.53
-55.1646 -22.6666 609.192
-55.2148 -21.5939 609.746
-55.2148 -20.5005 609.746
-55.1646 -19.3895 609.192
-55.1646 -18.2972 609.192
-55.1646 -17.2048 609.192
-55.265 -16.1418 610.301
-63.7986 -14.8442 704.538
-63.9329 -13.6095 706.021
-63.8656 -12.3305 705.279
-63.9329 -11.0775 706.021
-64.0678 -9.83218 707.511
-64.0678 -8.56351 707.511
-64.0002 -7.28716 706.765
-64.0678 -6.02618 707.511
-64.2032 -4.76757 709.007
-64.2032 -3.49621 709.007
-64.0678 -2.22017 707.511
-64.3392 -0.955533 710.509
-64.3392 0.318511 710.509
-64.4074 1.59424 711.262
-64.4758 2.87269 712.017
-64.4758 4.14943 712.017
-64.4758 5.42618 712.017
-64.6818 6.72435 714.292
-65.0281 8.04803 718.116
-65.0978 9.34572 718.886
-65.0978 10.6348 718.886
-65.2376 11.9495 720.43
-65.3078 14.5488 721.205
-65.2376 15.825 720.43
-65.4485 18.4681 722.759
-65.7318 19.8497 725.888
-66.0176 21.2433 729.044
-66.2336 22.6244 731.429
-66.3059 23.962 732.228
-66.3059 25.275 732.228
-66.3059 26.588 732.228
-66.3059 27.901 732.228
-66.2336 29.1821 731.429
-66.3784 30.5604 733.028
-66.3059 31.84 732.228
-66.1615 33.0807 730.632
-66.2336 34.4284 731.429
-66.1615 35.701 730.632
-66.2336 37.0515 731.429
-66.2336 38.363 731.429
-66.3059 39.7179 732.228
-66.9639 41.438 739.493
-67.4098 43.0488 744.418
-67.4847 44.433 745.245
-67.786 45.9737 748.572
-67.635 47.2106 746.905
-67.5598 48.4959 746.074
-67.786 50.0005 748.572
-67.9376 51.4577 750.247
-67.9376 52.803 750.247
-67.786 54.0274 748.572
-68.0899 55.618 751.929
-67.9376 56.8389 750.247
-68.0899 58.3147 751.929
-60.374 82.7901 666.72
-60.2542 83.819 665.397
-60.2542 85.0121 665.397
-60.016 85.8645 662.767
-60.016 87.053 662.767
-60.016 88.2414 662.767
-60.016 89.4298 662.767
-53.465 136.839 590.423
-53.6066 138.262 591.986
-53.6539 139.447 592.509
-53.465 140.015 590.423
-52.9061 139.599 584.251
-52.8601 140.524 583.743
-52.5855 140.835 580.71
-52.4946 141.631 579.706
-52.3588 142.302 578.207
-52.2238 142.969 576.716
-52.1789 143.879 576.22
-52.0894 144.664 575.232
-51.867 145.073 572.776
-51.6904 145.603 570.826
-51.6904 146.627 570.826
-51.4714 147.025 568.407
-51.2975 147.544 566.487
-51.1248 148.059 564.579
-51.0818 148.946 564.105
-50.8679 149.33 561.742
-50.7828 150.086 560.803
-50.4873 150.212 557.54
-50.4035 150.961 556.615
-50.1538 151.206 553.857
-50.1124 152.074 553.4
-49.8655 152.312 550.674
-49.7838 153.048 549.771
-49.743 153.908 549.321
-49.6617 154.64 548.422
-49.4998 155.116 546.634
-49.2589 155.336 543.974
-49.1393 155.932 542.654
-49.0204 156.525 541.34
-48.8626 156.989 539.598
-48.8626 157.957 539.598
-48.8233 158.797 539.164
-48.5501 158.87 536.147
-48.3184 159.068 533.588
-48.2416 159.771 532.741
-48.1651 160.471 531.896
-47.937 160.66 529.377
-47.8615 161.355 528.542
-47.937 162.559 529.377
-47.937 163.508 529.377
-47.937 164.457 529.377
-48.0128 165.668 530.214
-47.937 166.356 529.377
-47.5244 165.865 524.82
-47.3024 166.027 522.368
-47.1189 166.316 520.342
-47.0095 166.86 519.133
-46.9731 167.661 518.732
-46.7561 167.813 516.336
-46.4344 167.578 512.783
-46.3635 168.24 512
-46.2576 168.772 510.831
-46.1872 169.429 510.054
-46.1171 170.085 509.279
-45.9775 170.481 507.737
-45.908 171.132 506.969
-45.8733 171.911 506.586
-45.5636 171.653 503.166
-45.3255 171.654 500.538
-45.2917 172.423 500.164
-45.1571 172.804 498.677
-45.1571 173.698 498.677
-45.09 174.333 497.936
-45.0565 175.096 497.567
-44.9565 175.597 496.462
-44.8569 176.097 495.362
-44.7907 176.724 494.632
-44.6262 176.958 492.814
-44.528 177.451 491.731
-44.4954 178.202 491.37
-44.3978 178.69 490.293
-44.2684 179.046 488.863
-44.2361 179.791 488.507
-44.1397 180.274 487.442
-43.7581 180.448 483.228
-43.7896 181.445 483.576
-43.4451 180.878 479.771
-43.2594 180.961 477.721
-43.2286 181.689 477.381
-43.2286 182.545 477.381
-43.1672 183.14 476.703
-43.0448 183.473 475.351
-42.8323 183.416 473.005
-42.8021 184.134 472.671
-42.6818 184.462 471.343
-42.5026 184.529 469.363
-42.4136 184.982 468.38
-42.3249 185.433 467.401
-67.9607 -169.902 765.663
-67.8832 -168.337 764.79
-68.0383 -167.347 766.538
-68.1162 -166.162 767.415
-68.1942 -164.975 768.294
-68.1162 -163.41 767.415
-68.1162 -162.034 767.415
-68.1162 -160.658 767.415
-68.0383 -159.1 766.538
-68.0383 -157.725 766.538
-67.8832 -155.994 764.79
-67.9607 -154.799 765.663
-68.1162 -153.777 767.415
-68.1162 -152.401 767.415
-68.0383 -150.853 766.538
-67.9607 -149.307 765.663
-68.2724 -148.613 769.175
-68.0383 -146.729 766.538
-67.8832 -145.023 764.79
-67.6517 -143.162 762.182
-67.6517 -141.795 762.182
-67.3456 -139.793 758.734
-67.3456 -138.433 758.734
-67.2695 -136.917 757.876
-67.1936 -135.405 757.021
-67.3456 -134.351 758.734
-67.9607 -134.205 765.663
-67.9607 -132.832 765.663
-68.0383 -131.609 766.538
-68.0383 -130.235 766.538
-68.2724 -129.304 769.175
-68.2724 -127.925 769.175
-62.0141 -114.945 698.667
-62.0141 -113.693 698.667
-62.0141 -112.44 698.667
-62.0141 -111.187 698.667
-61.7568 -109.478 695.768
-61.8209 -108.343 696.491
-61.7568 -106.983 695.768
-61.5016 -105.298 692.893
-61.1855 -103.521 689.332
-60.9975 -101.971 687.214
-60.9975 -100.738 687.214
-58.7116 -89.8465 661.46
-58.596 -88.4859 660.158
-58.3662 -86.9598 657.569
-58.309 -85.6966 656.925
-58.195 -84.3534 655.641
-58.252 -83.2592 656.282
-58.252 -82.0824 656.282
-58.252 -80.9055 656.282
-58.309 -79.8068 656.925
-58.309 -78.6289 656.925
-58.309 -77.4509 656.925
-58.252 -76.1983 656.282
-58.195 -74.9482 655.641
-58.195 -73.7725 655.641
-58.0815 -72.4552 654.361
-58.0815 -71.2818 654.361
-58.195 -70.2455 655.641
-58.252 -69.1375 656.282
-59.8929 -69.875 674.769
-59.5335 -68.2531 670.72
-59.3555 -59.6552 668.714
-59.3555 -58.4561 668.714
-59.3555 -57.257 668.714
-59.4741 -56.1699 670.05
-59.4147 -54.9136 669.382
-59.5335 -53.8207 670.72
-59.6528 -52.7235 672.065
-59.6528 -51.5184 672.065
-59.6528 -50.3133 672.065
-59.7726 -49.2068 673.414
-59.7726 -47.9992 673.414
-59.4147 -46.5115 669.382
-59.3555 -45.266 668.714
-59.5335 -44.1991 670.72
-59.4147 -42.9106 669.382
-59.2964 -41.6272 668.048
-59.1785 -40.3489 666.72
-59.1785 -39.1534 666.72
-59.2374 -37.9957 667.384
-54.468 -29.4347 613.651
-54.468 -28.3344 613.651
-54.468 -27.234 613.651
-54.3685 -26.0859 612.53
-54.468 -25.0333 613.651
-54.5179 -23.9548 614.213
-54.2694 -22.7493 611.413
-54.3189 -21.6727 611.971
-54.3189 -20.5753 611.971
-54.3189 -19.478 611.971
-54.1706 -18.3305 610.301
-54.22 -17.2518 610.857
-54.3189 -16.1859 611.971
-62.7991 -13.6382 707.511
-62.7329 -12.3565 706.765
-62.7329 -11.0892 706.765
-62.8654 -9.84256 708.258
-62.8654 -8.57255 708.258
-62.7991 -7.29484 707.511
-62.7991 -6.02618 707.511
-62.7991 -4.75751 707.511
-62.8654 -3.49252 708.258
-62.7991 -2.22017 707.511
-62.9319 -0.953513 709.007
-63.1321 0.318849 711.262
-63.2662 1.59763 712.774
-63.2662 2.87574 712.774
-63.2662 4.15384 712.774
-63.401 5.44352 714.292
-63.4686 6.73152 715.054
-63.7404 8.04803 718.116
-63.8087 9.34572 718.886
-63.8772 10.6462 719.657
-63.9458 11.9495 720.43
-64.9929 22.6491 732.228
-64.9929 23.962 732.228
-64.9929 25.275 732.228
-65.064 26.6171 733.028
-65.1352 27.9621 733.83
-65.064 29.2459 733.028
-65.1352 30.5938 733.83
-65.064 31.8748 733.028
-64.9929 33.153 732.228
-64.9929 34.466 732.228
-64.9929 35.7789 732.228
-64.9929 37.0919 732.228
-64.9929 38.4049 732.228
-65.5656 40.0678 738.679
-65.6379 41.438 739.493
-66.075 43.0488 744.418
-66.222 44.4824 746.074
-66.4437 45.9737 748.572
-66.2957 47.2106 746.905
-66.2957 48.5499 746.905
-66.4437 50.0005 748.572
-66.6669 51.5153 751.087
-66.5923 52.803 750.247
-66.4437 54.0274 748.572
-66.7416 55.618 751.929
-67.0423 57.2229 755.316
-66.7416 58.3147 751.929
-59.2964 82.955 668.048
-59.1785 83.9856 666.72
-59.061 85.0121 665.397
-58.8276 85.8645 662.767
-58.7116 86.8813 661.46
-58.8276 88.2414 662.767
-52.2682 136.478 588.868
-52.3142 137.655 589.385
-52.2682 138.59 588.868
-52.1766 139.401 587.836
-51.8585 139.599 584.251
-51.7233 140.28 582.728
-51.5442 140.835 580.71
-51.4551 141.631 579.706
-51.2337 142.057 577.212
-51.1456 142.846 576.22
-51.0579 143.633 575.232
-50.9705 144.416 574.247
-50.7965 144.95 572.287
-50.5807 145.356 569.856
-50.4949 146.129 568.889
-50.4521 147.025 568.407
-50.4094 147.919 567.926
-50.3668 148.811 567.445
-50.1546 149.197 565.055
-49.9862 149.706 563.157
-49.7772 150.086 560.803
-49.4876 150.212 557.54
-49.4054 150.961 556.615
-49.1201 151.081 553.4
-48.9988 151.698 552.033
-48.838 152.187 550.222
-48.798 153.048 549.771
-48.6783 153.656 548.422
-48.5988 154.387 547.527
-48.4406 154.863 545.745
-48.3227 155.462 544.416
-48.2053 156.059 543.093
-48.1663 156.905 542.654
-48.1274 157.751 542.215
-48.1274 158.723 542.215
-47.9336 159.052 540.033
-47.5128 158.616 535.292
-47.2114 158.563 531.896
-47.2114 159.517 531.896
-46.9878 159.711 529.377
-46.9137 160.407 528.542
-46.7663 160.848 526.882
-46.9137 162.303 528.542
-46.9137 163.25 528.542
-46.9507 164.328 528.959
-46.8768 165.016 528.126
-46.6198 165.053 525.231
-46.5469 165.735 524.41
-46.3657 166.027 522.368
-46.2936 166.704 521.556
-46.0786 166.86 519.133
-45.8303 167.813 516.336
-45.6896 168.221 514.751
-45.5149 168.497 512.783
-45.4108 169.029 511.61
-45.2726 169.429 510.054
-45.2383 170.215 509.666
-45.1354 170.739 508.507
-44.9989 171.132 506.969
-44.7621 171.136 504.301
-44.6613 171.653 503.166
-44.5277 172.039 501.661
-44.428 172.551 500.538
-44.3288 173.061 499.42
-44.3288 173.957 499.42
-44.23 174.463 498.306
-44.1643 175.096 497.567
-44.1643 175.988 497.567
-44.1643 176.88 497.567
-43.9038 176.724 494.632
-43.7104 176.828 492.453
-43.6143 177.321 491.37
-43.5505 177.941 490.651
-43.4869 178.56 489.935
-43.3602 178.916 488.507
-43.1715 179.009 486.382
-43.1402 179.751 486.029
-43.0156 180.1 484.625
-42.8916 180.448 483.228
-42.8916 181.314 483.228
-42.5543 180.749 479.428
-42.4028 180.961 477.721
-42.3726 181.689 477.381
-42.3726 182.545 477.381
-42.3425 183.27 477.042
-42.1924 183.473 475.351
-42.1029 183.934 474.343
-42.0138 184.394 473.338
-41.925 184.851 472.338
-41.6902 184.658 469.692
-41.5737 184.982 468.38
-41.4579 185.304 467.075
-66.436 -169.515 763.918
-66.436 -168.145 763.918
-66.5877 -167.156 765.663
-66.6638 -165.972 766.538
-66.7401 -164.786 767.415
-66.6638 -163.223 766.538
-66.6638 -161.849 766.538
-66.6638 -160.474 766.538
-66.6638 -159.1 766.538
-66.5877 -157.545 765.663
-66.285 -155.462 762.182
-66.436 -154.447 763.918
-66.5118 -153.251 764.79
-66.5118 -151.88 764.79
-66.5877 -150.68 765.663
-66.436 -148.967 763.918
-66.5877 -147.935 765.663
-66.5877 -146.562 765.663
-66.5118 -145.023 764.79
-66.436 -143.488 763.918
-66.285 -141.795 762.182
-65.9851 -139.793 758.734
-65.9851 -138.433 758.734
-65.9106 -136.917 757.876
-65.6879 -135.1 755.316
-65.5403 -133.445 753.618
-65.6879 -132.392 755.316
-65.8362 -131.333 757.021
-65.8362 -129.976 757.021
-66.285 -129.495 762.182
-66.285 -128.128 762.182
-66.5877 -127.34 765.663
-61.0155 -115.426 701.59
-61.0155 -114.168 701.59
-61.0155 -112.91 701.59
-60.8881 -111.419 700.126
-60.635 -109.706 697.215
-60.5092 -108.23 695.768
-60.1349 -106.321 691.464
-60.2591 -105.298 692.893
-60.0112 -103.628 690.042
-59.8879 -102.18 688.625
-59.8879 -100.945 688.625
-59.7652 -99.506 687.214
-57.4122 -88.4859 660.158
-56.9637 -86.6201 655
-57.0752 -85.6128 656.282
-57.0194 -84.3534 655.641
-57.0752 -83.2592 656.282
-57.0752 -82.0824 656.282
-57.1311 -80.9848 656.925
-57.1871 -79.8851 657.569
-57.1311 -78.6289 656.925
-57.1311 -77.4509 656.925
-57.0752 -76.1983 656.282
-57.0194 -74.9482 655.641
-56.9081 -73.6286 654.361
-56.8527 -72.3846 653.724
-56.7973 -71.143 653.087
-56.8527 -70.0401 653.724
-56.7973 -68.8009 653.087
-56.8527 -67.6957 653.724
-56.6869 -63.9919 651.818
-56.7421 -62.8842 652.452
-56.9637 -61.9554 655
-57.0752 -60.8998 656.282
-57.1311 -59.7815 656.925
-57.7533 -58.051 664.08
-57.6392 -56.7478 662.767
-57.7533 -55.6694 664.08
-57.6962 -54.4247 663.423
-57.6962 -53.2351 663.423
-57.6962 -52.0455 663.423
-57.6392 -50.8057 662.767
-57.8679 -49.8141 665.397
-58.0984 -48.8147 668.048
-58.1564 -47.6642 668.714
-58.1564 -46.4651 668.714
-58.1564 -45.266 668.714
-58.0984 -44.023 668.048
-58.1564 -42.8678 668.714
-58.0406 -41.5858 667.384
-57.7533 -40.1892 664.08
-57.6962 -38.9598 663.423
-57.6392 -37.7329 662.767
-53.3189 -29.4078 613.09
-53.2702 -28.2826 612.53
-53.2216 -27.1595 611.971
-53.173 -26.0383 611.413
-53.2702 -24.9876 612.53
-53.3676 -23.9329 613.651
-53.0763 -22.7079 610.301
-53.2216 -21.6727 611.971
-53.2216 -20.5753 611.971
-53.2702 -19.4958 612.53
-53.0763 -18.3305 610.301
-53.2216 -17.2833 611.971
-53.4165 -16.2452 614.213
-61.6605 -13.667 709.007
-61.5954 -12.3826 708.258
-61.5954 -11.1126 708.258
-61.6605 -9.85297 709.007
-61.5954 -8.57255 708.258
-61.5304 -7.29484 707.511
-61.6605 -6.03892 709.007
-61.5304 -4.75751 707.511
-61.6605 -3.49621 709.007
-61.5304 -2.22017 707.511
-61.7911 -0.955533 710.509
-61.9223 0.319187 712.017
-61.9881 1.59763 712.774
-62.0541 2.8788 713.532
-62.0541 4.15826 713.532
-62.1202 5.44352 714.292
-62.3193 6.7459 716.582
-62.5196 8.05666 718.886
-62.5867 9.35575 719.657
-62.5867 10.6462 719.657
-58.0406 13.463 667.384
-58.0406 14.6597 667.384
-58.0406 15.8565 667.384
-57.9829 17.0362 666.72
-58.0406 18.2499 667.384
-63.9592 33.2984 735.439
-63.68 34.466 732.228
-63.68 35.7789 732.228
-64.241 37.4187 738.679
-64.0998 38.6581 737.055
-64.3828 40.1563 740.31
-64.7401 41.714 744.418
-64.812 43.0967 745.245
-64.8841 44.4824 746.074
-65.1014 45.9737 748.572
-65.1014 47.316 748.572
-64.9564 48.5499 746.905
-65.1014 50.0005 748.572
-65.247 51.4577 750.247
-65.247 52.803 750.247
-65.3933 54.2697 751.929
-65.6879 55.8686 755.316
-58.4477 72.6077 672.065
-58.3308 73.6652 670.72
-58.0984 74.5697 668.048
-58.0984 75.7676 668.048
-58.0406 76.8889 667.384
-57.8679 77.8532 665.397
-57.8679 79.0463 665.397
-57.9829 83.9856 666.72
-57.7533 84.8438 664.08
-57.5823 85.7798 662.113
-57.6392 87.053 662.767
-57.6392 88.2414 662.767
-51.0331 136.001 586.807
-51.1226 137.293 587.836
-51.1226 138.347 587.836
-51.0778 139.279 587.321
-50.8995 139.842 585.271
-50.7225 140.402 583.235
-50.4592 140.714 580.208
-50.4156 141.631 579.706
-50.2419 142.179 577.709
-50.1124 142.846 576.22
-50.0694 143.756 575.726
-50.0264 144.664 575.232
-49.8128 145.073 572.776
-49.7279 145.851 571.799
-49.7279 146.877 571.799
-49.5589 147.399 569.856
-49.4748 148.17 568.889
-49.4748 149.19 568.889
-49.0587 148.946 564.105
-48.8533 149.33 561.742
-48.7716 150.086 560.803
-48.5281 150.337 558.004
-48.4073 150.961 556.615
-48.1278 151.081 553.4
-48.0485 151.823 552.488
-47.8514 152.187 550.222
-47.8514 153.174 550.222
-47.8514 154.16 550.222
-47.8122 155.02 549.771
-47.5394 155.116 546.634
-47.3081 155.336 543.974
-47.2314 156.059 543.093
-47.1932 156.905 542.654
-47.1551 157.751 542.215
-47.041 158.339 540.904
-46.8897 158.797 539.164
-46.5529 158.616 535.292
-46.2943 158.689 532.318
-46.2209 159.391 531.474
-46.0385 159.711 529.377
-46.0022 160.534 528.959
-45.966 161.355 528.542
-45.966 162.303 528.542
-45.9298 163.122 528.126
-45.966 164.198 528.542
-45.7497 164.369 526.055
-45.678 165.053 525.231
-45.6066 165.735 524.41
-45.4644 166.156 522.775
-45.3936 166.833 521.961
-45.1827 166.99 519.536
-44.939 167.942 516.734
-44.6637 167.834 513.568
-44.5274 168.24 512
-44.3918 168.643 510.442
-44.3243 169.301 509.666
-44.2571 169.956 508.893
-44.1232 170.352 507.353
-44.0565 171.003 506.586
-43.8248 171.007 503.922
-43.7919 171.782 503.544
-43.7263 172.426 502.789
-43.563 172.68 500.911
-43.498 173.319 500.164
-43.498 174.216 500.164
-43.4332 174.852 499.42
-43.3043 175.226 497.936
-43.2401 175.858 497.198
-42.8273 176.828 492.453
-42.7645 177.451 491.731
-42.7332 178.202 491.37
-42.6083 178.56 489.935
-42.4533 178.785 488.152
-42.3916 179.399 487.442
-42.3916 180.274 487.442
-42.2687 180.623 486.029
-41.9948 180.318 482.88
-41.9043 180.793 481.839
-41.7544 181.007 480.115
-41.6351 181.349 478.744
-41.5462 181.818 477.721
-41.5462 182.675 477.721
-41.5166 183.401 477.381
-41.3988 183.734 476.026
-41.2816 184.065 474.678
-41.2816 184.916 474.678
-41.107 184.982 472.671
-40.9339 185.047 470.681
-40.7908 185.241 469.035
-40.6487 185.433 467.401
-65.2148 -168.529 765.663
-65.2893 -167.347 766.538
-65.2893 -165.972 766.538
-65.4389 -164.975 768.294
-65.364 -163.41 767.415
-65.364 -162.034 767.415
-65.364 -160.658 767.415
-65.2893 -159.1 766.538
-65.2148 -157.545 765.663
-64.9183 -155.462 762.182
-64.7711 -153.746 760.454
-64.6246 -152.038 758.734
-64.7711 -151.019 760.454
-64.6978 -149.486 759.593
-64.7711 -148.292 760.454
-65.2148 -147.935 765.663
-65.2148 -146.562 765.663
-65.2148 -145.189 765.663
-64.9183 -143.162 762.182
-64.9183 -141.795 762.182
-64.7711 -140.11 760.454
-64.6246 -138.433 758.734
-64.4787 -136.763 757.021
-64.1889 -134.797 753.618
-64.1169 -133.296 752.773
-64.1889 -132.094 753.618
-64.1889 -130.743 753.618
-64.3335 -129.683 755.316
-64.6246 -128.909 758.734
-64.6246 -127.549 758.734
-65.0662 -127.05 763.918
-59.7575 -114.168 701.59
-59.5085 -112.44 698.667
-59.2616 -110.726 695.768
-58.7738 -108.577 690.042
-59.2616 -108.23 695.768
-58.895 -106.321 691.464
-59.0167 -105.298 692.893
-58.895 -103.841 691.464
-58.895 -102.601 691.464
-58.895 -101.361 691.464
-58.7738 -99.9155 690.042
-55.8984 -87.9664 656.282
-55.5181 -86.1992 651.818
-55.6804 -85.279 653.724
-55.5721 -83.9431 652.452
-55.6262 -82.8538 653.087
-55.6262 -81.6827 653.087
-55.8437 -80.8265 655.641
-55.9531 -79.8068 656.925
-55.9531 -78.6289 656.925
-55.9531 -77.4509 656.925
-55.9531 -76.2729 656.925
-55.8437 -74.9482 655.641
-55.7348 -73.6286 654.361
-55.6262 -72.3141 653.087
-55.6262 -71.143 653.087
-55.5721 -69.9039 652.452
-55.5181 -68.6671 651.818
-55.6804 -66.5235 653.724
-55.6804 -65.3513 653.724
-55.5721 -64.0542 652.452
-55.6262 -62.9455 653.087
-55.7892 -61.9554 655
-55.8984 -60.8998 656.282
-55.8984 -59.723 656.282
-56.118 -58.7762 658.861
-56.395 -57.8791 662.113
-56.395 -56.6918 662.113
-56.4507 -55.5594 662.767
-56.4507 -54.371 662.767
-56.4507 -53.1825 662.767
-56.5066 -52.0455 663.423
-56.5066 -50.8559 663.423
-56.5625 -49.7155 664.08
-56.6747 -48.621 665.397
-56.8439 -47.5694 667.384
-56.8439 -46.3727 667.384
-56.9005 -45.221 668.048
-56.9005 -44.023 668.048
-56.9573 -42.8678 668.714
-56.8439 -41.5858 667.384
-56.7874 -40.3489 666.72
-56.5625 -38.9984 664.08
-56.5066 -37.7702 663.423
-56.3394 -36.4723 661.46
-52.3151 -28.3603 614.213
-52.2673 -27.234 613.651
-52.3151 -26.1576 614.213
-52.2673 -25.0333 613.651
-52.2673 -23.9329 613.651
-52.2673 -22.8326 613.651
-52.3151 -21.7521 614.213
-52.3151 -20.6507 614.213
-52.3151 -19.5493 614.213
-52.2673 -18.4311 613.651
-52.3151 -17.3466 614.213
-52.4111 -16.275 615.34
-52.3151 -15.1439 614.213
-60.5171 -14.97 710.509
-60.5171 -13.696 710.509
-60.3892 -12.3957 709.007
-60.2618 -11.1008 707.511
-60.3892 -9.85297 709.007
-60.3254 -8.57255 708.258
-60.3892 -7.31027 709.007
-60.3892 -6.03892 709.007
-60.2618 -4.75751 707.511
-60.3254 -3.49252 708.258
-60.2618 -2.22017 707.511
-60.5171 -0.955533 710.509
-60.71 0.319526 712.774
-60.71 1.59763 712.774
-60.7746 2.8788 713.532
-60.7746 4.15826 713.532
-60.8393 5.44352 714.292
-61.0343 6.7459 716.582
-61.165 8.04803 718.116
-61.165 9.33572 718.116
-56.8439 12.2663 667.384
-56.8439 13.463 667.384
-56.8439 14.6597 667.384
-56.8439 15.8565 667.384
-56.8439 17.0532 667.384
-56.8439 18.2499 667.384
-56.8439 19.4466 667.384
-62.9858 37.46 739.493
-62.9858 38.786 739.493
-63.4053 40.3791 744.418
-63.4757 41.7603 745.245
-63.6171 43.1927 746.905
-63.7591 44.6314 748.572
-63.7591 45.9737 748.572
-63.9017 47.4218 750.247
-63.7591 48.6582 748.572
-63.7591 50.0005 748.572
-63.9017 51.4577 750.247
-64.045 52.9214 751.929
-64.1889 54.3917 753.618
-64.3335 55.8686 755.316
-57.5888 51.2238 676.129
-57.3576 52.2256 673.414
-57.3576 57.0557 673.414
-57.3 58.2048 672.739
-57.3 59.4111 672.739
-57.3 60.6174 672.739
-57.3 61.8237 672.739
-57.3 63.03 672.739
-57.2426 64.172 672.065
-57.5888 66.9849 676.129
-57.3576 67.9234 673.414
-57.5888 69.4097 676.129
-57.3576 70.3385 673.414
-57.3576 71.546 673.414
-57.3576 72.7535 673.414
-57.1281 73.6652 670.72
-57.1281 74.8679 670.72
-56.9005 75.7676 668.048
-56.9005 76.9655 668.048
-56.5625 77.699 664.08
-56.7874 79.2035 666.72
-56.5625 83.653 664.08
-56.4507 84.6761 662.767
-56.395 85.7798 662.113
-56.3394 86.8813 661.46
-56.4507 88.2414 662.767
-49.7199 135.29 583.743
-49.8066 136.575 584.761
-49.8066 137.623 584.761
-49.7632 138.551 584.251
-49.8066 139.721 584.761
-49.6335 140.28 582.728
-49.4616 140.835 580.71
-49.4188 141.754 580.208
-49.1636 142.057 577.212
-49.0792 142.846 576.22
-49.037 143.756 575.726
-49.037 144.788 575.726
-48.8275 145.197 573.265
-48.7026 145.851 571.799
-48.7026 146.877 571.799
-48.5371 147.399 569.856
-48.4547 148.17 568.889
-48.4137 149.063 568.407
-48.3727 149.955 567.926
-47.766 149.08 560.803
-47.7261 149.96 560.335
-47.4486 150.087 557.077
-47.3699 150.836 556.153
-47.1354 151.081 553.4
-46.9804 151.574 551.579
-46.8648 152.187 550.222
-46.8263 153.048 549.771
-46.8263 154.034 549.771
-46.788 154.893 549.321
-46.6733 155.496 547.974
-46.4834 155.842 545.745
-46.4079 156.566 544.858
-46.2576 157.032 543.093
-46.0711 157.369 540.904
-45.9229 157.83 539.164
-45.8492 158.542 538.299
-45.6295 158.743 535.719
-45.4842 159.195 534.013
-45.3038 159.517 531.896
-45.0537 159.585 528.959
-45.0537 160.534 528.959
-44.9828 161.228 528.126
-45.0182 162.303 528.542
-44.9474 162.993 527.711
-44.9828 164.069 528.126
-44.8416 164.498 526.468
-44.7713 165.182 525.643
-44.7012 165.865 524.82
-44.527 166.156 522.775
-44.3197 166.316 520.342
-44.2168 166.86 519.133
-44.1826 167.661 518.732
-43.9447 167.684 515.939
-43.7094 167.706 513.176
-43.6093 168.24 512
-43.4104 168.387 509.666
-43.3775 169.172 509.279
-43.3117 169.827 508.507
-43.2134 170.352 507.353
-43.1808 171.132 506.969
-42.9535 171.136 504.301
-42.889 171.782 503.544
-42.8247 172.426 502.789
-42.6648 172.68 500.911
-42.6329 173.449 500.538
-42.6329 174.346 500.538
-42.5694 174.983 499.792
-42.4429 175.356 498.306
-42.3485 175.858 497.198
-41.8828 177.451 491.731
-41.8828 178.333 491.731
-41.7298 178.56 489.935
-41.6083 178.916 488.507
-41.5477 179.53 487.797
-41.3972 179.751 486.029
-41.1586 179.581 483.228
-41.129 180.318 482.88
-41.0109 180.664 481.493
-40.9227 181.137 480.459
-40.8642 181.738 479.771
-40.7186 181.948 478.062
-40.7476 182.935 478.403
-40.6896 183.531 477.721
-40.6028 183.995 476.703
-40.459 184.195 475.014
-40.4304 184.916 474.678
-40.2311 184.851 472.338
-40.0057 184.658 469.692
-39.9218 185.111 468.707
-39.8106 185.433 467.401
-63.769 -168.337 764.79
-63.8418 -167.156 765.663
-63.9148 -165.972 766.538
-63.9879 -164.786 767.415
-63.9148 -163.223 766.538
-63.9148 -161.849 766.538
-63.9148 -160.474 766.538
-63.9148 -159.1 766.538
-63.8418 -157.545 765.663
-63.3357 -154.934 759.593
-62.9791 -152.707 755.316
-62.8376 -151.013 753.618
-62.9791 -149.999 755.316
-62.9791 -148.644 755.316
-63.1926 -147.789 757.876
-62.9791 -145.935 755.316
-63.5516 -145.895 762.182
-63.5516 -144.529 762.182
-63.4075 -142.837 760.454
-62.9791 -140.518 755.316
-62.8376 -138.851 753.618
-62.7671 -137.345 752.773
-62.8376 -136.148 753.618
-62.6967 -134.494 751.929
-62.6967 -133.146 751.929
-62.7671 -131.946 752.773
-62.7671 -130.596 752.773
-62.6967 -129.101 751.929
-62.9791 -128.328 755.316
-63.2641 -127.549 758.734
-63.4075 -126.474 760.454
-58.4994 -114.168 701.59
-58.0139 -111.973 695.768
-57.5365 -109.814 690.042
-57.4773 -108.465 689.332
-57.4773 -107.229 689.332
-57.5365 -106.102 690.042
-57.7742 -105.298 692.893
-57.5957 -103.734 690.752
-57.6551 -102.601 691.464
-57.7742 -101.571 692.893
-57.4183 -99.7103 688.625
-54.8289 -89.318 657.569
-54.5082 -87.6234 653.724
-54.4022 -86.283 652.452
-54.4551 -85.196 653.087
-54.4022 -83.9431 652.452
-54.4022 -82.7732 652.452
-54.4022 -81.6033 652.452
-54.4551 -80.5117 653.087
-54.5082 -79.4179 653.724
-54.7216 -78.5519 656.282
-54.8289 -77.5268 657.569
-54.7752 -76.2729 656.925
-54.6681 -74.9482 655.641
-54.5614 -73.6286 654.361
-54.4551 -72.3141 653.087
-54.4022 -71.0738 652.452
-54.4022 -69.9039 652.452
-54.4022 -68.7339 652.452
-54.4022 -67.564 652.452
-54.5082 -66.5235 653.724
-54.6681 -65.5429 655.641
-54.4551 -64.1165 653.087
-54.5082 -63.0068 653.724
-54.7216 -62.0766 656.282
-54.7216 -60.8998 656.282
-54.7216 -59.723 656.282
-54.8289 -58.661 657.569
-55.099 -57.765 660.808
-55.2077 -56.6918 662.113
-55.2077 -55.5046 662.113
-55.2623 -54.371 662.767
-55.2623 -53.1825 662.767
-55.2623 -51.9941 662.767
-55.317 -50.8559 663.423
-55.3717 -49.7155 664.08
-55.5367 -48.6692 666.058
-55.5367 -47.4749 666.058
-55.6472 -46.3727 667.384
-55.5919 -45.1311 666.72
-55.5919 -43.9355 666.72
-55.7026 -42.8251 668.048
-55.6472 -41.5858 667.384
-55.5919 -40.3489 666.72
-55.4266 -39.037 664.738
-55.3717 -37.8076 664.08
-55.1533 -36.4723 661.46
-51.2607 -28.3863 614.776
-51.2138 -27.2589 614.213
-51.2607 -26.1815 614.776
-51.2138 -25.0562 614.213
-51.1669 -23.9329 613.651
-51.2607 -22.8744 614.776
-51.2607 -21.772 614.776
-51.2607 -20.6696 614.776
-51.2607 -19.5673 614.776
-51.3077 -18.4818 615.34
-51.5442 -17.4585 618.175
-51.5917 -16.3651 618.746
-51.4967 -15.2275 617.606
-58.9931 -14.9069 707.511
-58.9931 -13.6382 707.511
-58.9931 -12.3695 707.511
-58.9931 -11.1008 707.511
-59.0554 -9.84256 708.258
-58.9931 -8.56351 707.511
-59.0554 -7.30255 708.258
-59.1178 -6.03892 709.007
-59.1178 -4.76757 709.007
-59.1178 -3.49621 709.007
-59.3688 -2.23431 712.017
-59.4951 -0.959599 713.532
-59.5585 0.320207 714.292
-59.5585 1.60104 714.292
-59.622 2.88494 715.054
-59.5585 4.16269 714.292
-59.5585 5.44352 714.292
-59.8773 6.76035 718.116
-60.0058 9.35575 719.657
-55.6472 11.0696 667.384
-55.6472 12.2663 667.384
-55.6472 13.463 667.384
-55.6472 14.6597 667.384
-55.6472 15.8565 667.384
-55.6472 17.0532 667.384
-55.7026 18.2681 668.048
-55.7026 19.466 668.048
-62.1394 40.424 745.245
-62.2778 41.8533 746.905
-62.6265 43.4345 751.087
-62.6265 44.7813 751.087
-62.6967 46.1798 751.929
-62.6967 47.5281 751.929
-62.6967 48.8764 751.929
-62.6967 50.2248 751.929
-62.8376 51.689 753.618
-62.8376 53.0403 753.618
-62.6967 54.2697 751.929
-56.15 49.8105 673.414
-56.15 51.0181 673.414
-56.0937 52.1732 672.739
-56.0937 53.3795 672.739
-56.0937 54.5858 672.739
-56.0937 55.7921 672.739
-56.0375 56.9413 672.065
-56.3765 58.4981 676.129
-56.2065 59.5305 674.091
-56.2065 60.7393 674.091
-56.263 62.0103 674.769
-56.2065 63.1567 674.091
-56.15 64.3009 673.414
-56.15 65.5084 673.414
-56.15 67.9234 673.414
-56.15 69.131 673.414
-56.15 70.3385 673.414
-56.15 71.546 673.414
-55.8138 72.3179 669.382
-55.7026 73.3717 668.048
-55.5919 74.4214 666.72
-55.3717 75.3175 664.08
-55.3717 76.5082 664.08
-55.3717 77.699 664.08
-55.3717 78.8898 664.08
-55.2623 79.9224 662.767
-55.2623 81.1108 662.767
-55.2623 82.2992 662.767
-55.1533 83.323 661.46
-54.9366 84.177 658.861
-54.8289 85.1911 657.569
-54.8289 86.3702 657.569
-54.8289 87.5493 657.569
-54.2965 87.867 651.185
-54.1913 88.8621 649.923
-48.758 135.526 584.761
-48.9286 137.053 586.807
-48.8432 137.864 585.782
-48.758 138.672 584.761
-48.6731 139.477 583.743
-48.4623 139.915 581.214
-48.4203 140.835 580.71
-48.3784 141.754 580.208
-48.3366 142.671 579.706
-48.1286 143.092 577.212
-48.2116 144.376 578.207
-48.0459 144.913 576.22
-47.8404 145.322 573.756
-47.6773 145.851 571.799
-47.6367 146.752 571.312
-47.4346 147.149 568.889
-47.3142 147.793 567.445
-47.0753 148.059 564.579
-46.878 148.447 562.213
-46.7213 148.956 560.335
-46.5657 149.461 558.468
-46.4112 149.963 556.615
-46.3727 150.836 556.153
-46.1812 151.206 553.857
-46.0671 151.823 552.488
-45.9158 152.312 550.674
-45.8781 153.174 550.222
-45.8781 154.16 550.222
-45.8405 155.02 549.771
-45.803 155.878 549.321
-45.579 156.096 546.634
-45.5048 156.82 545.745
-45.5048 157.799 545.745
-45.3572 158.263 543.974
-45.2471 158.851 542.654
-44.9561 158.797 539.164
-44.6689 158.743 535.719
-44.3501 159.517 531.896
-44.1052 159.585 528.959
-44.0705 160.407 528.542
-43.8975 160.722 526.468
-43.8975 161.666 526.468
-43.8631 162.482 526.055
-43.8287 163.297 525.643
-43.8287 164.24 525.643
-43.7601 164.924 524.82
-43.6918 165.606 524
-43.5556 166.027 522.368
-43.3867 166.316 520.342
-43.3195 166.99 519.536
-43.2525 167.661 518.732
-43.0196 167.684 515.939
-42.7565 167.578 512.783
-42.5936 167.856 510.831
-42.4965 168.387 509.666
-42.4643 169.172 509.279
-42.432 169.956 508.893
-42.3357 170.481 507.737
-42.2717 171.132 506.969
-41.9546 170.751 503.166
-41.9546 171.653 503.166
-41.8291 172.039 501.661
-41.7666 172.68 500.911
-41.7354 173.449 500.538
-41.7043 174.216 500.164
-41.6732 174.983 499.792
-41.5185 175.226 497.936
-41.457 175.858 497.198
-41.0011 174.806 491.731
-40.971 175.559 491.37
-40.971 176.44 491.37
-40.971 177.321 491.37
-40.941 178.071 491.011
-40.7917 178.299 489.22
-40.5551 178.137 486.382
-40.5257 178.88 486.029
-40.4378 179.361 484.975
-40.3212 179.711 483.576
-40.2921 180.448 483.228
-40.2341 181.054 482.533
-40.0899 181.267 480.803
-40.0612 181.998 480.459
-39.9753 182.468 479.428
-39.9467 183.197 479.086
-39.8329 183.531 477.721
-39.8046 184.257 477.381
-39.6353 184.326 475.351
-39.6073 185.047 475.014
-39.4397 185.112 473.005
-39.3287 185.437 471.674
-39.1361 185.37 469.363
-38.9724 185.433 467.401
-62.4689 -168.529 765.663
-62.5403 -167.347 766.538
-62.6118 -166.162 767.415
-62.7554 -165.164 769.175
-62.6118 -163.41 767.415
-62.6118 -162.034 767.415
-62.6118 -160.658 767.415
-62.6118 -159.282 767.415
-62.3977 -157.366 764.79
-61.9036 -154.759 758.734
-61.7638 -153.052 757.021
-61.6247 -151.353 755.316
-61.6942 -150.168 756.167
-61.6942 -148.812 756.167
-61.8336 -147.789 757.876
-61.7638 -146.265 757.021
-62.1849 -145.895 762.182
-62.1849 -144.529 762.182
-61.9036 -142.514 758.734
-61.9036 -141.154 758.734
-61.2797 -138.384 751.087
-61.3484 -137.191 751.929
-61.3484 -135.843 751.929
-61.3484 -134.494 751.929
-61.3484 -133.146 751.929
-61.3484 -131.798 751.929
-61.3484 -130.45 751.929
-61.2797 -128.957 751.087
-61.2797 -127.61 751.087
-61.2111 -126.122 750.247
-61.0745 -124.498 748.572
-56.2991 -108.577 690.042
-56.3571 -107.45 690.752
-56.3571 -106.211 690.752
-56.5318 -105.298 692.893
-56.5318 -104.056 692.893
-56.5318 -102.813 692.893
-56.5318 -101.571 692.893
-56.2991 -99.9155 690.042
-53.6498 -89.318 657.569
-53.4924 -87.8804 655.641
-53.2841 -86.367 653.087
-53.336 -85.279 653.724
-53.1805 -83.8616 651.818
-53.1805 -82.6928 651.818
