ply
format ascii 1.0
element vertex 1929
property float x
property float y
property float z
end_header
-240.443 96.9995 539.598
-239.864 97.7312 538.299
-238.905 98.302 536.147
-238.524 99.105 535.292
-237.954 99.8258 534.013
-237.011 100.384 531.896
-237.387 101.499 532.741
-237.387 102.454 532.741
-237.199 103.327 532.318
-236.448 103.952 530.633
-236.448 104.903 530.633
-235.888 105.604 529.377
-234.592 105.968 526.468
-234.224 106.744 525.643
-233.128 107.183 523.183
-232.947 108.037 522.775
-232.584 108.804 521.961
-231.682 109.315 519.938
-231.145 109.991 518.732
-230.077 110.409 516.336
-230.255 111.421 516.734
-230.255 112.348 516.734
-229.724 113.013 515.542
-228.32 113.241 512.391
-227.278 113.639 510.054
-226.933 114.38 509.279
-226.933 115.293 509.279
-226.761 116.118 508.893
-226.933 117.119 509.279
-226.933 118.032 509.279
-226.246 118.585 507.737
-225.563 119.135 506.204
-224.884 119.682 504.681
-225.392 120.859 505.822
-224.546 121.309 503.922
-224.209 122.029 503.166
-222.871 122.198 500.164
-221.879 122.547 497.936
-220.243 122.53 494.267
-219.919 123.234 493.54
-219.758 124.028 493.177
-219.435 124.729 492.453
-218.953 125.336 491.37
-217.994 125.665 489.22
-217.836 126.45 488.863
-217.202 126.956 487.442
-216.73 127.552 486.382
-216.573 128.331 486.029
-215.791 128.736 484.275
-215.169 129.232 482.88
-214.86 129.91 482.186
-214.552 130.587 481.493
-214.244 131.262 480.803
-212.719 131.184 477.381
-211.965 131.572 475.688
-211.965 132.425 475.688
-211.965 133.278 475.688
-212.115 134.226 476.026
-211.665 134.792 475.014
-207.549 134.677 465.778
-207.549 136.348 465.778
-209 138.142 469.035
-209.147 139.08 469.363
-209.293 140.02 469.692
-209.147 140.764 469.363
-209.147 141.605 469.363
-208.563 142.049 468.053
-206.974 141.8 464.488
-205.55 141.652 461.293
-205.409 142.381 460.976
-204.846 144.464 459.712
-204.566 145.089 459.083
-204.007 145.514 457.83
-203.868 146.235 457.517
-204.286 147.357 458.456
-203.59 147.675 456.894
-202.487 147.689 454.418
-201.531 147.803 452.273
-201.531 148.614 452.273
-201.531 149.425 452.273
-201.667 150.337 452.578
-201.531 151.047 452.273
-201.124 151.551 451.36
-199.38 151.039 447.445
-194.072 155.609 435.533
-193.82 156.187 434.968
-193.569 156.764 434.404
-193.569 157.542 434.404
-193.569 158.321 434.404
-193.569 159.1 434.404
-193.318 159.673 433.842
-193.694 160.762 434.686
-193.194 161.124 433.562
-351.023 -52.1216 790.944
-350.197 -50.584 789.083
-351.023 -49.2851 790.944
-349.375 -47.6421 787.231
-348.966 -46.1763 786.308
-348.966 -44.7663 786.308
-348.149 -43.2549 784.468
-346.528 -41.6534 780.815
-346.528 -40.2533 780.815
-344.523 -38.6283 776.297
-342.54 -37.022 771.83
-342.54 -35.6381 771.83
-341.362 -34.1362 769.175
-339.803 -32.6074 765.663
-336.728 -29.5913 758.734
-331.478 -26.4513 746.905
-332.962 -25.2244 750.247
-332.962 -23.8791 750.247
-330.742 -22.3835 745.245
-330.375 -21.0238 744.418
-328.552 -19.5803 740.31
-329.278 -18.2932 741.947
-328.552 -16.9254 740.31
-327.828 -15.5635 738.679
-327.828 -14.239 738.679
-327.467 -12.9002 737.866
-326.39 -11.539 735.439
-319.386 -10.001 719.657
-315.326 -8.5998 710.509
-316.331 -7.34911 712.774
-314.659 -6.03892 709.007
-315.326 -4.77767 710.509
-314.992 -3.49991 709.757
-315.995 -2.23431 712.017
-313.995 -0.951501 707.511
-313.665 0.316833 706.765
-313.995 1.58584 707.511
-311.043 2.82766 700.857
-309.105 4.05895 696.491
-308.784 5.30235 695.768
-307.826 6.52964 693.609
-306.242 7.7334 690.042
-306.242 8.97074 690.042
-304.364 10.1455 685.808
-303.743 11.352 684.409
-303.743 12.5792 684.409
-303.433 13.7924 683.711
-302.201 14.9574 680.934
-301.283 16.1293 678.867
-301.283 17.3466 678.867
-300.068 18.4891 676.129
-299.766 19.6816 675.449
-299.464 20.8718 674.769
-299.464 22.0817 674.769
-298.863 23.2449 673.414
-296.482 24.2576 668.048
-294.72 25.3043 664.08
-294.138 26.4427 662.767
-292.117 27.4413 658.214
-289.842 28.3987 653.087
-289.842 29.5697 653.087
-289.279 30.6811 651.818
-288.998 31.8189 651.185
-287.602 32.8273 648.039
-287.324 33.9565 647.414
-287.324 35.1174 647.414
-284.849 35.9658 641.838
-285.122 37.1523 642.452
-285.122 38.3043 642.452
-285.122 39.4563 642.452
-284.034 40.4533 640
-283.493 41.5217 638.781
-283.223 42.6265 638.174
-281.084 43.4402 633.353
-280.554 44.4919 632.159
-280.026 45.5396 630.969
-279.5 46.5834 629.784
-278.976 47.6232 628.604
-278.715 48.7048 628.015
-278.715 49.8309 628.015
-277.934 50.8143 626.256
-273.34 52.1832 615.905
-272.839 53.1899 614.776
-272.589 54.2425 614.213
-270.607 54.9414 609.746
-270.853 56.0858 610.301
-269.627 56.9212 607.537
-268.896 57.8533 605.89
-268.653 58.8866 605.343
-268.169 59.864 604.253
-266.727 60.6198 601.004
-266.25 61.5872 599.929
-265.065 62.3839 597.258
-265.065 63.4549 597.258
-265.301 64.5834 597.79
-265.065 65.5968 597.258
-264.593 66.5493 596.196
-264.358 67.5583 595.666
-263.19 68.323 593.033
-261.571 68.9596 589.385
-260.199 69.6492 586.294
-259.292 70.4542 584.251
-258.617 71.3155 582.728
-257.944 72.1723 581.214
-257.275 73.0246 579.706
-255.948 73.682 576.716
-255.948 74.7162 576.716
-255.948 75.7503 576.716
-255.948 76.7844 576.716
-255.509 77.685 575.726
-254.634 78.448 573.756
-253.766 79.2058 571.799
-253.55 80.1628 571.312
-252.475 80.8429 568.889
-252.475 81.863 568.889
-252.475 82.8831 568.889
-252.047 83.7611 567.926
-249.094 84.7927 561.272
-248.678 85.6558 560.335
-247.644 86.3001 558.004
-247.438 87.2281 557.54
-247.027 88.0814 556.615
-245.6 88.565 553.4
-245.398 89.4835 552.943
-244.994 90.3261 552.033
-243.99 90.9417 549.771
-243.391 91.702 548.422
-243.193 92.6097 547.974
-242.598 93.3634 546.634
-242.598 94.3436 546.634
-242.4 95.2462 546.189
-242.203 96.1473 545.745
-240.831 96.5758 542.654
-239.475 96.9995 539.598
-238.134 97.4185 536.576
-237.754 98.2235 535.719
-237.375 99.026 534.865
-236.808 99.7464 533.588
-236.244 100.463 532.318
-236.432 101.499 532.741
-236.432 102.454 532.741
-236.057 103.245 531.896
-235.125 103.787 529.795
-235.125 104.737 529.795
-234.754 105.521 528.959
-234.2 106.218 527.711
-233.648 106.912 526.468
-232.553 107.35 524
-230.393 107.284 519.133
-230.393 108.215 519.133
-230.215 109.061 518.732
-229.859 109.822 517.931
-228.975 110.324 515.939
-227.923 110.738 513.568
-227.749 111.574 513.176
-227.575 112.408 512.783
-227.227 113.155 512
-226.363 113.639 510.054
-226.019 114.38 509.279
-226.019 115.293 509.279
-225.677 116.03 508.507
-224.994 116.588 506.969
-224.994 117.497 506.969
-224.825 118.317 506.586
-224.485 119.045 505.822
-224.316 119.862 505.441
-224.485 120.859 505.822
-223.979 121.491 504.681
-223.474 122.121 503.544
-221.974 122.198 500.164
-220.986 122.547 497.936
-220.495 123.165 496.83
-219.519 123.507 494.632
-218.392 124.638 492.091
-217.117 124.788 489.22
-217.117 125.665 489.22
-216.959 126.45 488.863
-216.486 127.049 487.797
-215.701 127.46 486.029
-215.701 128.331 486.029
-215.545 129.109 485.677
-214.458 129.325 483.228
-214.304 130.097 482.88
-213.688 130.587 481.493
-212.014 130.421 477.721
-212.014 131.277 477.721
-211.863 132.04 477.381
-211.863 132.896 477.381
-211.863 133.752 477.381
-211.863 134.608 477.381
-211.112 134.984 475.688
-210.813 135.644 475.014
-207.289 135.052 467.075
-207.289 135.89 467.075
-207.145 136.632 466.75
-207.434 137.661 467.401
-208.305 139.08 469.363
-208.597 140.118 470.021
-208.451 140.862 469.692
-207.579 141.111 467.727
-205.005 141.019 461.929
-204.864 141.749 461.611
-204.583 142.381 460.976
-204.162 142.913 460.028
-204.162 143.738 460.028
-204.022 144.464 459.712
-203.882 145.189 459.398
-203.882 146.012 459.398
-203.882 146.836 459.398
-204.022 147.761 459.712
-203.882 148.484 459.398
-201.535 147.589 454.11
-200.855 147.903 452.578
-200.585 149.324 451.968
-200.585 150.135 451.968
-200.585 150.945 451.968
-199.509 150.942 449.545
-198.578 151.039 447.445
-193.416 155.71 435.816
-193.165 156.288 435.25
-192.915 156.865 434.686
-192.79 157.542 434.404
-192.915 158.424 434.686
-192.79 159.1 434.404
-192.541 159.673 433.842
-192.915 160.762 434.686
-192.292 161.02 433.282
-351.262 -53.7936 794.692
-351.262 -52.3686 794.692
-350.846 -50.8834 793.752
-350.846 -49.4601 793.752
-348.372 -47.6981 788.156
-347.964 -46.2305 787.231
-347.556 -44.7663 786.308
-345.933 -43.154 782.638
-345.128 -41.6534 780.815
-344.727 -40.2065 779.907
-341.55 -38.4503 772.719
-341.156 -37.022 771.83
-341.156 -35.6381 771.83
-339.983 -34.1362 769.175
-338.43 -32.6074 765.663
-336.892 -31.0925 762.182
-335.368 -29.5913 758.734
-330.139 -26.4513 746.905
-331.616 -25.2244 750.247
-329.772 -23.7463 746.074
-329.406 -22.3835 745.245
-327.948 -20.9541 741.947
-327.948 -19.6237 741.947
-326.503 -18.2127 738.679
-327.224 -16.9254 740.31
-326.144 -15.5464 737.866
-325.071 -14.1765 735.439
-322.245 -12.746 729.044
-320.503 -11.3769 725.103
-317.755 -9.99025 718.886
-315.724 -8.64559 714.292
-315.388 -7.35693 713.532
-314.719 -6.06456 712.017
-314.719 -4.78781 712.017
-314.719 -3.51106 712.017
-315.053 -2.23669 712.774
-313.388 -0.953513 709.007
-313.057 0.317502 708.258
-312.727 1.58584 707.511
-311.413 2.84251 704.538
-308.818 4.07163 698.667
-308.818 5.32444 698.667
-307.856 6.55676 696.491
-306.582 7.77338 693.609
-306.9 9.02646 694.328
-303.134 11.3752 685.808
-302.515 12.5792 684.409
-301.592 13.7643 682.32
-300.37 14.9271 679.555
-300.066 16.1293 678.867
-299.762 17.3291 678.18
-298.555 18.4704 675.449
-297.955 19.642 674.091
-297.656 20.8299 673.414
-297.656 22.0374 673.414
-297.059 23.1983 672.065
-295.578 24.2818 668.714
-295.284 25.4555 668.048
-293.53 26.4951 664.08
-291.223 27.4683 658.861
-288.952 28.4263 653.724
-288.671 29.5697 653.087
-288.11 30.6811 651.818
-287.551 31.7881 650.553
-286.717 32.859 648.666
-286.44 33.9893 648.039
-286.163 35.1174 647.414
-284.243 36.0348 643.068
-284.243 37.1879 643.068
-283.97 38.3043 642.452
-283.699 39.4186 641.838
-282.079 40.3379 638.174
-282.079 41.4822 638.174
-282.079 42.6265 638.174
-280.213 43.4813 633.951
-279.157 44.45 631.564
-278.11 45.4114 629.194
-277.849 46.496 628.604
-277.849 47.6232 628.604
-277.849 48.7504 628.604
-277.589 49.8309 628.015
-277.329 50.9093 627.428
-272.988 52.3273 617.606
-271.986 53.2387 615.34
-270.992 54.1434 613.09
-269.759 54.9914 610.301
-269.759 56.0858 610.301
-269.024 57.0245 608.639
-267.809 57.8533 605.89
-267.568 58.8866 605.343
-267.809 60.0262 605.89
-267.086 60.9475 604.253
-265.888 61.7529 601.543
-265.174 62.6629 599.929
-264.701 63.6249 598.858
-265.174 64.8144 599.929
-264.701 65.7725 598.858
-263.994 66.6678 597.258
-263.759 67.6785 596.726
-261.664 68.2024 591.986
-260.285 68.8991 588.868
-259.148 69.6492 586.294
-258.245 70.4542 584.251
-257.796 71.3775 583.235
-256.902 72.1723 581.214
-256.458 73.0878 580.208
-255.353 73.809 577.709
-254.914 74.7162 576.716
-254.914 75.7503 576.716
-254.914 76.7844 576.716
-254.476 77.685 575.726
-253.389 78.3809 573.265
-252.741 79.2058 571.799
-252.526 80.1628 571.312
-252.096 81.0491 570.34
-252.096 82.0718 570.34
-252.096 83.0945 570.34
-250.816 83.6903 567.445
-248.504 83.9267 562.213
-248.504 84.9349 562.213
-247.88 85.7274 560.803
-247.054 86.4439 558.934
-246.643 87.3006 558.004
-246.233 88.1545 557.077
-245.215 88.7848 554.773
-244.608 89.5573 553.4
-244.205 90.4005 552.488
-243.203 91.0163 550.222
-242.606 91.777 548.871
-242.408 92.6854 548.422
-241.618 93.3634 546.634
-241.421 94.2668 546.189
-241.421 95.2462 546.189
-240.442 95.8354 543.974
-239.664 96.4978 542.215
-238.508 96.9995 539.598
-237.933 97.7312 538.299
-236.982 98.302 536.147
-236.793 99.1841 535.719
-236.415 99.985 534.865
-235.664 100.623 533.164
-236.415 101.903 534.865
-234.917 102.21 531.474
-234.175 102.837 529.795
-233.805 103.624 528.959
-233.621 104.49 528.542
-232.704 105.024 526.468
-232.339 105.802 525.643
-232.157 106.661 525.231
-230.892 107.016 522.368
-230.175 107.617 520.746
-229.462 108.215 519.133
-229.462 109.146 519.133
-228.93 109.822 517.931
-228.05 110.324 515.939
-227.875 111.164 515.542
-226.655 112.408 512.783
-226.137 113.068 511.61
-225.449 113.639 510.054
-224.935 114.293 508.893
-224.935 115.205 508.893
-224.425 115.854 507.737
-222.571 118.509 503.544
-222.906 119.592 504.301
-223.747 120.951 506.204
-222.404 121.127 503.166
-221.739 121.664 501.661
-221.243 122.289 500.538
-221.078 123.095 500.164
-218.471 122.53 494.267
-217.989 123.144 493.177
-217.35 123.664 491.731
-217.35 124.546 491.731
-216.398 124.879 489.577
-216.082 125.573 488.863
-215.768 126.266 488.152
-214.83 126.588 486.029
-214.519 127.275 485.326
-214.519 128.146 485.326
-214.209 128.829 484.625
-213.438 129.232 482.88
-212.672 129.631 481.148
-212.52 130.4 480.803
-210.707 130.143 476.703
-211.007 131.184 477.381
-211.007 132.04 477.381
-211.459 133.18 478.403
-211.308 133.943 478.062
-211.157 134.704 477.721
-210.259 134.984 475.688
-209.812 135.548 474.678
-208.631 135.631 472.006
-207.9 135.999 470.351
-208.046 136.939 470.681
-207.754 137.59 470.021
-207.463 138.239 469.363
-207.609 139.178 469.692
-207.609 140.02 469.692
-206.74 140.273 467.727
-206.308 140.817 466.75
-205.878 141.359 465.778
-204.036 141.749 461.611
-203.756 142.381 460.976
-203.337 142.913 460.028
-203.197 143.64 459.712
-203.058 144.365 459.398
-202.919 145.089 459.083
-203.058 146.012 459.398
-203.058 146.836 459.398
-203.197 147.761 459.712
-203.058 148.484 459.398
-200.45 147.389 453.496
-199.64 147.604 451.664
-199.774 148.514 451.968
-199.64 149.224 451.664
-199.774 150.135 451.968
-199.774 150.945 451.968
-198.703 150.942 449.545
-198.172 151.342 448.343
-194.786 155.078 440.684
-194.531 155.664 440.105
-192.635 155.71 435.816
-192.385 156.288 435.25
-192.135 156.865 434.686
-192.135 157.645 434.686
-192.135 158.424 434.686
-192.135 159.203 434.686
-191.763 159.673 433.842
-192.011 160.658 434.404
-191.515 161.02 433.282
-351.503 -52.618 798.477
-349.837 -50.9436 794.692
-350.668 -49.6363 796.58
-347.367 -47.7542 789.083
-346.552 -46.2305 787.231
-345.74 -44.7139 785.387
-344.129 -43.1037 781.725
-343.328 -41.6049 779.907
-343.328 -40.2065 779.907
-340.164 -38.4503 772.719
-339.772 -37.022 771.83
-340.164 -35.6791 772.719
-337.829 -34.0581 767.415
-337.057 -32.6074 765.663
-335.525 -31.0925 762.182
-334.764 -29.6584 760.454
-330.271 -27.915 750.247
-329.534 -26.5104 748.572
-328.8 -25.112 746.905
-328.8 -23.7727 746.905
-328.069 -22.3835 745.245
-327.705 -21.0238 744.418
-328.069 -19.7109 745.245
-328.069 -18.3745 745.245
-326.618 -16.9628 741.947
-323.752 -15.4953 735.439
-322.339 -14.1146 732.228
-320.937 -12.746 729.044
-319.548 -11.3892 725.888
-317.145 -10.0117 720.43
-313.775 -8.62721 712.774
-313.775 -7.34911 712.774
-313.775 -6.071 712.774
-313.775 -4.7929 712.774
-313.775 -3.51479 712.774
-314.443 -2.24145 714.292
-313.775 -0.958579 712.774
-314.109 0.319866 713.532
-314.109 1.59933 713.532
-312.778 2.8666 710.509
-308.207 4.08013 700.126
-307.565 5.32444 698.667
-306.289 6.54996 695.768
-305.971 7.78949 695.047
-305.971 9.03581 695.047
-302.523 11.3985 687.214
-300.981 12.5664 683.711
-299.759 13.7364 680.934
-298.848 14.912 678.867
-298.546 16.113 678.18
-298.245 17.3116 677.495
-297.045 18.4518 674.769
-296.448 19.6223 673.414
-296.151 20.809 672.739
-296.151 22.0153 672.739
-295.854 23.1983 672.065
-293.793 24.2335 667.384
-293.501 25.4049 666.72
-291.761 26.4427 662.767
-289.473 27.4144 657.569
-288.061 28.4541 654.361
-287.5 29.5697 653.087
-287.22 30.7109 652.452
-287.5 31.9119 653.087
-287.22 33.0508 652.452
-286.662 34.1543 651.185
-286.384 35.2877 650.553
-284.727 36.2433 646.789
-283.089 37.1879 643.068
-282.818 38.3043 642.452
-282.277 39.3809 641.224
-280.935 40.3379 638.174
-280.935 41.4822 638.174
-280.668 42.586 637.567
-278.812 43.4402 633.353
-277.763 44.4082 630.969
-276.722 45.3689 628.604
-276.463 46.4525 628.015
-276.463 47.5786 628.015
-276.204 48.6592 627.428
-276.204 49.7843 627.428
-276.463 50.957 628.015
-271.381 51.1257 616.471
-270.387 52.0398 614.213
-270.387 53.1412 614.213
-268.909 53.9461 610.857
-268.42 54.9414 609.746
-268.42 56.0348 609.746
-266.964 56.8182 606.438
-266.482 57.8011 605.343
-266.723 58.9398 605.89
-266.723 60.0262 605.89
-265.763 60.8927 603.709
-264.572 61.6975 601.004
-264.099 62.6629 599.929
-263.392 63.5681 598.323
-263.157 64.5834 597.79
-262.455 65.4802 596.196
-260.832 66.1377 592.509
-260.372 67.0817 591.464
-259.685 67.9625 589.904
-259.002 68.8386 588.351
-258.322 69.7102 586.807
-257.421 70.5156 584.761
-257.197 71.5018 584.251
-256.527 72.3604 582.728
-255.417 73.0878 580.208
-254.756 73.9363 578.706
-254.317 74.8449 577.709
-254.098 75.8155 577.212
-254.098 76.8505 577.212
-253.662 77.7517 576.22
-253.662 78.785 576.22
-252.145 79.3411 572.776
-251.716 80.2311 571.799
-251.501 81.1872 571.312
-251.287 82.1417 570.826
-251.073 83.0945 570.34
-248.956 83.408 565.532
-246.875 83.7162 560.803
-246.669 84.651 560.335
-246.463 85.5843 559.867
-245.234 86.1567 557.077
-244.828 87.0111 556.153
-243.616 87.5727 553.4
-243.415 88.492 552.943
-242.814 89.2627 551.579
-242.416 90.1036 550.674
-242.018 90.9417 549.771
-241.82 91.8522 549.321
-241.82 92.8372 549.321
-240.834 93.4396 547.08
-240.638 94.3436 546.634
-240.442 95.2462 546.189
-239.661 95.9132 544.416
-238.692 96.4978 542.215
-237.349 96.9216 539.164
-236.21 97.4185 536.576
-235.832 98.2235 535.719
-235.832 99.1841 535.719
-235.644 100.065 535.292
-235.456 100.944 534.865
-235.456 101.903 534.865
-234.149 102.291 531.896
-233.04 102.756 529.377
-232.49 103.46 528.126
-232.124 104.243 527.296
-231.578 104.941 526.055
-231.397 105.802 525.643
-231.216 106.661 525.231
-230.134 107.099 522.775
-229.776 107.868 521.961
-229.241 108.551 520.746
-228.354 109.061 518.732
-227.65 109.652 517.132
-227.125 110.324 515.939
-226.95 111.164 515.542
-226.255 112.667 513.962
-225.563 113.241 512.391
-225.391 114.073 512
-224.193 114.38 509.279
-224.363 115.38 509.666
-223.514 115.854 507.737
-221.668 117.606 503.544
-221.668 118.509 503.544
-221.835 119.502 503.922
-222.336 120.677 505.061
-221.668 121.218 503.544
-220.674 121.573 501.286
-219.363 121.744 498.306
-218.875 122.365 497.198
-217.585 122.53 494.267
-217.105 123.144 493.177
-216.627 123.755 492.091
-216.468 124.546 491.731
-215.677 124.97 489.935
-215.049 125.482 488.507
-214.736 126.174 487.797
-213.958 126.588 486.029
-213.803 127.368 485.677
-213.803 128.238 485.677
-213.649 129.016 485.326
-212.572 129.232 482.88
-211.961 129.724 481.493
-211.506 130.307 480.459
-211.355 131.074 480.115
-211.203 131.841 479.771
-210.751 132.417 478.744
-210.902 133.371 479.086
-210.451 133.943 478.062
-209.852 134.417 476.703
-209.257 134.888 475.351
-208.519 135.261 473.673
-207.785 135.631 472.006
-207.493 136.286 471.343
-206.622 139.08 469.363
-206.045 139.531 468.053
-205.758 140.175 467.401
-205.471 140.817 466.75
-205.471 141.654 466.75
-203.349 141.847 461.929
-202.929 142.381 460.976
-202.373 142.815 459.712
-202.234 143.541 459.398
-201.82 144.069 458.456
-202.096 145.089 459.083
-202.234 146.012 459.398
-202.234 146.836 459.398
-202.234 147.66 459.398
-199.098 146.992 452.273
-198.83 147.604 451.664
-198.964 148.514 451.968
-198.964 149.324 451.968
-198.964 150.135 451.968
-198.964 150.945 451.968
-198.562 151.449 451.056
-197.764 151.646 449.243
-196.842 151.74 447.147
-196.71 152.441 446.849
-194.124 155.18 440.973
-193.615 155.562 439.817
-192.103 155.913 436.383
-191.604 156.288 435.25
-191.356 156.865 434.686
-191.108 157.441 434.123
-191.232 158.321 434.404
-191.232 159.1 434.404
-190.861 159.569 433.562
-190.861 160.347 433.562
-348.412 -52.3686 794.692
-348.412 -50.9436 794.692
-348.825 -49.5774 795.635
-346.768 -47.8668 790.944
-344.736 -46.1763 786.308
-343.528 -44.6094 783.552
-342.328 -43.0535 780.815
-341.93 -41.6049 779.907
-341.136 -40.1132 778.098
-338.778 -38.4503 772.719
-338.388 -37.022 771.83
-338.388 -35.6381 771.83
-337.224 -34.1362 769.175
-335.684 -32.6074 765.663
-335.302 -31.1988 764.79
-333.023 -29.6248 759.593
-328.926 -27.915 750.247
-326.733 -26.3925 745.245
-326.733 -25.0562 745.245
-327.096 -23.7463 746.074
-326.37 -22.3587 744.418
-326.008 -21.0005 743.593
-325.287 -19.6237 741.947
-323.854 -18.2127 738.679
-323.498 -16.8695 737.866
-322.434 -15.4953 735.439
-321.026 -14.1146 732.228
-318.591 -12.7046 726.674
-317.902 -11.3769 725.103
-315.515 -10.001 719.657
-314.166 -8.6733 716.582
-313.163 -7.36476 714.292
-312.829 -6.07746 713.532
-312.829 -4.798 713.532
-312.497 -3.51479 712.774
-312.497 -2.23669 712.774
-312.165 -0.957562 712.017
-312.829 0.319866 713.532
-307.272 4.0844 700.857
-306.312 5.32444 698.667
-305.358 6.55676 696.491
-304.725 7.78949 695.047
-303.781 9.00781 692.893
-301.291 10.1662 687.214
-300.982 11.3869 686.51
-300.061 12.5792 684.409
-299.755 13.7924 683.711
-298.841 14.9726 681.626
-297.933 16.1456 679.555
-297.631 17.3466 678.867
-295.835 18.4518 674.769
-295.537 19.642 674.091
-295.241 20.8299 673.414
-295.241 22.0374 673.414
-294.06 23.1519 670.72
-292.306 24.2094 666.72
-290.86 25.2793 663.423
-288.86 26.2869 658.861
-288.011 27.3876 656.925
-286.329 28.3987 653.087
-286.05 29.541 652.452
-286.05 30.7109 652.452
-286.05 31.8808 652.452
-286.05 33.0508 652.452
-285.772 34.1875 651.818
-284.941 35.2535 649.923
-282.75 36.1387 644.923
-282.207 37.2236 643.686
-281.936 38.341 643.068
-281.666 39.4563 642.452
-280.591 40.4533 640
-280.591 41.6009 640
-280.324 42.7078 639.39
-277.415 43.3992 632.755
-276.632 44.4082 630.969
-276.112 45.4541 629.784
-275.595 46.496 628.604
-275.595 47.6232 628.604
-275.337 48.7048 628.015
-275.337 49.8309 628.015
-273.036 50.5312 622.767
-270.773 51.2199 617.606
-269.532 52.0875 614.776
-269.532 53.1899 614.776
-268.548 54.0939 612.53
-267.57 54.9914 610.301
-267.327 56.0348 609.746
-265.637 56.7669 605.89
-265.157 57.749 604.797
-265.397 58.8866 605.343
-265.637 60.0262 605.89
-265.397 61.0575 605.343
-263.967 61.8083 602.083
-263.494 62.7752 601.004
-263.494 63.8529 601.004
-263.023 64.8144 599.929
-261.386 65.4802 596.196
-259.77 66.1377 592.509
-259.541 67.1409 591.986
-259.312 68.1423 591.464
-258.173 68.8991 588.868
-257.721 69.8324 587.836
-257.27 70.7624 586.807
-256.373 71.5642 584.761
-255.482 72.3604 582.728
-254.597 73.1511 580.71
-254.157 74.0641 579.706
-254.157 75.1036 579.706
-253.937 76.0774 579.206
-253.937 77.116 579.206
-252.846 77.8186 576.716
-252.846 78.8527 576.716
-251.763 79.5449 574.247
-250.904 80.2996 572.287
-250.69 81.2564 571.799
-250.477 82.2117 571.312
-248.361 82.5331 566.487
-246.694 82.9882 562.685
-245.869 83.7162 560.803
-245.254 84.5098 559.4
-245.05 85.4416 558.934
-244.236 86.1567 557.077
-243.024 86.7234 554.314
-242.423 87.5005 552.943
-242.423 88.492 552.943
-242.224 89.4098 552.488
-241.627 90.1776 551.126
-241.23 91.0163 550.222
-240.835 91.8522 549.321
-240.835 92.8372 549.321
-239.657 93.3634 546.634
-239.657 94.3436 546.634
-239.462 95.2462 546.189
-236.572 96.032 539.598
-235.814 96.6884 537.867
-235.248 97.4185 536.576
-235.06 98.302 536.147
-235.06 99.2634 536.147
-235.06 100.225 536.147
-234.872 101.105 535.719
-234.497 101.903 534.865
-233.011 102.21 531.474
-231.908 102.675 528.959
-231.725 103.542 528.542
-231.725 104.49 528.542
-230.816 105.024 526.468
-230.454 105.802 525.643
-230.454 106.744 525.643
-230.094 107.518 524.82
-229.197 108.037 522.775
-228.485 108.635 521.15
-227.6 109.146 519.133
-227.424 109.991 518.732
-226.374 110.409 516.336
-226.2 111.25 515.939
-226.026 112.088 515.542
-224.816 112.408 512.783
-224.302 113.068 511.61
-223.619 113.639 510.054
-223.28 114.38 509.279
-222.435 114.857 507.353
-222.267 115.679 506.969
-220.6 117.518 503.166
-220.104 118.154 502.036
-220.104 119.054 502.036
-220.104 119.955 502.036
-219.611 120.584 500.911
-219.447 121.392 500.538
-218.957 122.016 499.42
-217.5 122.093 496.095
-216.379 122.349 493.54
-216.379 123.234 493.54
-215.903 123.846 492.453
-215.744 124.638 492.091
-215.428 125.336 491.37
-213.241 125.808 486.382
-213.087 126.588 486.029
-212.932 127.368 485.677
-212.932 128.238 485.677
-212.932 129.109 485.677
-211.706 129.232 482.88
-210.795 129.538 480.803
-210.343 130.12 479.771
-210.193 130.887 479.428
-210.343 131.841 479.771
-210.043 132.512 479.086
-209.893 133.275 478.744
-209.593 133.943 478.062
-209.146 134.512 477.042
-208.257 134.792 475.014
-207.816 135.357 474.007
-207.084 135.727 472.338
-206.938 136.478 472.006
-204.777 139.24 467.075
-204.35 139.785 466.102
-204.35 140.621 466.102
-204.634 141.654 466.75
-202.381 141.749 461.611
-202.242 142.479 461.293
-201.964 143.109 460.66
-201.687 143.738 460.028
-201.549 144.464 459.712
-201.549 145.288 459.712
-201.549 146.113 459.712
-201.411 146.836 459.398
-201.135 147.458 458.769
-198.555 147.19 452.883
-198.153 147.703 451.968
-198.287 148.614 452.273
-198.287 149.425 452.273
-198.287 150.236 452.273
-198.689 151.353 453.189
-198.555 152.063 452.883
-196.564 151.342 448.343
-195.779 151.538 446.552
-195.648 152.238 446.254
-195.388 152.835 445.661
-192.952 154.875 440.105
-192.826 155.562 439.817
-192.07 155.738 438.093
-191.82 156.319 437.521
-190.948 156.39 435.533
-190.7 156.967 434.968
-190.207 157.339 433.842
-190.453 158.321 434.404
-190.207 158.895 433.842
-189.961 159.466 433.282
-189.594 159.933 432.444
-346.576 -53.73 793.752
-346.987 -52.3686 794.692
-346.987 -50.9436 794.692
-346.576 -49.4601 793.752
-344.538 -47.7542 789.083
-342.924 -46.1222 785.387
-342.123 -44.6094 783.552
-340.531 -43.0034 779.907
-340.531 -41.6049 779.907
-338.955 -40.0203 776.297
-337.004 -38.4061 771.83
-335.845 -36.8947 769.175
-336.231 -35.5562 770.058
-335.077 -34.0581 767.415
-332.792 -32.4592 762.182
-331.661 -30.9868 759.593
-330.538 -29.5245 757.021
-328.683 -28.009 752.773
-327.58 -26.5697 750.247
-327.947 -25.2526 751.087
-326.849 -23.8258 748.572
-325.759 -22.4084 746.074
-325.035 -21.0238 744.418
-325.035 -19.689 744.418
-325.035 -18.3542 744.418
-324.675 -17.0004 743.593
-319.016 -14.0839 730.632
-317.632 -12.7183 727.462
-316.602 -11.3769 725.103
-314.562 -10.0117 720.43
-313.887 -8.70119 718.886
-312.214 -7.37261 715.054
-311.219 -6.071 712.774
-311.55 -4.798 713.532
-311.219 -3.51479 712.774
-311.219 -2.23669 712.774
-310.23 -0.955533 710.509
-310.888 0.319187 712.017
-310.888 1.59594 712.017
-304.109 7.80567 696.491
-303.164 9.02646 694.328
-300.983 10.1976 689.332
-300.674 11.4219 688.625
-299.139 12.5921 685.108
-298.834 13.8065 684.409
-297.922 14.9878 682.32
-296.714 16.1456 679.555
-296.414 17.3466 678.867
-294.625 18.4518 674.769
-294.625 19.6618 674.769
-294.329 20.8508 674.091
-294.329 22.0595 674.091
-291.4 23.0367 667.384
-290.533 24.1613 665.397
-289.671 25.2793 663.423
-287.396 26.2611 658.214
-286.833 27.3876 656.925
-285.158 28.3987 653.087
-285.158 29.5697 653.087
-284.88 30.7109 652.452
-284.88 31.8808 652.452
-283.227 32.859 648.666
-283.227 34.0222 648.666
-282.68 35.1174 647.414
-281.593 36.1387 644.923
-281.593 37.2952 644.923
-280.514 38.3043 642.452
-278.381 39.1563 637.567
-277.853 40.223 636.357
-277.853 41.3641 636.357
-277.589 42.4649 635.754
-276.541 43.4402 633.353
-276.02 44.4919 632.159
-275.76 45.5825 631.564
-275.241 46.6271 630.376
-274.725 47.6679 629.194
-273.954 48.6592 627.428
-273.954 49.7843 627.428
-271.667 50.4843 622.19
-269.914 51.2671 618.175
-269.17 52.2311 616.471
-268.676 53.2387 615.34
-268.184 54.2425 614.213
-266.234 54.9414 609.746
-265.269 55.8318 607.537
-264.073 56.6645 604.797
-263.835 57.697 604.253
-264.073 58.8335 604.797
-264.55 60.0262 605.89
-264.55 61.1127 605.89
-263.598 61.9752 603.709
-262.652 62.8315 601.543
-262.417 63.8529 601.004
-261.947 64.8144 599.929
-260.549 65.5385 596.726
-258.708 66.1377 592.509
-258.479 67.1409 591.986
-258.479 68.2024 591.986
-257.57 69.0202 589.904
-257.118 69.955 588.868
-256.892 70.9486 588.351
-256.442 71.8775 587.321
-255.324 72.6127 584.761
-254.216 73.3416 582.223
-253.117 74.0641 579.706
-253.117 75.1036 579.706
-252.681 76.0117 578.706
-252.245 76.9167 577.709
-251.812 77.8186 576.716
-251.812 78.8527 576.716
-250.519 79.4768 573.756
-249.878 80.2996 572.287
-249.665 81.2564 571.799
-249.028 82.0718 570.34
-246.72 82.3245 565.055
-246.513 83.2676 564.579
-245.069 83.7863 561.272
-244.251 85.5129 559.4
-243.237 86.1567 557.077
-242.231 86.7952 554.773
-241.631 87.5727 553.4
-241.432 88.492 552.943
-241.233 89.4098 552.488
-240.441 90.1036 550.674
-240.047 90.9417 549.771
-239.85 91.8522 549.321
-239.458 92.6854 548.422
-238.677 93.3634 546.634
-238.483 94.2668 546.189
-237.902 95.0141 544.858
-235.605 95.0644 539.598
-235.226 95.8777 538.731
-234.286 96.4564 536.576
-234.286 97.4185 536.576
-233.911 98.2235 535.719
-233.911 99.1841 535.719
-233.725 100.065 535.292
-233.538 100.944 534.865
-233.166 101.741 534.013
-231.142 102.756 529.377
-230.778 103.542 528.542
-230.778 104.49 528.542
-230.415 105.272 527.711
-229.692 105.885 526.055
-229.332 106.661 525.231
-229.332 107.602 525.231
-228.616 108.205 523.591
-228.259 108.974 522.775
-227.904 109.74 521.961
-226.669 110.077 519.133
-225.622 110.494 516.734
-225.448 111.335 516.336
-225.448 112.261 516.336
-224.24 112.58 513.568
-223.726 113.241 512.391
-222.874 113.725 510.442
-222.029 114.206 508.507
-221.024 114.597 506.204
-221.024 115.504 506.204
-219.368 115.54 502.412
-219.04 116.267 501.661
-218.877 117.079 501.286
-218.55 117.802 500.538
-218.387 118.611 500.164
-218.387 119.507 500.164
-218.55 120.494 500.538
-218.224 121.211 499.792
-217.092 121.473 497.198
-215.653 121.554 493.903
-215.494 122.349 493.54
-215.178 123.053 492.814
-214.862 123.755 492.091
-214.704 124.546 491.731
-212.523 125.026 486.735
-212.369 125.808 486.382
-212.215 126.588 486.029
-212.061 127.368 485.677
-212.061 128.238 485.677
-211.602 128.829 484.625
-210.084 128.768 481.148
-209.783 129.445 480.459
-209.333 130.027 479.428
-209.034 130.7 478.744
-208.885 131.465 478.403
-208.736 132.228 478.062
-208.588 132.991 477.721
-208.439 133.752 477.381
-207.995 134.321 476.364
-206.966 134.507 474.007
-206.237 134.88 472.338
-206.092 135.631 472.006
-205.947 136.382 471.674
-205.802 137.131 471.343
-205.802 137.976 471.343
-204.081 138.499 467.401
-204.081 139.337 467.401
-203.939 140.077 467.075
-203.797 140.817 466.75
-203.939 141.752 467.075
-203.656 142.392 466.426
-202.95 142.732 464.81
-201.553 142.577 461.611
-201.415 143.306 461.293
-201.415 144.133 461.293
-201 144.662 460.343
-201.276 145.688 460.976
-201.415 146.615 461.293
-201 147.139 460.343
-200.587 147.66 459.398
-197.609 147.091 452.578
-196.548 147.108 450.148
-196.548 147.916 450.148
-196.416 148.623 449.846
-196.285 149.33 449.545
-196.285 150.136 449.545
-196.285 150.942 449.545
-196.022 151.545 448.943
-195.368 151.842 447.445
-195.238 152.542 447.147
-195.108 153.242 446.849
-192.289 154.977 440.394
-192.163 155.664 440.105
-191.911 156.248 439.528
-191.16 156.421 437.807
-190.414 156.593 436.099
-189.92 156.967 434.968
-189.551 157.441 434.123
-189.674 158.321 434.404
-189.429 158.895 433.842
-189.306 159.569 433.562
-189.184 160.243 433.282
-345.562 -55.2186 794.692
-345.562 -53.7936 794.692
-345.153 -52.3067 793.752
-345.153 -50.8834 793.752
-345.153 -49.4601 793.752
-342.317 -47.6421 787.231
-340.718 -46.0144 783.552
-339.528 -44.4536 780.815
-339.133 -43.0034 779.907
-338.346 -41.5084 778.098
-337.563 -40.0203 776.297
-335.235 -38.3619 770.943
-334.85 -36.937 770.058
-334.85 -35.5562 770.058
-333.7 -34.0581 767.415
-332.939 -32.6074 765.663
-329.926 -30.9518 758.734
-328.439 -29.458 755.316
-327.701 -28.0404 753.618
-326.6 -26.5994 751.087
-326.6 -25.2526 751.087
-326.235 -23.8791 750.247
-324.421 -22.4084 746.074
-324.782 -21.0941 746.905
-324.06 -19.7109 745.245
-324.06 -18.3745 745.245
-323.701 -17.0193 744.418
-316.328 -14.0228 727.462
-315.985 -12.7046 726.674
-315.643 -11.3892 725.888
-314.283 -10.0441 722.759
-313.27 -8.71988 720.43
-312.598 -7.41212 718.886
-310.601 -6.08393 714.292
-310.27 -4.798 713.532
-309.941 -3.51479 712.774
-309.941 -2.23669 712.774
-309.941 -0.958579 712.774
-310.601 0.320207 714.292
-310.601 1.60104 714.292
-305.717 2.83655 703.061
-304.759 4.0844 700.857
-303.49 5.3189 697.94
-303.175 6.56358 697.215
-302.546 7.79757 695.768
-302.232 9.03581 695.047
-300.365 10.2186 690.752
-299.44 11.4219 688.625
-297.91 12.5921 685.108
-297 13.7784 683.015
-295.795 14.9422 680.244
-294.898 16.113 678.18
-294.898 17.3291 678.18
-292.826 18.4148 673.414
-293.12 19.642 674.091
-292.826 20.8299 673.414
-293.12 22.0595 674.091
-288.767 22.9227 664.08
-288.196 24.0658 662.767
-287.061 25.1548 660.158
-286.497 26.2869 658.861
-286.497 27.4683 658.861
-285.655 28.5655 656.925
-284.263 29.5986 653.724
-283.71 30.7109 652.452
-283.71 31.8808 652.452
-283.159 32.9866 651.185
-282.337 34.0551 649.294
-281.791 35.1513 648.039
-281.519 36.2783 647.414
-279.362 37.1523 642.452
-277.238 38.013 637.567
-276.712 39.082 636.357
-275.666 40.071 633.951
-276.188 41.2858 635.152
-274.111 46.6271 630.376
-273.597 47.6679 629.194
-272.829 48.6592 627.428
-272.574 49.7377 626.842
-270.802 50.5312 622.767
-268.806 51.2671 618.175
-268.065 52.2311 616.471
-267.327 53.1899 614.776
-266.108 54.0446 611.971
-265.14 54.9414 609.746
-263.226 55.6302 605.343
-262.988 56.6645 604.797
-262.988 57.749 604.797
-263.226 58.8866 605.343
-263.702 60.0805 606.438
-261.808 61.8083 602.083
-261.105 62.719 600.466
-260.638 63.6817 599.393
-259.71 64.5259 597.258
-259.248 65.4802 596.196
-257.873 66.1962 593.033
-257.645 67.2002 592.509
-257.418 68.2024 591.986
-257.191 69.2029 591.464
-256.512 70.078 589.904
-256.062 71.0109 588.868
-255.837 72.0036 588.351
-254.054 72.5495 584.251
-252.078 73.0246 579.706
-251.86 74.0002 579.206
-251.86 75.0388 579.206
-251.426 75.9462 578.207
-251.209 76.9167 577.709
-250.993 77.8855 577.212
-250.993 78.9206 577.212
-250.562 79.8182 576.22
-249.704 80.5746 574.247
-247.795 82.0021 569.856
-246.33 82.5331 566.487
-245.294 83.1975 564.105
-244.062 83.7863 561.272
-243.654 84.651 560.335
-243.451 85.5843 559.867
-243.045 86.4439 558.934
-242.238 87.1556 557.077
-242.037 88.0814 556.615
-241.236 88.7848 554.773
-240.639 89.5573 553.4
-240.242 90.4005 552.488
-239.257 91.0163 550.222
-238.865 91.8522 549.321
-238.474 92.6854 548.422
-237.697 93.3634 546.634
-237.503 94.2668 546.189
-236.157 94.7064 543.093
-234.449 94.988 539.164
-233.885 95.7239 537.867
-233.323 96.4564 536.576
-233.323 97.4185 536.576
-232.951 98.2235 535.719
-232.765 99.105 535.292
-232.579 99.985 534.865
-232.394 100.864 534.439
-232.209 101.741 534.013
-230.739 102.049 530.633
-230.193 102.756 529.377
-229.83 103.542 528.542
-229.83 104.49 528.542
-228.748 104.941 526.055
-228.569 105.802 525.643
-228.569 106.744 525.643
-228.39 107.602 525.231
-227.677 108.205 523.591
-227.322 108.974 522.775
-226.616 109.57 521.15
-224.522 110.409 516.336
-224.522 111.335 516.336
-224.349 112.175 515.939
-222.977 112.408 512.783
-222.977 113.328 512.783
-222.977 114.247 512.783
-221.285 114.293 508.893
-220.116 114.597 506.204
-219.785 115.33 505.441
-218.795 115.713 503.166
-218.468 116.441 502.412
-218.468 117.342 502.412
-218.141 118.066 501.661
-217.978 118.877 501.286
-217.49 119.507 500.164
-217.328 120.315 499.792
-215.88 121.294 496.462
-214.926 121.644 494.267
-214.926 122.53 494.267
-213.98 122.873 492.091
-214.137 123.846 492.453
-213.98 124.638 492.091
-213.666 125.336 491.37
-212.576 125.573 488.863
-212.267 126.266 488.152
-211.65 126.772 486.735
-211.191 127.368 485.677
-210.429 127.776 483.925
-210.429 128.644 483.925
-209.823 129.139 482.533
-209.221 129.631 481.148
-208.921 130.307 480.459
-208.921 131.168 480.459
-208.772 131.935 480.115
-208.772 132.796 480.115
-208.772 133.657 480.115
-208.027 134.038 478.403
-206.7 134.036 475.351
-205.68 134.222 473.005
-205.39 134.88 472.338
-205.246 135.631 472.006
-205.101 136.382 471.674
-205.246 137.324 472.006
-205.246 138.171 472.006
-203.385 138.595 467.727
-203.385 139.434 467.727
-202.96 139.98 466.75
-202.96 140.817 466.75
-202.96 141.654 466.75
-202.678 142.293 466.102
-202.117 142.732 464.81
-200.726 142.577 461.611
-200.864 143.504 461.929
-201.002 144.431 462.247
-201.002 145.26 462.247
-201.419 146.392 463.205
-201.419 147.222 463.205
-197.464 146.775 454.11
-196.532 146.893 451.968
-196.268 147.504 451.36
-196.268 148.314 451.36
-195.61 148.623 449.846
-195.217 149.13 448.943
-195.217 149.935 448.943
-195.217 150.74 448.943
-195.217 151.545 448.943
-194.826 152.044 448.043
-194.696 152.746 447.744
-195.086 153.857 448.642
-195.217 154.765 448.943
-192.004 154.593 441.554
-191.5 154.977 440.394
-191.374 155.664 440.105
-190.624 155.84 438.379
-190.375 156.421 437.807
-190.251 157.104 437.521
-189.386 157.171 435.533
-188.895 157.542 434.404
-188.895 158.321 434.404
-188.529 158.792 433.562
-188.043 159.158 432.444
-183.893 163.229 422.901
-184.125 164.194 423.435
-345.776 -55.4816 798.477
-344.137 -53.7936 794.692
-344.137 -52.3686 794.692
-344.137 -50.9436 794.692
-343.73 -49.4601 793.752
-340.905 -47.6421 787.231
-338.917 -45.9607 782.638
-338.127 -44.4536 780.815
-336.171 -42.8043 776.297
-336.171 -41.4123 776.297
-335.394 -39.9279 774.504
-334.236 -38.4061 771.83
-333.852 -36.9795 770.943
-333.852 -35.5971 770.943
-333.087 -34.1362 769.175
-331.188 -32.5702 764.79
-328.937 -30.9868 759.593
-328.194 -29.5578 757.876
-327.823 -28.167 757.021
-326.35 -26.6891 753.618
-325.618 -25.2809 751.929
-324.89 -23.8791 750.247
-323.083 -22.4084 746.074
-323.083 -21.0706 746.074
-323.083 -19.7328 746.074
-322.366 -18.3542 744.418
-320.233 -16.9067 739.493
-316.396 -15.394 730.632
-314.682 -14.0076 726.674
-314.341 -12.6908 725.888
-314.341 -11.3892 725.888
-314.002 -10.0767 725.103
-312.987 -8.74807 722.759
-310.976 -7.40419 718.116
-309.32 -6.08393 714.292
-308.991 -4.798 713.532
-308.991 -3.51853 713.532
-308.663 -2.23669 712.774
-308.663 -0.958579 712.774
-308.663 0.319526 712.774
-307.682 1.59256 710.509
-303.82 2.83062 701.59
-303.185 4.08013 700.126
-301.925 5.31337 697.215
-301.925 6.56358 697.215
-301.611 7.80567 696.491
-300.674 9.02646 694.328
-299.126 10.2186 690.752
-296.985 11.3752 685.808
-296.077 12.5664 683.711
-295.475 13.7643 682.32
-294.277 14.9271 679.555
-293.979 16.1293 678.867
-293.979 17.3466 678.867
-291.618 18.4148 673.414
-291.325 19.6026 672.739
-289.294 20.6639 668.048
-288.146 21.775 665.397
-287.007 22.8774 662.767
-287.007 24.0658 662.767
-286.724 25.2293 662.113
-286.441 26.3906 661.46
-285.596 27.4953 659.509
-284.756 28.5935 657.569
-284.477 29.7435 656.925
-283.367 30.8008 654.361
-283.091 31.943 653.724
-282.54 33.0508 652.452
-281.718 34.1212 650.553
-280.629 35.1513 648.039
-280.359 36.2783 647.414
-277.678 37.0813 641.224
-275.571 37.9409 636.357
-274.529 38.9342 633.951
-274.011 39.9954 632.755
-274.011 41.13 632.755
-273.753 42.2248 632.159
-272.724 43.1955 629.784
-272.213 44.2417 628.604
-271.958 45.3264 628.015
-271.958 46.4525 628.015
-271.958 47.5786 628.015
-271.45 48.6137 626.842
-270.439 49.5525 624.507
-268.937 50.3908 621.037
-267.697 51.2671 618.175
-266.959 52.2311 616.471
-266.225 53.1899 614.776
-263.568 53.7503 608.639
-263.09 54.7424 607.537
-262.852 55.7812 606.987
-263.09 56.9212 607.537
-262.377 57.8533 605.89
-262.614 58.9931 606.438
-263.09 60.1894 607.537
-262.14 61.0575 605.343
-260.028 61.6423 600.466
-259.563 62.6069 599.393
-258.639 63.4549 597.258
-258.409 64.4685 596.726
-257.95 65.4221 595.666
-256.809 66.1962 593.033
-256.356 67.1409 591.986
-256.13 68.1423 591.464
-255.006 68.8991 588.868
-254.782 69.8936 588.351
-254.559 70.8864 587.836
-253.448 71.6266 585.271
-253.007 72.5495 584.251
-251.038 73.0246 579.706
-250.605 73.9363 578.706
-250.822 75.0388 579.206
-250.605 76.0117 578.706
-250.389 76.983 578.207
-250.605 78.0871 578.706
-250.822 79.1932 579.206
-249.958 79.9556 577.212
-246.983 82.0718 570.34
-244.9 82.3939 565.532
-244.694 83.3377 565.055
-244.282 84.2091 564.105
-242.852 85.7274 560.803
-243.056 86.8056 561.272
-242.852 87.7386 560.803
-242.245 88.5222 559.4
-241.439 89.2276 557.54
-241.239 90.1524 557.077
-239.252 91.3912 552.488
-238.075 91.9275 549.771
-238.075 92.9133 549.771
-237.685 93.7455 548.871
-237.103 94.4977 547.527
-234.993 94.6297 542.654
-233.67 95.0644 539.598
-233.294 95.8777 538.731
-232.547 96.5336 537.006
-232.92 97.6529 537.867
-232.175 98.302 536.147
-231.99 99.1841 535.719
-231.805 100.065 535.292
-231.62 100.944 534.865
-231.435 101.822 534.439
-230.517 102.372 532.318
-229.788 103 530.633
-228.882 103.542 528.542
-227.984 104.08 526.468
-227.448 104.777 525.231
-227.448 105.719 525.231
-226.915 106.411 524
-226.208 107.016 522.368
-225.857 107.785 521.556
-225.857 108.72 521.556
-224.982 109.23 519.536
-224.46 109.906 518.331
-223.596 110.409 516.336
-223.424 111.25 515.939
-223.424 112.175 515.939
-222.739 112.753 514.356
-222.228 113.414 513.176
-222.228 114.334 513.176
-222.058 115.167 512.783
-218.22 114.08 503.922
-218.057 114.897 503.544
-217.893 115.713 503.166
-217.73 116.528 502.789
-217.73 117.43 502.789
-217.73 118.331 502.789
-218.057 119.412 503.544
-216.432 119.418 499.792
-214.99 121.294 496.462
-214.039 121.644 494.267
-214.039 122.53 494.267
-213.41 123.053 492.814
-213.41 123.937 492.814
-213.254 124.729 492.453
-212.941 125.428 491.731
-211.699 125.573 488.863
-211.391 126.266 488.152
-210.625 126.68 486.382
-210.167 127.275 485.326
-209.561 127.776 483.925
-210.167 129.016 485.326
-209.259 129.325 483.228
-208.808 129.91 482.186
-208.06 130.307 480.459
-208.06 131.168 480.459
-207.911 132.796 480.115
-207.911 133.657 480.115
-207.465 134.23 479.086
-204.399 134.785 472.006
-204.399 135.631 472.006
-204.112 136.286 471.343
-204.256 137.228 471.674
-203.113 138.142 469.035
-202.829 138.789 468.38
-202.405 139.337 467.401
-201.843 139.785 466.102
-201.562 140.426 465.455
-201.562 141.261 465.455
-201.562 142.095 465.455
-201.144 142.633 464.488
-200.588 143.07 463.205
-201.144 144.299 464.488
-201.283 145.232 464.81
-201.144 145.965 464.488
-201.283 146.899 464.81
-201.283 147.733 464.81
-196.916 145.343 454.726
-196.916 146.158 454.726
-196.916 146.974 454.726
-196.118 147.19 452.883
-195.59 147.604 451.664
-194.803 147.816 449.846
-194.542 148.424 449.243
-194.022 148.831 448.043
-194.022 149.634 448.043
-194.412 150.74 448.943
-194.542 151.646 449.243
-194.282 152.248 448.642
-194.022 152.848 448.043
-194.282 153.857 448.642
-191.087 153.7 441.263
-190.835 154.288 440.684
-190.585 154.875 440.105
-190.46 155.562 439.817
-190.335 156.248 439.528
-189.838 156.626 438.379
-189.59 157.206 437.807
-188.605 157.171 435.533
-188.238 157.645 434.686
-188.36 158.527 434.968
-187.751 158.792 433.562
-187.267 159.158 432.444
-183.714 162.984 424.238
-183.366 163.435 423.435
-183.482 164.298 423.702
-345.166 -54.1788 800.382
-343.526 -52.493 796.58
-342.712 -50.9436 794.692
-341.902 -49.4016 792.814
-339.096 -47.5862 786.308
-337.513 -45.9607 782.638
-336.727 -44.4536 780.815
-335.555 -42.9037 778.098
-333.62 -41.269 773.611
-332.852 -39.7901 771.83
-332.852 -38.4061 771.83
-332.47 -36.9795 770.943
-332.852 -35.6381 771.83
-332.088 -34.1754 770.058
-330.193 -32.6074 765.663
-327.946 -31.022 760.454
-326.466 -29.5245 757.021
-326.098 -28.1353 756.167
-325.364 -26.7191 754.466
-324.634 -25.3093 752.773
-323.544 -23.8791 750.247
-321.745 -22.4084 746.074
-321.745 -21.0706 746.074
-321.745 -19.7328 746.074
-320.675 -18.3338 743.593
-318.205 -16.8695 737.866
-314.401 -15.3605 729.044
-313.04 -13.9924 725.888
-313.04 -12.6908 725.888
-312.701 -11.3769 725.103
-312.364 -10.0658 724.32
-311.02 -8.72926 721.205
-309.688 -7.40419 718.116
-308.039 -6.08393 714.292
-308.368 -4.80823 715.054
-308.368 -3.52603 715.054
-308.039 -2.24145 714.292
-307.711 -0.959599 713.532
-307.711 0.319866 713.532
-306.408 1.59256 710.509
-302.878 2.83358 702.325
-302.561 4.08867 701.59
-301.93 5.33556 700.126
-301.615 6.58411 699.396
-300.674 7.81378 697.215
-299.74 9.03581 695.047
-297.275 10.1976 689.332
-295.755 11.3752 685.808
-294.851 12.5664 683.711
-294.551 13.7784 683.015
-293.654 14.9574 680.934
-293.356 16.162 680.244
-293.356 17.3818 680.244
-291.581 18.4891 676.129
-290.702 19.642 674.091
-289.249 20.7465 670.72
-288.096 21.8618 668.048
-287.81 23.0367 667.384
-286.953 24.1613 665.397
-286.102 25.2793 663.423
-285.819 26.4427 662.767
-284.974 27.5495 660.808
-284.134 28.6497 658.861
-283.577 29.7727 657.569
-283.022 30.8912 656.282
-282.746 32.0367 655.641
-281.644 33.083 653.087
-281.37 34.2207 652.452
-280.824 35.3219 651.185
-279.198 36.2783 647.414
-276.793 37.1167 641.838
-274.69 37.9769 636.961
-273.91 39.0079 635.152
-273.392 40.071 633.951
-273.134 41.1688 633.353
-272.619 42.2248 632.159
-272.106 43.2768 630.969
-271.34 44.2832 629.194
-271.086 45.3689 628.604
-270.832 46.4525 628.015
-270.832 47.5786 628.015
-270.579 48.6592 627.428
-269.57 49.5987 625.089
-267.328 50.2977 619.889
-266.589 51.2671 618.175
-265.366 52.1353 615.34
-264.88 53.1412 614.213
-261.764 53.6044 606.987
-262.476 54.8417 608.639
-262.715 55.9839 609.192
-262.953 57.1281 609.746
-262.238 58.0631 608.087
-261.527 58.9931 606.438
-261.764 60.1349 606.987
-260.819 61.0025 604.797
-258.951 61.6423 600.466
-258.72 62.6629 599.929
-257.797 63.5114 597.79
-257.339 64.4685 596.726
-256.199 65.2482 594.084
-255.52 66.1377 592.509
-255.295 67.1409 591.986
-255.069 68.1423 591.464
-254.396 69.0202 589.904
-253.95 69.955 588.868
-253.727 70.9486 588.351
-252.399 71.6266 585.271
-251.521 72.4233 583.235
-249.999 73.0246 579.706
-249.783 74.0002 579.206
-249.783 75.0388 579.206
-249.568 76.0117 578.706
-249.352 76.983 578.207
-249.783 78.1546 579.206
-249.783 79.1932 579.206
-248.923 79.9556 577.212
-246.169 81.1181 570.826
-245.334 81.863 568.889
-243.271 82.186 564.105
-243.886 83.408 565.532
-243.681 84.351 565.055
-241.847 85.7274 560.803
-242.658 87.0241 562.685
-240.44 88.2278 557.54
-239.841 89.0056 556.153
-238.457 89.4835 552.943
-237.478 90.1036 550.674
-237.674 91.1659 551.126
-237.089 91.9275 549.771
-236.895 92.8372 549.321
-235.737 93.3634 546.634
-234.589 93.8845 543.974
-233.831 94.5532 542.215
-232.702 95.0644 539.598
-232.142 95.8008 538.299
-231.584 96.5336 537.006
-231.584 97.4965 537.006
-230.845 98.1451 535.292
-230.661 99.026 534.865
-230.477 99.9054 534.439
-230.477 100.864 534.439
-230.294 101.741 534.013
-229.38 102.291 531.896
-228.294 102.756 529.377
-227.934 103.542 528.542
-227.04 104.08 526.468
-226.506 104.777 525.231
-226.152 105.553 524.41
-225.272 106.079 522.368
-224.921 106.849 521.556
-224.747 107.701 521.15
-224.224 108.383 519.938
-223.877 109.146 519.133
-223.531 109.906 518.331
-222.842 110.494 516.734
-222.67 111.335 516.336
-222.67 112.261 516.336
-222.328 113.013 515.542
-221.307 113.414 513.176
-221.138 114.247 512.783
-219.294 114.206 508.507
-218.136 114.51 505.822
-217.972 115.33 505.441
-217.48 115.974 504.301
-217.154 116.703 503.544
-216.019 116.991 500.911
-215.696 117.714 500.164
-215.696 118.611 500.164
-215.215 119.241 499.048
-214.895 119.957 498.306
-214.417 120.582 497.198
-214.576 121.563 497.567
-213.153 121.644 494.267
-212.839 122.349 493.54
-212.215 122.873 492.091
-212.215 123.755 492.091
-212.215 124.638 492.091
-211.904 125.336 491.37
-210.823 125.573 488.863
-210.516 126.266 488.152
-209.753 126.68 486.382
-209.449 127.368 485.677
-208.693 127.776 483.925
-209.146 128.923 484.975
-208.543 129.418 483.576
-208.242 130.097 482.88
-207.794 130.681 481.839
-207.347 131.262 480.803
-207.198 133.753 480.459
-206.606 134.23 479.086
-204.561 133.751 474.343
-203.84 134.975 472.671
-203.696 135.727 472.338
-203.696 136.574 472.338
-203.696 137.421 472.338
-201.567 138.499 467.401
-201.427 139.24 467.075
-201.147 139.883 466.426
-201.007 140.621 466.102
-201.147 141.555 466.426
-201.287 142.491 466.75
-201.007 143.129 466.102
-200.867 143.864 465.778
-201.007 144.8 466.102
-200.728 145.434 465.455
-200.45 146.066 464.81
-196.101 145.343 454.726
-196.101 146.158 454.726
-196.101 146.974 454.726
-195.835 147.589 454.11
-195.043 147.803 452.273
-194.78 148.414 451.664
-193.737 148.424 449.243
-193.219 148.831 448.043
-193.219 149.634 448.043
-193.737 150.841 449.243
-193.219 151.241 448.043
-192.961 151.842 447.445
-192.32 152.136 445.958
-192.32 152.936 445.958
-192.32 153.736 445.958
-191.302 153.718 443.598
