ply
format ascii 1.0
element vertex 1965
property float x
property float y
property float z
end_header
42.4172 156.343 418.677
41.9718 155.444 414.281
41.9201 155.995 413.77
41.7655 156.158 412.244
41.7655 156.898 412.244
41.7655 157.637 412.244
41.7655 158.376 412.244
41.7398 159.018 411.99
41.7398 159.756 411.99
41.7655 160.594 412.244
41.7398 161.234 411.99
41.7398 161.973 411.99
41.7398 162.711 411.99
49.6091 -120.572 481.148
49.538 -119.537 480.459
49.538 -118.676 480.459
49.538 -117.814 480.459
49.5026 -116.869 480.115
49.538 -116.091 480.459
49.6091 -115.395 481.148
50.1124 -113.951 486.029
49.8236 -112.428 483.228
49.7877 -111.481 482.88
49.7161 -110.456 482.186
49.6091 -109.356 481.148
49.6091 -108.493 481.148
49.6447 -107.707 481.493
49.7519 -107.075 482.533
49.7519 -106.209 482.533
49.7519 -105.344 482.533
49.7877 -104.554 482.88
49.7877 -103.688 482.88
49.7877 -102.822 482.88
49.8236 -102.03 483.228
49.8236 -101.164 483.228
49.7877 -100.225 482.88
49.7877 -99.3589 482.88
49.7877 -98.4931 482.88
49.8236 -97.6975 483.228
49.8595 -96.9008 483.576
50.0761 -96.451 485.677
50.0037 -95.4418 484.975
50.0761 -94.7092 485.677
50.4046 -92.7006 488.863
50.3679 -91.7572 488.507
50.3312 -90.8151 488.152
50.2581 -89.809 487.442
49.7877 -88.1026 482.88
49.7161 -87.1113 482.186
49.7519 -86.3087 482.533
49.7161 -85.382 482.186
49.6447 -84.396 481.493
49.6804 -83.5927 481.839
49.7519 -82.8477 482.533
49.8236 -82.1006 483.228
49.7877 -81.1756 482.88
49.7877 -80.3097 482.88
49.8236 -79.5011 483.228
49.8236 -78.6346 483.228
90.9936 -130.952 882.527
90.9936 -129.369 882.527
91.2337 -128.124 884.855
90.9936 -126.204 882.527
90.9936 -124.622 882.527
90.9936 -123.039 882.527
89.5792 -119.569 868.809
89.1174 -117.403 864.33
89.1174 -115.853 864.33
88.7742 -113.863 861.002
88.2081 -111.602 855.511
87.7603 -109.51 851.168
87.7603 -107.983 851.168
87.5381 -106.188 849.013
87.0971 -104.138 844.736
86.8783 -102.365 842.614
86.8783 -100.854 842.614
86.2283 -98.6002 836.31
85.907 -96.7387 833.193
85.4822 -94.7738 829.073
85.0616 -92.8281 824.994
84.9571 -91.2366 823.981
84.4385 -89.2111 818.95
84.3355 -87.6356 817.952
84.1303 -85.9592 815.962
83.5207 -83.8838 810.049
83.5207 -82.4313 810.049
82.9198 -80.3962 804.221
82.7214 -78.7652 802.297
82.524 -77.142 800.382
82.524 -75.7068 800.382
82.132 -73.9188 796.58
81.168 -71.6396 787.231
81.168 -70.2279 787.231
80.7887 -68.4948 783.552
80.7887 -67.0897 783.552
80.5065 -65.4553 780.815
80.3195 -63.9064 779.002
79.7637 -62.077 773.611
79.1248 -60.2037 767.415
78.9442 -58.6933 765.663
78.8542 -57.255 764.79
78.6748 -55.7565 763.049
78.5854 -54.3264 762.182
78.4072 -52.8396 760.454
78.3184 -51.4177 759.593
78.0532 -49.8862 757.021
77.5282 -48.2023 751.929
76.839 -43.7648 745.245
75.9112 -41.9162 736.246
75.7449 -40.5071 734.634
75.5794 -39.1041 733.028
75.5794 -37.7897 733.028
75.4145 -36.3957 731.429
75.1686 -34.9697 729.044
74.9243 -33.5531 726.674
51.264 106.317 497.198
51.264 107.209 497.198
51.1881 107.94 496.462
51.1124 108.669 495.728
51.037 109.397 494.997
50.7002 109.557 491.731
50.589 110.196 490.651
50.4046 110.671 488.863
50.0761 110.821 485.677
50.1124 111.772 486.029
50.1487 112.726 486.382
50.1124 113.515 486.029
50.1124 114.387 486.029
50.1124 115.259 486.029
49.9676 115.794 484.625
49.8595 116.411 483.576
49.8236 117.194 483.228
49.6804 117.721 481.839
49.1158 118.092 476.364
49.0114 118.693 475.351
48.9767 119.461 475.014
48.9421 120.227 474.678
48.9767 121.164 475.014
48.9421 121.93 474.678
48.7008 122.175 472.338
48.7008 123.022 472.338
48.6665 123.782 472.006
48.6665 124.629 472.006
48.6665 125.475 472.006
48.5299 125.967 470.681
47.5293 126.676 460.976
47.5293 127.502 460.976
47.464 128.153 460.343
47.3665 128.713 459.398
47.2694 129.271 458.456
47.1405 129.739 457.205
47.0763 130.381 456.583
46.9166 130.755 455.034
46.8531 131.392 454.418
46.8531 132.207 454.418
46.7897 132.842 453.803
46.6634 133.295 452.578
46.6319 134.016 452.273
45.8588 138.175 444.775
45.8588 138.972 444.775
45.7375 139.4 443.598
45.6469 139.918 442.72
43.9918 150.911 426.667
43.4664 150.621 421.572
43.4664 152.133 421.572
43.5212 153.081 422.102
43.5212 153.838 422.102
43.5486 154.692 422.368
43.5212 155.352 422.102
43.3574 155.521 420.514
43.276 155.982 419.725
43.276 156.735 419.725
42.7411 156.284 414.537
42.5308 156.255 412.497
42.5047 156.898 412.244
42.557 157.831 412.751
42.557 158.571 412.751
42.5047 159.115 412.244
42.5047 159.855 412.244
42.5047 160.594 412.244
42.4786 161.234 411.99
42.4786 161.973 411.99
42.4786 162.711 411.99
50.3996 -120.399 480.459
50.3996 -119.537 480.459
50.4357 -118.761 480.803
50.4357 -117.899 480.803
50.3996 -116.953 480.459
50.4357 -116.175 480.803
50.6171 -115.727 482.533
50.5444 -114.697 481.839
50.4719 -113.67 481.148
50.6536 -113.213 482.88
50.6171 -112.266 482.533
50.5807 -111.321 482.186
50.4719 -110.219 481.148
50.4719 -109.356 481.148
50.4357 -108.415 480.803
50.4719 -107.63 481.148
50.5081 -106.844 481.493
50.5081 -105.981 481.493
50.5081 -105.117 481.493
50.6171 -104.479 482.533
50.6536 -103.688 482.88
50.6171 -102.748 482.533
50.6901 -102.03 483.228
50.6901 -101.164 483.228
50.6901 -100.297 483.228
50.6536 -99.3589 482.88
50.6536 -98.4931 482.88
50.6901 -97.6975 483.228
50.7632 -96.9707 483.925
50.7632 -96.103 483.925
50.7266 -95.1666 483.576
50.7266 -94.2995 483.576
50.6901 -93.365 483.228
51.3186 -92.7683 489.22
51.1321 -91.5571 487.442
50.6901 -89.0325 483.228
50.6901 -88.1661 483.228
50.5807 -87.1113 482.186
50.6171 -86.3087 482.533
50.4357 -85.1372 480.803
50.3996 -84.2147 480.459
50.3996 -83.3532 480.459
50.4357 -82.5508 480.803
50.4719 -81.7472 481.148
50.5444 -81.0006 481.839
50.5807 -80.1943 482.186
50.6536 -79.4438 482.88
50.6536 -78.578 482.88
50.6536 -77.7121 482.88
93.5609 -135.543 891.915
93.5609 -133.944 891.915
93.0659 -131.645 887.196
93.1892 -130.226 888.371
93.1892 -128.633 888.371
93.0659 -126.872 887.196
92.5761 -124.622 882.527
92.5761 -123.039 882.527
90.6673 -118.952 864.33
90.6673 -117.403 864.33
90.4342 -115.555 862.109
90.2023 -113.717 859.898
89.4 -111.177 852.25
89.2866 -109.51 851.168
89.2866 -107.983 851.168
89.0605 -106.188 849.013
88.6119 -104.138 844.736
88.3892 -102.365 842.614
88.1677 -100.602 840.502
87.6187 -98.4774 835.268
87.5097 -96.859 834.229
87.1844 -95.0086 831.128
86.7544 -93.0571 827.029
86.2228 -91.013 821.961
85.8022 -89.1023 817.952
85.5934 -87.4224 815.962
85.179 -85.543 812.01
84.8707 -83.7826 809.072
84.9732 -82.4313 810.049
84.3619 -80.3962 804.221
84.2609 -78.8595 803.258
84.0595 -77.2342 801.339
84.0595 -75.7973 801.339
83.9592 -74.2716 800.382
83.1653 -72.1476 792.814
82.9691 -70.5592 790.944
82.3862 -68.6552 785.387
82.3862 -67.2468 785.387
82.0021 -65.5316 781.725
81.8114 -63.9807 779.907
81.2446 -62.1486 774.504
80.4089 -60.1349 766.538
80.3171 -58.6933 765.663
80.1342 -57.1898 763.918
80.043 -55.7565 763.049
80.1342 -54.4501 763.918
79.7708 -52.8396 760.454
79.5004 -51.3015 757.876
78.965 -49.6062 752.773
78.7 -48.0945 750.247
78.5243 -46.6448 748.572
78.1753 -45.1012 745.245
77.8294 -43.5712 741.947
77.4013 -42.0084 737.866
77.4013 -40.6853 737.866
77.2314 -39.2758 736.246
76.9779 -37.831 733.83
76.8098 -36.4354 732.228
76.7261 -35.0841 731.429
76.0625 -33.4805 725.103
52.1942 105.504 497.567
52.1942 106.396 497.567
52.1942 107.288 497.567
51.9246 107.621 494.997
51.8863 108.429 494.632
51.8481 109.235 494.267
51.582 109.557 491.731
51.4688 110.196 490.651
51.2439 110.59 488.507
50.947 110.821 485.677
51.0209 111.853 486.382
51.0209 112.726 486.382
51.0209 113.598 486.382
51.0209 114.47 486.382
50.9839 115.259 486.029
50.7999 115.711 484.275
50.6901 116.327 483.228
50.6901 117.194 483.228
50.5807 117.806 482.186
50.0767 117.488 477.381
49.8638 117.84 475.351
49.8992 118.777 475.688
49.8638 119.545 475.351
49.8638 120.398 475.351
49.8638 121.25 475.351
49.8285 122.016 475.014
49.6176 122.348 473.005
49.5827 123.109 472.671
49.5827 123.957 472.671
49.5478 124.716 472.338
49.5129 125.475 472.006
49.5129 126.321 472.006
49.2357 126.456 469.363
49.1669 127.12 468.707
49.0298 127.603 467.401
48.4224 126.85 461.611
48.3559 127.502 460.976
48.3559 128.329 460.976
48.1903 128.713 459.398
48.1573 129.448 459.083
48.0258 129.916 457.83
47.9277 130.47 456.894
47.7974 130.932 455.652
47.6679 131.392 454.418
47.6356 132.118 454.11
47.507 132.573 452.883
47.4429 133.205 452.273
47.4109 133.926 451.968
47.3471 134.555 451.36
47.22 135.001 450.148
46.5637 139.492 443.892
46.5329 140.195 443.598
44.278 150.81 422.102
44.2502 151.472 421.837
44.2502 152.228 421.837
44.278 153.838 422.102
44.3059 154.692 422.368
44.0838 156.177 420.251
44.0838 156.931 420.251
43.2705 156.255 412.497
43.2439 156.898 412.244
43.2705 157.734 412.497
43.2439 159.115 412.244
43.2173 159.756 411.99
43.2173 160.495 411.99
43.2173 161.234 411.99
43.2173 161.973 411.99
43.2439 162.811 412.244
51.2244 -120.313 480.115
51.2611 -119.537 480.459
51.3347 -118.846 481.148
51.2979 -117.899 480.803
51.2611 -116.953 480.459
51.2611 -116.091 480.459
51.4824 -115.727 482.533
51.2611 -114.368 480.459
51.2611 -113.507 480.459
51.3347 -112.807 481.148
51.3715 -112.024 481.493
51.3347 -111.081 481.148
51.2611 -110.061 480.459
51.2611 -109.199 480.459
51.2979 -108.415 480.803
51.2979 -107.553 480.803
51.3347 -106.767 481.148
51.3715 -105.981 481.493
51.3347 -105.042 481.148
51.4454 -104.404 482.186
51.4824 -103.614 482.533
51.4084 -102.601 481.839
51.5194 -101.957 482.88
51.4824 -101.018 482.533
51.4084 -100.009 481.839
51.3347 -99.0025 481.148
51.3347 -98.1398 481.148
51.5566 -97.6975 483.228
51.6682 -97.0408 484.275
51.631 -95.2353 483.925
51.631 -94.3675 483.925
51.5937 -93.4324 483.576
51.5194 -92.4319 482.88
51.5194 -91.5661 482.88
51.5194 -90.7002 482.88
51.4084 -89.6407 481.839
51.2611 -88.5223 480.459
51.2611 -87.6608 480.459
51.2244 -86.7371 480.115
51.2611 -85.9377 480.459
51.2244 -85.0153 480.115
51.2611 -84.2147 480.459
51.2979 -83.4129 480.803
51.3715 -82.6693 481.493
51.4084 -81.8647 481.839
51.4824 -81.1172 482.533
51.5194 -80.3097 482.88
51.5194 -79.4438 482.88
51.5194 -78.578 482.88
51.5194 -77.7121 482.88
95.6691 -136.268 896.685
95.6691 -134.66 896.685
95.1603 -132.345 891.915
94.9078 -130.399 889.55
94.9078 -128.803 889.55
94.6568 -126.872 887.196
93.6656 -123.969 877.906
93.6656 -122.395 877.906
91.7442 -118.342 859.898
91.9801 -117.101 862.109
91.7442 -115.259 859.898
91.2762 -113.136 855.511
91.2762 -111.602 855.511
91.0439 -109.788 853.334
90.9282 -108.121 852.25
90.6977 -106.322 850.089
90.3542 -104.401 846.869
90.0132 -102.494 843.673
89.6748 -100.602 840.502
89.1164 -98.4774 835.268
89.0056 -96.859 834.229
88.565 -94.8911 830.1
88.2374 -93.0571 827.029
87.9122 -91.2366 823.981
87.2689 -89.1023 817.952
86.635 -86.999 812.01
86.4257 -85.3363 810.049
86.3215 -83.7826 809.072
86.4257 -82.4313 810.049
86.0102 -80.5894 806.154
85.5987 -78.7652 802.297
85.4964 -77.2342 801.339
85.3944 -75.7068 800.382
85.1911 -74.0948 798.477
84.8879 -72.4044 795.635
84.5869 -70.726 792.814
83.8928 -68.7357 786.308
83.7945 -67.2468 785.387
83.2099 -65.3792 779.907
83.1133 -63.9064 779.002
82.5381 -62.077 773.611
81.9708 -60.2727 768.294
81.6901 -58.6933 765.663
81.5969 -57.255 764.79
81.1344 -55.5668 760.454
81.0425 -54.1418 759.593
80.9508 -52.7201 758.734
80.5862 -51.1282 755.316
80.2248 -49.5506 751.929
80.0453 -48.0945 750.247
79.8666 -46.6448 748.572
79.6888 -45.2016 746.905
79.1599 -43.5712 741.947
78.5516 -41.9162 736.246
78.4655 -40.5515 735.439
78.3795 -39.1898 734.634
78.2938 -37.831 733.83
78.1228 -36.4354 732.228
78.1228 -35.1224 732.228
77.5303 -33.5531 726.674
76.7817 -31.9386 719.657
76.6994 -30.6153 718.886
52.9294 105.192 496.095
52.8903 106.003 495.728
52.8122 106.734 494.997
52.8122 107.621 494.997
52.7732 108.429 494.632
52.7732 109.316 494.632
52.5022 109.637 492.091
52.3869 110.277 491.011
52.1578 110.671 488.863
51.893 110.981 486.382
51.893 111.853 486.382
51.9307 112.807 486.735
51.893 113.598 486.382
51.8554 114.387 486.029
51.7804 115.092 485.326
51.5937 115.544 483.576
51.5194 116.243 482.88
51.4454 116.941 482.186
51.2611 117.384 480.459
50.969 117.571 477.721
50.8965 118.26 477.042
50.8965 119.115 477.042
50.8603 119.885 476.703
50.8242 120.654 476.364
50.8603 121.595 476.703
50.6802 122.016 475.014
50.4302 122.262 472.671
50.4302 123.109 472.671
50.3947 123.869 472.338
50.3593 124.629 472.006
50.3238 125.387 471.674
50.2179 125.967 470.681
50.3947 127.257 472.338
50.0073 127.12 468.707
49.868 127.603 467.401
49.2841 126.938 461.929
49.2502 127.678 461.611
49.2502 128.506 461.611
49.0476 128.802 459.712
48.9805 129.448 459.083
48.947 130.183 458.769
48.8134 130.648 457.517
48.7469 131.289 456.894
48.6145 131.749 455.652
48.4827 132.207 454.418
48.4499 132.932 454.11
48.3517 133.475 453.189
48.2864 134.106 452.578
48.2214 134.736 451.968
48.0272 135.001 450.148
47.9628 135.626 449.545
47.3597 140.288 443.892
45.1486 151.191 423.167
45.0917 151.758 422.634
45.0633 152.42 422.368
45.0633 153.177 422.368
45.0633 153.935 422.368
43.9831 156.898 412.244
43.9831 157.637 412.244
43.9561 158.279 411.99
43.9831 159.115 412.244
43.9561 159.756 411.99
43.9831 160.594 412.244
43.9561 161.234 411.99
43.9561 161.973 411.99
52.0853 -120.313 480.115
52.1226 -119.537 480.459
52.0853 -118.591 480.115
52.0853 -117.73 480.115
52.0481 -116.786 479.771
51.9737 -115.76 479.086
51.8996 -114.737 478.403
51.8256 -113.717 477.721
51.8256 -112.86 477.721
52.0853 -112.565 480.115
52.16 -111.864 480.803
52.16 -111.002 480.803
52.16 -110.14 480.803
52.16 -109.277 480.803
52.16 -108.415 480.803
52.16 -107.553 480.803
52.1974 -106.767 481.148
52.1974 -105.905 481.148
52.16 -104.967 480.803
52.2349 -104.254 481.493
52.2724 -103.465 481.839
52.1974 -102.454 481.148
52.3853 -101.957 482.88
52.1974 -100.728 481.148
52.16 -99.7937 480.803
52.1974 -99.0025 481.148
52.2724 -98.2808 481.839
52.2724 -97.4168 481.839
52.4609 -96.9008 483.576
52.4609 -96.0337 483.576
52.4609 -95.1666 483.576
52.6126 -94.5722 484.975
52.4987 -93.4998 483.925
52.4609 -92.5652 483.576
52.4987 -91.7643 483.925
52.4987 -90.8965 483.925
52.4609 -89.9639 483.576
52.1974 -88.6493 481.148
52.1226 -87.6608 480.459
52.0853 -86.7371 480.115
52.1226 -85.9377 480.459
52.0853 -85.0153 480.115
52.1226 -84.2147 480.459
52.16 -83.4129 480.803
52.2349 -82.6693 481.493
52.2724 -81.8647 481.839
52.3476 -81.1172 482.533
52.3476 -80.2519 482.533
52.3853 -79.4438 482.88
52.3853 -78.578 482.88
52.3853 -77.7121 482.88
97.0176 -135.905 894.294
96.7596 -133.944 891.915
96.3751 -131.819 888.371
96.2476 -130.054 887.196
96.2476 -128.463 887.196
96.1205 -126.704 886.024
95.2398 -123.969 877.906
94.0093 -120.814 866.564
93.526 -118.647 862.109
93.4059 -116.95 861.002
93.2862 -115.259 859.898
92.8102 -113.136 855.511
92.5741 -111.318 853.334
92.5741 -109.788 853.334
92.4564 -108.121 852.25
92.3391 -106.457 851.168
92.1053 -104.665 849.013
90.954 -101.853 838.401
90.7272 -100.1 836.31
90.3891 -98.2328 833.193
90.3891 -96.7387 833.193
89.9422 -94.7738 829.073
89.6099 -92.9425 826.01
89.1706 -91.013 821.961
88.7356 -89.1023 817.952
87.9845 -86.8938 811.028
87.8783 -85.3363 810.049
87.9845 -83.9852 811.028
87.8783 -82.4313 810.049
87.2461 -80.3962 804.221
87.1416 -78.8595 803.258
86.9333 -77.2342 801.339
86.9333 -75.7973 801.339
86.6229 -74.0948 798.477
86.2123 -72.3186 794.692
85.6038 -70.3932 789.083
85.3027 -68.7357 786.308
85.2028 -67.2468 785.387
84.5101 -65.3033 779.002
84.5101 -63.9064 779.002
84.0222 -62.1486 774.504
83.6359 -60.4805 770.943
83.1579 -58.7604 766.538
82.8738 -57.1898 763.918
82.498 -55.5668 760.454
82.4045 -54.1418 759.593
82.2183 -52.6605 757.876
81.8484 -51.0707 754.466
81.6647 -49.6062 752.773
81.0281 -47.8802 746.905
80.848 -46.4375 745.245
80.7583 -45.0511 744.418
80.3126 -43.475 740.31
80.0475 -42.0084 737.866
79.7842 -40.5515 735.439
79.7842 -39.2327 735.439
79.5226 -37.7897 733.028
79.4358 -36.4354 732.228
79.3492 -35.0841 731.429
78.8334 -33.5531 726.674
78.156 -31.9729 720.43
77.9884 -30.6153 718.886
53.8987 102.675 496.83
53.8189 103.412 496.095
53.8987 104.457 496.83
53.9386 105.425 497.198
53.8987 106.238 496.83
53.7394 106.813 495.362
53.6998 107.621 494.997
53.6206 108.349 494.267
53.5417 109.075 493.54
53.3455 109.557 491.731
53.2284 110.196 490.651
53.0344 110.671 488.863
52.7652 110.981 486.382
52.8035 111.935 486.735
52.8418 112.889 487.088
52.7652 113.598 486.382
52.727 114.387 486.029
52.6888 115.175 485.677
52.4609 115.544 483.576
52.4231 116.327 483.228
52.3853 117.109 482.88
52.1226 117.384 480.459
51.8256 117.571 477.721
51.7888 118.344 477.381
51.7888 119.2 477.381
51.7888 120.056 477.381
51.7888 120.912 477.381
51.8256 121.855 477.721
51.532 122.016 475.014
51.2778 122.262 472.671
51.2778 123.109 472.671
51.2417 123.869 472.338
51.2056 124.629 472.006
51.2056 125.475 472.006
51.1337 126.144 471.343
51.0978 126.9 471.012
50.8834 127.208 469.035
50.7061 127.603 467.401
50.1124 126.938 461.929
50.0779 127.678 461.611
50.1124 128.594 461.929
49.872 128.802 459.712
49.8037 129.448 459.083
49.7696 130.183 458.769
49.6338 130.648 457.517
49.5662 131.289 456.894
49.5325 132.018 456.583
49.4651 132.656 455.962
49.4315 133.383 455.652
49.4315 134.2 455.652
45.8495 151.758 422.634
45.6482 151.846 420.778
45.7918 153.838 422.102
44.8049 157.188 413.005
44.7498 157.734 412.497
44.7774 158.571 412.751
44.8049 159.409 413.005
44.8049 160.15 413.005
44.8325 160.99 413.26
44.7498 161.432 412.497
44.7223 162.072 412.244
52.8328 -120.055 479.086
52.8328 -119.196 479.086
52.9084 -118.506 479.771
52.8328 -117.478 479.086
52.9084 -116.786 479.771
52.7574 -115.595 478.403
52.7574 -114.737 478.403
52.6823 -113.717 477.721
52.7198 -112.94 478.062
52.9462 -112.565 480.115
53.0222 -111.864 480.803
53.0222 -111.002 480.803
53.0222 -110.14 480.803
53.0222 -109.277 480.803
53.0222 -108.415 480.803
52.9842 -107.476 480.459
52.9842 -106.615 480.459
52.9842 -105.753 480.459
52.9842 -104.891 480.459
52.9462 -103.955 480.115
52.8706 -102.947 479.428
52.7951 -101.942 478.744
52.9084 -101.3 479.771
52.9084 -100.44 479.771
52.9084 -99.5796 479.771
53.0222 -98.9316 480.803
52.9084 -97.859 479.771
52.9084 -96.9987 479.771
52.7574 -95.8641 478.403
53.1364 -95.6888 481.839
53.0983 -94.7567 481.493
53.2512 -94.1637 482.88
53.2512 -93.2978 482.88
53.2512 -92.4319 482.88
53.2896 -91.632 483.228
53.3665 -90.8965 483.925
53.328 -89.9639 483.576
52.9842 -88.5223 480.459
52.9462 -87.5981 480.115
52.9462 -86.7371 480.115
52.9842 -85.9377 480.459
52.9462 -85.0153 480.115
52.9842 -84.2147 480.459
53.0222 -83.4129 480.803
53.0983 -82.6693 481.493
53.0983 -81.8059 481.493
53.2129 -81.1172 482.533
53.2129 -80.2519 482.533
53.2512 -79.4438 482.88
53.2512 -78.578 482.88
53.2512 -77.7121 482.88
53.328 -76.957 483.576
53.328 -76.0899 483.576
53.3665 -75.2771 483.925
98.6212 -135.905 894.294
98.3589 -133.944 891.915
97.9681 -131.819 888.371
97.8385 -130.054 887.196
97.8385 -128.463 887.196
97.7093 -126.704 886.024
96.9409 -124.132 879.057
95.8108 -121.127 868.809
94.8281 -118.342 859.898
94.8281 -116.8 859.898
94.5856 -114.964 857.699
94.7067 -113.571 858.797
94.5856 -111.888 857.699
94.1042 -109.788 853.334
93.9846 -108.121 852.25
93.8654 -106.457 851.168
93.6277 -104.665 849.013
92.4574 -101.853 838.401
92.112 -99.9752 835.268
91.9974 -98.3549 834.229
91.9974 -96.859 834.229
91.8831 -95.2447 833.193
91.091 -92.9425 826.01
90.2023 -90.569 817.952
89.4388 -88.3481 811.028
89.3308 -86.7889 810.049
89.3308 -85.3363 810.049
89.3308 -83.8838 810.049
89.1155 -82.2326 808.097
88.5819 -80.2999 803.258
88.3703 -78.6711 801.339
88.3703 -77.2342 801.339
88.3703 -75.7973 801.339
88.0546 -74.0948 798.477
87.6373 -72.3186 794.692
87.0187 -70.3932 789.083
86.8144 -68.8163 787.231
86.7127 -67.3257 786.308
86.0069 -65.3792 779.907
85.907 -63.9064 779.002
85.411 -62.1486 774.504
84.9207 -60.411 770.058
84.6292 -58.8276 767.415
84.3397 -57.255 764.79
83.8616 -55.5668 760.454
83.6718 -54.0806 758.734
83.5773 -52.6605 757.876
83.1078 -51.0133 753.618
82.9214 -49.5506 751.929
82.8286 -48.1483 751.087
82.7359 -46.7492 750.247
82.2758 -45.1513 746.074
82.1843 -43.7648 745.245
81.5501 -42.101 739.493
81.2812 -40.6406 737.055
81.103 -39.2327 735.439
80.8371 -37.7897 733.028
80.7488 -36.4354 732.228
80.7488 -35.1224 732.228
80.1364 -33.5531 726.674
79.4478 -31.9729 720.43
79.4478 -30.6811 720.43
79.2775 -29.3262 718.886
54.8302 104.534 497.198
54.7896 105.347 496.83
54.749 106.16 496.462
54.6277 106.813 495.362
54.5874 107.621 494.997
54.5069 108.349 494.267
54.2272 108.675 491.731
54.1875 109.476 491.37
54.0291 110.035 489.935
53.9503 110.752 489.22
53.7153 111.143 487.088
53.7934 112.179 487.797
53.7934 113.054 487.797
53.6373 113.598 486.382
53.5985 114.387 486.029
53.5597 115.175 485.677
53.328 115.544 483.576
53.2896 116.327 483.228
53.2129 117.025 482.533
52.9842 117.384 480.459
52.7951 117.823 478.744
52.6823 118.428 477.721
52.6823 119.285 477.721
52.6448 120.056 477.381
52.6823 120.998 477.721
52.6823 121.855 477.721
52.4581 122.189 475.688
52.2727 122.607 474.007
52.1989 123.283 473.338
52.1254 123.957 472.671
52.0887 124.716 472.338
52.0887 125.563 472.338
51.8695 125.878 470.351
52.0887 127.257 472.338
51.7244 127.208 469.035
51.5442 127.603 467.401
51.3652 127.995 465.778
50.8008 128.241 460.66
50.6963 128.802 459.712
50.5923 129.36 458.769
50.4542 129.827 457.517
50.3512 130.381 456.583
50.3855 131.289 456.894
50.3512 132.018 456.583
50.3512 132.837 456.583
50.3855 133.747 456.894
50.3855 134.566 456.894
46.5487 151.567 422.102
46.461 152.037 421.307
45.4895 157.734 412.497
45.5175 158.571 412.751
45.5455 160.15 413.005
45.5736 160.99 413.26
53.6153 -120.742 478.403
53.6153 -119.884 478.403
53.6153 -119.026 478.403
53.6919 -118.337 479.086
53.7687 -117.646 479.771
53.7687 -116.786 479.771
53.6919 -115.76 479.086
53.6153 -114.737 478.403
53.6153 -113.879 478.403
53.5389 -112.86 477.721
53.6919 -112.323 479.086
53.8843 -111.864 480.803
53.5389 -110.29 477.721
53.6919 -109.746 479.086
53.8072 -109.121 480.115
53.8457 -108.338 480.459
53.8072 -107.399 480.115
53.8072 -106.538 480.115
53.8072 -105.677 480.115
53.8072 -104.816 480.115
53.8072 -103.955 480.115
53.6153 -102.727 478.403
53.5008 -101.651 477.381
53.5008 -100.795 477.381
53.4627 -99.8684 477.042
53.4247 -98.9426 476.703
53.5008 -98.2274 477.381
53.5771 -97.5102 478.062
53.6153 -96.7219 478.403
53.5771 -95.7958 478.062
53.6919 -95.142 479.086
53.8457 -94.5531 480.459
53.923 -93.8259 481.148
53.923 -92.9632 481.148
53.923 -92.1004 481.148
54.0393 -91.4344 482.186
54.1171 -90.7002 482.88
53.8457 -89.3839 480.459
53.8457 -88.5223 480.459
53.8457 -87.6608 480.459
53.8457 -86.7993 480.459
53.8843 -85.9994 480.803
53.8457 -85.0762 480.459
53.8843 -84.2751 480.803
53.8843 -83.4129 480.803
53.9617 -82.6693 481.493
54.0004 -81.8647 481.839
54.0781 -81.1172 482.533
54.0781 -80.2519 482.533
54.1171 -79.4438 482.88
54.1171 -78.578 482.88
54.1171 -77.7121 482.88
54.2342 -77.0126 483.925
54.3126 -76.2549 484.625
99.6931 -133.589 889.55
99.4294 -131.645 887.196
99.4294 -130.054 887.196
99.298 -128.293 886.024
99.167 -126.537 884.855
97.1171 -120.814 866.564
96.6177 -118.647 862.109
96.4937 -116.95 861.002
96.37 -115.259 859.898
96.37 -113.717 859.898
96.2466 -112.031 858.797
95.8783 -110.068 855.511
95.6344 -108.258 853.334
95.3916 -106.457 851.168
94.9099 -104.401 846.869
93.7264 -101.599 836.31
93.4933 -99.8508 834.229
93.4933 -98.3549 834.229
93.4933 -96.859 834.229
92.8008 -94.6568 828.05
92.3447 -92.7141 823.981
91.669 -90.569 817.952
91.224 -88.6698 813.981
90.8931 -86.8938 811.028
90.7833 -85.3363 810.049
90.7833 -83.8838 810.049
90.1302 -81.8382 804.221
90.0223 -80.2999 803.258
90.0223 -78.8595 803.258
89.8072 -77.2342 801.339
89.7 -75.7068 800.382
89.7 -74.2716 800.382
89.0623 -72.3186 794.692
88.3297 -70.3105 788.156
88.2261 -68.8163 787.231
88.2261 -67.4047 787.231
87.4054 -65.3792 779.907
87.3038 -63.9064 779.002
86.7998 -62.1486 774.504
86.4007 -60.4805 770.943
86.1038 -58.895 768.294
85.8089 -57.3203 765.663
85.2252 -55.5668 760.454
85.0324 -54.0806 758.734
84.9363 -52.6605 757.876
84.5541 -51.0707 754.466
84.3643 -49.6062 752.773
84.0812 -48.0945 750.247
84.0812 -46.7492 750.247
83.8935 -45.3025 748.572
83.1511 -43.5712 741.947
82.6029 -41.9623 737.055
82.4217 -40.5515 735.439
82.3314 -39.1898 734.634
82.1515 -37.7897 733.028
82.0618 -36.4354 732.228
82.0618 -35.1224 732.228
81.6163 -33.6259 728.252
80.8264 -32.0073 721.205
80.7396 -30.6811 720.43
80.5666 -29.3262 718.886
80.4803 -28.0071 718.116
80.3942 -26.6909 717.348
55.7217 104.534 497.198
55.6804 105.347 496.83
55.557 106.003 495.728
55.475 106.734 494.997
55.4341 107.542 494.632
55.3117 108.19 493.54
55.1089 108.675 491.731
55.0686 109.476 491.37
54.9077 110.035 489.935
54.8276 110.752 489.22
54.6681 111.304 487.797
54.6681 112.179 487.797
54.6681 113.054 487.797
54.5095 113.598 486.382
54.4306 114.304 485.677
54.4306 115.175 485.677
54.3912 115.962 485.326
54.2734 116.579 484.275
54.1951 117.278 483.576
53.8843 117.468 480.803
53.6153 117.739 478.403
53.5389 118.428 477.721
53.5389 119.285 477.721
53.5008 120.056 477.381
53.5008 120.912 477.381
53.5389 121.855 477.721
53.1227 121.757 474.007
53.0477 122.434 473.338
53.0103 123.196 473.005
52.9729 123.957 472.671
52.9356 124.716 472.338
52.9729 125.652 472.671
52.8612 126.233 471.674
52.9729 127.347 472.671
53.0103 128.285 473.005
52.3094 127.426 466.75
52.0919 127.729 464.81
51.4853 127.89 459.398
51.4501 128.625 459.083
51.3096 129.095 457.83
51.2397 129.739 457.205
51.1351 130.292 456.272
51.2397 131.379 457.205
51.2048 132.108 456.894
51.2048 132.928 456.894
51.3096 134.021 457.83
47.3354 152.42 422.368
46.2576 157.091 412.751
46.2576 157.831 412.751
46.2861 158.669 413.005
46.3717 159.704 413.77
46.4004 160.545 414.025
46.4004 161.288 414.025
46.5152 162.431 415.05
46.6017 163.479 415.822
54.3568 -118.772 477.381
54.7072 -118.676 480.459
54.7465 -117.899 480.803
54.7072 -116.953 480.459
54.5509 -115.76 479.086
54.4731 -114.737 478.403
54.4731 -113.879 478.403
54.3955 -112.86 477.721
54.3955 -112.003 477.721
54.7465 -111.864 480.803
54.3568 -110.212 477.381
54.3568 -109.356 477.381
54.7072 -109.199 480.459
54.7072 -108.338 480.459
54.7072 -107.476 480.459
54.7072 -106.615 480.459
54.7072 -105.753 480.459
54.6681 -104.816 480.115
54.4343 -103.511 478.062
54.3568 -102.508 477.381
54.3568 -101.651 477.381
54.3568 -100.795 477.381
54.3568 -99.9395 477.381
54.2025 -98.8022 476.026
54.3568 -98.2274 477.381
54.3955 -97.4408 477.721
54.4343 -96.653 478.062
54.3955 -95.7275 477.721
54.512 -95.0741 478.744
54.7072 -94.5531 480.459
54.7465 -93.7587 480.803
54.7072 -92.83 480.459
54.7465 -92.0344 480.803
54.7465 -91.1722 480.803
54.7465 -90.3101 480.803
54.7072 -89.3839 480.459
54.7072 -88.5223 480.459
54.7072 -87.6608 480.459
54.7072 -86.7993 480.459
54.7465 -85.9994 480.803
54.7072 -85.0762 480.459
54.7465 -84.2751 480.803
54.7465 -83.4129 480.803
54.8251 -82.6693 481.493
54.8644 -81.8647 481.839
54.9434 -81.1172 482.533
54.9829 -80.3097 482.88
54.9829 -79.4438 482.88
55.0226 -78.6346 483.228
55.0226 -77.7681 483.228
55.0226 -76.9016 483.228
55.0622 -76.0899 483.576
101.288 -133.589 889.55
101.02 -131.645 887.196
101.02 -130.054 887.196
101.02 -128.463 887.196
100.754 -126.537 884.855
100.225 -124.295 880.211
99.9624 -122.395 877.906
98.4166 -118.952 864.33
98.0376 -116.95 861.002
97.9119 -115.259 859.898
97.7866 -113.571 858.797
97.7866 -112.031 858.797
97.1645 -109.788 853.334
97.041 -108.121 852.25
96.9179 -106.457 851.168
96.9179 -104.931 851.168
95.2261 -101.599 836.31
95.2261 -100.1 836.31
95.1075 -98.4774 835.268
95.1075 -96.9797 835.268
94.8712 -95.2447 833.193
93.8222 -92.7141 823.981
93.0223 -90.4587 816.955
92.6836 -88.6698 813.981
92.4592 -86.999 812.01
92.3474 -85.4395 811.028
92.2359 -83.8838 810.049
91.3532 -81.6425 802.297
91.3532 -80.2038 802.297
91.3532 -78.7652 802.297
91.3532 -77.3266 802.297
91.2441 -75.7973 801.339
90.9182 -74.0948 798.477
90.4873 -72.3186 794.692
89.743 -70.3105 788.156
89.6377 -68.8163 787.231
89.6377 -67.4047 787.231
88.8038 -65.3792 779.907
88.4951 -63.7583 777.196
88.0869 -62.077 773.611
87.7831 -60.4805 770.943
87.4814 -58.895 768.294
87.0824 -57.255 764.79
86.4907 -55.5039 759.593
86.1007 -53.8977 756.167
86.0037 -52.4826 755.316
85.7141 -50.956 752.773
85.618 -49.5506 751.929
85.2358 -47.9871 748.572
83.9245 -45.9272 737.055
83.9245 -44.6055 737.055
83.7405 -43.189 735.439
83.7405 -41.8702 735.439
83.6487 -40.5071 734.634
83.5572 -39.1469 733.83
83.4659 -37.7897 733.028
83.4659 -36.4753 733.028
83.4659 -35.1608 733.028
83.0123 -33.6625 729.044
82.2081 -32.0417 721.981
82.0315 -30.6811 720.43
81.9435 -29.3577 719.657
81.8556 -28.0372 718.886
81.8556 -26.7481 718.886
56.6133 104.534 497.198
56.5713 105.347 496.83
56.4042 105.924 495.362
56.3626 106.734 494.997
56.2795 107.463 494.267
56.0729 107.951 492.453
55.9497 108.595 491.37
55.8678 109.316 490.651
55.7862 110.035 489.935
55.6642 110.671 488.863
55.6237 111.466 488.507
55.6642 112.424 488.863
55.6237 113.218 488.507
55.4621 113.763 487.088
55.3415 114.387 486.029
55.3415 115.259 486.029
55.3015 116.046 485.677
55.1417 116.579 484.275
55.0622 117.278 483.576
54.7465 117.468 480.803
54.629 118.076 479.771
54.4731 118.597 478.403
54.4343 119.37 478.062
54.3568 120.056 477.381
54.2795 120.74 476.703
53.8965 121.585 473.338
53.8205 122.262 472.671
53.8205 123.109 472.671
53.8205 123.957 472.671
53.7826 124.716 472.338
53.7448 125.475 472.006
53.3692 125.439 468.707
53.2204 125.927 467.401
53.1834 126.677 467.075
53.1464 127.426 466.75
52.8156 127.464 463.845
52.4168 128.153 460.343
52.1662 128.362 458.142
52.0595 128.919 457.205
51.9886 129.562 456.583
51.9533 130.292 456.272
51.9533 131.11 456.272
51.9179 131.839 455.962
51.8123 132.386 455.034
51.7772 133.112 454.726
51.4631 134.736 451.968
48.0625 152.324 422.102
48.0323 152.985 421.837
47.0556 157.284 413.26
47.0556 158.025 413.26
47.0556 158.766 413.26
47.1137 159.704 413.77
47.1428 160.545 414.025
55.41 -121.773 479.086
55.41 -120.914 479.086
55.41 -120.055 479.086
55.2128 -118.772 477.381
55.2128 -117.916 477.381
55.2128 -117.06 477.381
55.2128 -116.204 477.381
55.0952 -115.102 476.364
55.0952 -114.248 476.364
55.0952 -113.394 476.364
55.1735 -112.699 477.042
55.2128 -111.924 477.381
55.2521 -111.147 477.721
55.2521 -110.29 477.721
55.2521 -109.433 477.721
55.331 -108.732 478.403
55.4893 -108.183 479.771
55.4496 -107.246 479.428
55.2915 -106.083 478.062
55.2915 -105.225 478.062
55.2521 -104.294 477.721
55.2521 -103.437 477.721
55.2128 -102.508 477.381
55.2128 -101.651 477.381
55.2128 -100.795 477.381
55.2521 -100.011 477.721
55.0952 -98.8723 476.364
55.2521 -98.2974 477.721
55.2521 -97.4408 477.721
55.2915 -96.653 478.062
55.2521 -95.7275 477.721
55.331 -95.0062 478.403
55.529 -94.4854 480.115
55.5688 -93.6915 480.459
55.5688 -92.83 480.459
55.5688 -91.9685 480.459
55.6086 -91.1722 480.803
55.6086 -90.3101 480.803
55.529 -89.3199 480.115
55.5688 -88.5223 480.459
55.5688 -87.6608 480.459
55.5688 -86.7993 480.459
55.5688 -85.9377 480.459
55.5688 -85.0762 480.459
55.6086 -84.2751 480.803
55.6086 -83.4129 480.803
55.6086 -82.5508 480.803
55.6086 -81.6886 480.803
55.7284 -81.0006 481.839
55.7284 -80.1366 481.839
55.7685 -79.3296 482.186
55.7284 -78.4086 481.839
56.0506 -77.9929 484.625
56.1317 -77.2355 485.326
55.9697 -76.1448 483.925
102.747 -133.412 888.371
102.611 -131.645 887.196
102.611 -130.054 887.196
102.611 -128.463 887.196
102.34 -126.537 884.855
101.537 -123.969 877.906
100.484 -121.127 868.809
99.7095 -118.647 862.109
99.5815 -116.95 861.002
99.4538 -115.259 859.898
99.4538 -113.717 859.898
99.5815 -112.319 861.002
99.1995 -110.35 857.699
98.9464 -108.534 855.511
98.4442 -106.457 851.168
97.947 -104.401 846.869
96.7257 -101.599 836.31
96.7257 -100.1 836.31
96.6052 -98.4774 835.268
96.4851 -96.859 834.229
95.417 -94.3075 824.994
94.7179 -92.1481 818.95
94.6024 -90.569 817.952
94.4872 -88.9938 816.955
94.1432 -87.2102 813.981
93.8017 -85.4395 811.028
93.5754 -83.7826 809.072
93.0144 -81.8382 804.221
92.7919 -80.2038 802.297
92.7919 -78.7652 802.297
92.7919 -77.3266 802.297
92.681 -75.7973 801.339
92.7919 -74.4493 802.297
92.35 -72.663 798.477
90.8361 -70.0635 785.387
90.8361 -68.6552 785.387
90.6238 -67.0897 783.552
90.0976 -65.3033 779.002
89.8888 -63.7583 777.196
89.474 -62.077 773.611
88.961 -60.3418 769.175
88.656 -58.7604 766.538
88.2526 -57.1247 763.049
87.8528 -55.5039 759.593
87.6542 -54.0195 757.876
87.3581 -52.4826 755.316
86.9664 -50.8989 751.929
86.869 -49.4951 751.087
86.5781 -47.9871 748.572
86.0977 -46.386 744.418
85.8119 -44.9016 741.947
85.5281 -43.4271 739.493
85.5281 -42.101 739.493
85.3399 -40.6853 737.866
84.8731 -39.1469 733.83
84.7803 -37.7897 733.028
84.6878 -36.4354 732.228
84.6878 -35.1224 732.228
84.5033 -33.7358 730.632
83.6828 -32.1109 723.539
83.3233 -30.6811 720.43
83.2339 -29.3577 719.657
83.2339 -28.0672 719.657
83.1447 -26.7481 718.886
57.891 100.748 500.538
57.8048 101.494 499.792
57.633 102.086 498.306
57.633 102.98 498.306
57.633 103.873 498.306
57.4622 104.457 496.83
57.2925 105.036 495.362
57.2502 105.846 494.997
57.208 106.655 494.632
57.1237 107.384 493.903
56.9559 107.951 492.453
56.7061 108.357 490.293
56.5821 108.997 489.22
56.5408 109.794 488.863
56.4996 110.59 488.507
56.4175 111.304 487.797
56.3765 112.097 487.442
56.2946 112.807 486.735
56.2946 113.68 486.735
56.213 114.387 486.029
56.213 115.259 486.029
56.1317 115.962 485.326
56.2538 117.086 486.382
56.1723 117.788 485.677
55.7284 117.721 481.839
55.4893 118.076 479.771
55.2915 118.512 478.062
55.2521 119.285 477.721
55.2128 120.056 477.381
55.1343 120.74 476.703
54.7066 121.5 473.005
54.6681 122.262 472.671
54.6681 123.109 472.671
54.6681 123.957 472.671
54.5911 124.629 472.006
54.0209 125.002 467.075
54.0209 125.839 467.075
53.9833 126.589 466.75
54.0209 127.514 467.075
53.7961 127.818 465.132
53.6844 128.385 464.166
53.1329 128.713 459.398
53.0239 129.271 458.456
52.8793 129.739 457.205
52.7356 130.204 455.962
52.7714 131.11 456.272
52.7714 131.929 456.272
52.6282 132.386 455.034
52.5569 133.022 454.418
52.5925 133.928 454.726
52.4149 134.288 453.189
52.3441 134.918 452.578
48.9735 152.805 423.435
48.8501 153.177 422.368
47.974 157.868 414.793
47.8852 158.318 414.025
47.8556 158.962 413.77
47.9444 160 414.537
48.0632 161.142 415.564
56.3496 -121.947 479.771
56.3093 -121 479.428
56.1888 -119.884 478.403
56.0688 -118.772 477.381
55.9891 -117.748 476.703
55.9494 -116.81 476.364
55.9494 -115.956 476.364
55.9096 -115.02 476.026
55.9096 -114.167 476.026
55.87 -113.233 475.688
56.0289 -112.699 477.042
56.1088 -112.003 477.721
56.1088 -111.147 477.721
56.1088 -110.29 477.721
56.1088 -109.433 477.721
56.1488 -108.654 478.062
56.1088 -107.72 477.721
55.9096 -106.484 476.026
55.9494 -105.706 476.364
55.9096 -104.777 476.026
55.87 -103.85 475.688
55.8304 -102.924 475.351
55.9096 -102.216 476.026
56.0289 -101.579 477.042
56.0688 -100.795 477.381
56.1088 -100.011 477.721
56.0289 -99.013 477.042
56.0289 -98.1576 477.042
56.0688 -97.3714 477.381
56.1088 -96.5842 477.721
56.0688 -95.6594 477.381
56.1088 -94.8709 477.721
56.3093 -94.3503 479.428
56.4303 -93.6915 480.459
56.3899 -92.7635 480.115
56.4303 -91.9685 480.459
56.4708 -91.1722 480.803
56.4708 -90.3101 480.803
56.4303 -89.3839 480.459
56.4303 -88.5223 480.459
56.4303 -87.6608 480.459
56.4303 -86.7993 480.459
56.4303 -85.9377 480.459
56.4303 -85.0762 480.459
56.4708 -84.2751 480.803
56.4708 -83.4129 480.803
56.5925 -82.7287 481.839
56.5925 -81.8647 481.839
56.6739 -81.1172 482.533
56.6739 -80.2519 482.533
56.7555 -79.5011 483.228
56.7555 -78.6346 483.228
56.9196 -77.9929 484.625
57.0019 -77.2355 485.326
104.478 -133.589 889.55
104.202 -131.645 887.196
104.202 -130.054 887.196
104.064 -128.293 886.024
103.654 -126.204 882.527
103.111 -123.969 877.906
102.307 -121.441 871.065
102.042 -119.569 868.809
101.516 -117.403 864.33
101.255 -115.555 862.109
101.255 -114.009 862.109
101.255 -112.463 862.109
100.996 -110.633 859.898
100.737 -108.812 857.699
99.9704 -106.457 851.168
99.4655 -104.401 846.869
98.2253 -101.599 836.31
98.2253 -100.1 836.31
98.103 -98.4774 835.268
97.981 -96.859 834.229
96.8963 -94.3075 824.994
96.304 -92.2607 819.952
96.1864 -90.6796 818.95
95.9521 -88.9938 816.955
95.8354 -87.4224 815.962
95.4869 -85.6466 812.994
95.256 -83.9852 811.028
94.2305 -81.6425 802.297
94.0056 -80.0124 800.382
94.0056 -78.5772 800.382
94.0056 -77.142 800.382
93.559 -75.3472 796.58
92.897 -73.3958 790.944
92.2444 -71.4718 785.387
91.8143 -69.7368 781.725
91.8143 -68.3351 781.725
91.7074 -66.8554 780.815
91.4944 -65.3033 779.002
91.1767 -63.6845 776.297
90.6521 -61.9341 771.83
90.1335 -60.2037 767.415
90.0305 -58.7604 766.538
89.6208 -57.1247 763.049
89.1139 -55.4411 758.734
88.9128 -53.9585 757.021
88.7125 -52.4826 755.316
88.4138 -50.956 752.773
88.3147 -49.5506 751.929
88.2158 -48.1483 751.087
88.2158 -46.8015 751.087
87.5297 -45.1012 745.245
87.4325 -43.7163 744.418
87.1424 -42.2408 741.947
86.663 -40.6853 737.866
86.4728 -39.2758 736.246
86.1889 -37.831 733.83
86.0947 -36.4753 733.028
86.0008 -35.1224 732.228
86.0008 -33.8095 732.228
84.9803 -32.1109 723.539
84.6151 -30.6811 720.43
84.5244 -29.3577 719.657
84.4338 -28.0372 718.886
84.4338 -26.7481 718.886
58.7886 100.748 500.538
58.7886 101.646 500.538
58.701 102.391 499.792
58.7447 103.364 500.164
58.5265 103.873 498.306
58.3531 104.457 496.83
58.1378 104.959 494.997
58.0949 105.768 494.632
58.0521 106.577 494.267
58.0093 107.384 493.903
57.839 107.951 492.453
57.7119 108.595 491.37
57.5012 109.077 489.577
57.4174 109.794 488.863
57.4174 110.671 488.863
57.2921 111.304 487.797
57.126 111.853 486.382
57.0432 112.562 485.677
57.0846 113.515 486.029
57.0019 114.221 485.326
56.9607 115.009 484.975
56.9196 115.794 484.625
57.2089 117.256 487.088
57.126 117.959 486.382
56.3496 117.216 479.771
56.3899 118.161 480.115
56.1888 118.597 478.403
56.1088 119.285 477.721
56.0289 119.97 477.042
55.8304 120.398 475.351
55.4766 120.482 472.338
55.4766 121.328 472.338
55.4766 122.175 472.338
55.4766 123.022 472.338
55.3596 123.608 471.343
55.2819 124.279 470.681
54.8202 124.078 466.75
54.7441 124.741 466.102
54.5923 125.229 464.81
54.6302 126.15 465.132
54.6302 126.984 465.132
54.5545 127.641 464.488
54.2913 127.854 462.247
54.1049 128.241 460.66
53.9197 128.625 459.083
53.6992 128.919 457.205
53.6261 129.562 456.583
53.4804 130.027 455.343
53.5532 131.021 455.962
53.5532 131.839 455.962
53.5532 132.656 455.962
53.4442 133.202 455.034
53.4442 134.018 455.034
53.3356 134.56 454.11
48.6576 157.673 414.281
48.6276 158.318 414.025
48.6276 159.06 414.025
48.7178 160.099 414.793
48.8386 161.242 415.822
57.2508 -122.896 480.115
57.2099 -121.947 479.771
57.2099 -121.087 479.771
57.0466 -119.884 478.403
56.9248 -118.772 477.381
56.8035 -117.664 476.364
56.8035 -116.81 476.364
56.7632 -115.874 476.026
56.6828 -114.857 475.351
56.6426 -113.924 475.014
56.6025 -112.992 474.678
56.6025 -112.141 474.678
56.6025 -111.29 474.678
56.6025 -110.439 474.678
56.6025 -109.588 474.678
56.9248 -108.5 477.381
56.9248 -107.644 477.381
56.8843 -106.712 477.042
56.8843 -105.856 477.042
56.7632 -104.777 476.026
56.6828 -103.776 475.351
56.6828 -102.924 475.351
56.723 -102.144 475.688
56.7632 -101.363 476.026
56.8035 -100.581 476.364
56.8843 -99.8684 477.042
56.8439 -98.9426 476.703
56.9248 -98.2274 477.381
56.9248 -97.3714 477.381
56.9248 -96.5154 477.381
56.9248 -95.6594 477.381
56.9654 -94.8709 477.721
57.0874 -94.2156 478.744
57.2508 -93.6245 480.115
57.2508 -92.7635 480.115
57.2918 -91.9685 480.459
57.3329 -91.1722 480.803
57.3329 -90.3101 480.803
57.2918 -89.3839 480.459
57.2918 -88.5223 480.459
57.3329 -87.7237 480.803
57.2918 -86.7993 480.459
57.3329 -85.9994 480.803
57.3329 -85.1372 480.803
57.4565 -84.4567 481.839
57.4565 -83.5927 481.839
57.4565 -82.7287 481.839
57.4565 -81.8647 481.839
57.5806 -81.1756 482.88
57.622 -80.3676 483.228
57.7052 -79.6158 483.925
105.793 -133.235 887.196
105.793 -131.645 887.196
105.793 -130.054 887.196
105.653 -128.293 886.024
105.514 -126.537 884.855
104.822 -124.132 879.057
104.14 -121.757 873.334
103.735 -119.724 869.936
103.333 -117.706 866.564
103.066 -115.853 864.33
102.801 -114.009 862.109
102.669 -112.319 861.002
102.275 -110.35 857.699
101.755 -108.258 853.334
101.368 -106.322 850.089
100.984 -104.401 846.869
99.9742 -101.853 838.401
99.7249 -100.1 836.31
99.6007 -98.4774 835.268
99.4769 -96.859 834.229
98.2548 -94.1916 823.981
97.6549 -92.1481 818.95
97.6549 -90.6796 818.95
97.417 -88.9938 816.955
97.417 -87.5288 816.955
97.0624 -85.7506 813.981
96.5935 -83.8838 810.049
95.6691 -81.6425 802.297
95.4408 -80.0124 800.382
94.9874 -78.2039 796.58
94.8747 -76.6845 795.635
94.8747 -75.2578 795.635
94.3153 -73.3958 790.944
93.6527 -71.4718 785.387
93.4339 -69.8998 783.552
93.4339 -68.4948 783.552
93.3249 -67.0115 782.638
92.8913 -65.3033 779.002
92.7835 -63.8323 778.098
92.1422 -62.0054 772.719
91.8248 -60.411 770.058
91.5096 -58.8276 767.415
91.1966 -57.255 764.79
90.7825 -55.6299 761.317
90.4744 -54.0806 758.734
90.4744 -52.7201 758.734
90.1684 -51.1858 756.167
89.7636 -49.6062 752.773
89.663 -48.2023 751.929
89.5626 -46.8015 751.087
88.9648 -45.1513 746.074
88.7674 -43.7163 744.418
88.669 -42.3344 743.593
88.1801 -40.775 739.493
87.4092 -39.1041 733.028
87.3138 -37.7484 732.228
87.2185 -36.3957 731.429
86.8397 -34.9318 728.252
86.6516 -33.5531 726.674
86.1847 -32.0763 722.759
85.907 -30.6811 720.43
85.907 -29.3892 720.43
85.8148 -28.0672 719.657
85.7228 -26.7481 718.886
59.82 100.974 501.661
59.6861 101.646 500.538
59.6416 102.467 500.164
59.5972 103.287 499.792
59.4642 103.951 498.677
59.2879 104.534 497.198
59.069 105.036 495.362
59.0254 105.846 494.997
59.0254 106.734 494.997
58.9819 107.542 494.632
58.7652 108.031 492.814
58.4218 108.278 489.935
58.294 108.918 488.863
58.2516 109.714 488.507
58.2516 110.59 488.507
58.2092 111.385 488.152
58.0402 111.935 486.735
57.9561 112.644 486.029
57.9981 113.598 486.382
57.9141 114.304 485.677
57.9141 115.175 485.677
57.8722 115.962 485.326
57.9981 117.086 486.382
57.9141 117.788 485.677
57.2099 117.216 479.771
57.2918 118.245 480.459
57.0874 118.682 478.744
56.9654 119.285 477.721
56.6828 119.545 475.351
56.5225 120.057 474.007
56.3235 120.482 472.338
56.3235 121.328 472.338
56.3235 122.175 472.338
56.3235 123.022 472.338
56.0472 123.262 470.021
55.696 123.327 467.075
55.6185 123.992 466.426
55.5027 124.568 465.455
55.4642 125.316 465.132
55.5027 126.237 465.455
55.5027 127.072 465.455
55.3874 127.641 464.488
55.0065 127.59 461.293
54.7804 127.89 459.398
54.7429 128.625 459.083
54.5562 129.007 457.517
54.4819 129.65 456.894
54.2969 130.027 455.343
54.2969 130.843 455.343
54.3338 131.749 455.652
54.3708 132.656 455.962
54.2601 133.202 455.034
54.2233 133.928 454.726
54.1866 134.652 454.418
54.1866 135.466 454.418
54.1133 136.097 453.803
49.615 157.612 416.08
49.4005 158.416 414.281
49.37 159.06 414.025
49.5843 160.496 415.822
49.615 161.342 416.08
57.9045 -122.457 478.403
58.0702 -121.947 479.771
58.0702 -121.087 479.771
57.8632 -119.798 478.062
57.7398 -118.687 477.042
57.4944 -117.331 475.014
57.4537 -116.397 474.678
57.4131 -115.464 474.343
57.4131 -114.614 474.343
57.4131 -113.763 474.343
57.4131 -112.912 474.343
57.4131 -112.062 474.343
57.4131 -111.211 474.343
57.4131 -110.361 474.343
57.4131 -109.51 474.343
57.4944 -108.813 475.014
57.6987 -108.345 476.703
57.6987 -107.491 476.703
57.5351 -106.333 475.351
57.5351 -105.481 475.351
57.4944 -104.555 475.014
57.4944 -103.703 475.014
57.5351 -102.924 475.351
57.576 -102.144 475.688
57.6168 -101.363 476.026
57.6577 -100.581 476.364
57.6987 -99.7974 476.703
57.6577 -98.8723 476.364
57.6987 -98.0878 476.703
57.7398 -97.3022 477.042
57.7808 -96.5154 477.381
57.7808 -95.6594 477.381
57.822 -94.8709 477.721
57.9458 -94.2156 478.744
58.1117 -93.6245 480.115
58.0287 -92.6309 479.428
58.0287 -91.7712 479.428
58.1117 -91.0417 480.115
58.0702 -90.1163 479.771
57.9458 -89.0649 478.744
58.1534 -88.5223 480.459
58.195 -87.7237 480.803
58.2786 -86.9862 481.493
58.2786 -86.1228 481.493
58.4464 -85.505 482.88
58.4044 -84.5782 482.533
58.3624 -83.6528 482.186
58.3205 -82.7287 481.839
58.3205 -81.8647 481.839
58.4885 -81.2341 483.228
58.4885 -80.3676 483.228
107.526 -133.412 888.371
107.526 -131.819 888.371
107.526 -130.226 888.371
107.384 -128.463 887.196
107.1 -126.537 884.855
106.538 -124.295 880.211
106.12 -122.235 876.759
105.706 -120.191 873.334
105.158 -118.011 868.809
104.886 -116.152 866.564
104.616 -114.303 864.33
104.347 -112.463 862.109
103.813 -110.35 857.699
103.285 -108.258 853.334
103.023 -106.457 851.168
103.023 -104.931 851.168
101.225 -101.599 836.31
100.973 -99.8508 834.229
101.098 -98.4774 835.268
101.098 -96.9797 835.268
99.7323 -94.1916 823.981
99.1234 -92.1481 818.95
99.1234 -90.6796 818.95
99.0025 -89.1023 817.952
98.882 -87.5288 816.955
98.522 -85.7506 813.981
98.1646 -83.9852 811.028
97.1078 -81.6425 802.297
96.9917 -80.108 801.339
96.4158 -78.2039 796.58
96.1873 -76.5936 794.692
96.0735 -75.0796 793.752
95.3961 -73.137 788.156
95.1724 -71.5556 786.308
94.9498 -69.9815 784.468
95.061 -68.6552 785.387
94.8389 -67.0897 783.552
94.3978 -65.3792 779.907
94.2881 -63.9064 779.002
93.7438 -62.1486 774.504
93.4201 -60.5501 771.83
93.2056 -59.0302 770.058
92.6736 -57.3203 765.663
92.4625 -55.82 763.918
91.9389 -54.1418 759.593
91.8349 -52.7201 758.734
91.5243 -51.1858 756.167
91.1135 -49.6062 752.773
91.0113 -48.2023 751.929
91.0113 -46.854 751.929
90.605 -45.3025 748.572
90.3027 -43.8135 746.074
90.1022 -42.3814 744.418
89.3092 -40.6853 737.866
88.918 -39.1898 734.634
88.7236 -37.7897 733.028
88.6267 -36.4354 732.228
88.2414 -34.9697 729.044
87.8594 -33.5167 725.888
87.5751 -32.1109 723.539
87.2926 -30.7141 721.205
87.1988 -29.3892 720.43
87.0119 -28.0372 718.886
86.9187 -26.7195 718.116
60.9018 100.375 503.166
60.9933 101.43 503.922
60.765 101.95 502.036
60.6289 102.62 500.911
60.4033 103.133 499.048
60.4033 104.028 499.048
60.1795 104.534 497.198
59.9572 105.036 495.362
59.913 105.846 494.997
59.8688 106.655 494.632
59.7806 107.384 493.903
59.5613 107.872 492.091
59.2138 108.12 489.22
59.1706 108.918 488.863
59.1275 109.714 488.507
59.1706 110.671 488.863
59.1275 111.466 488.507
58.9986 112.097 487.442
58.8276 112.644 486.029
58.913 113.68 486.735
58.785 114.304 485.677
58.8276 115.259 486.029
58.8703 116.214 486.382
57.822 118.428 477.721
57.6168 118.861 476.026
57.5351 119.545 475.351
57.2511 119.803 473.005
57.1705 120.482 472.338
57.1705 121.328 472.338
57.1303 122.089 472.006
57.0901 122.849 471.674
56.8502 123.175 469.692
56.4942 123.241 466.75
56.2983 123.648 465.132
56.2592 124.395 464.81
56.2592 125.229 464.81
56.2203 125.975 464.488
56.2203 126.808 464.488
56.0263 127.2 462.885
55.8721 127.678 461.611
55.6804 128.065 460.028
55.6423 128.802 459.712
55.5661 129.448 459.083
55.3388 129.739 457.205
55.2259 130.292 456.272
55.0387 130.666 454.726
55.0387 131.481 454.726
55.0387 132.297 454.726
55.0014 133.022 454.418
55.0014 133.837 454.418
54.927 134.469 453.803
54.9642 135.375 454.11
54.7418 135.638 452.273
54.6681 136.265 451.664
59.0149 -123.845 480.459
58.8463 -122.632 479.086
58.8463 -121.773 479.086
58.7623 -120.742 478.403
58.1814 -118.698 473.673
58.1814 -117.849 473.673
58.2225 -117.082 474.007
58.1814 -116.15 473.673
58.2225 -115.382 474.007
58.2636 -114.614 474.343
58.2636 -113.763 474.343
58.2636 -112.912 474.343
58.3049 -112.141 474.678
58.3049 -111.29 474.678
58.3049 -110.439 474.678
58.2636 -109.51 474.343
58.3049 -108.736 474.678
58.3462 -107.962 475.014
58.3462 -107.11 475.014
58.3462 -106.258 475.014
58.3462 -105.406 475.014
58.3462 -104.555 475.014
58.3462 -103.703 475.014
58.3462 -102.851 475.014
58.3875 -102.072 475.351
58.4704 -101.363 476.026
58.4704 -100.509 476.026
58.5535 -99.7974 476.703
58.5535 -98.9426 476.703
58.5952 -98.1576 477.042
58.6369 -97.3714 477.381
58.6786 -96.5842 477.721
58.6369 -95.6594 477.381
58.6786 -94.8709 477.721
58.7205 -94.0813 478.062
58.8883 -93.4906 479.428
58.7205 -92.3668 478.062
58.7205 -91.5096 478.062
58.8883 -90.9116 479.428
58.8883 -90.0519 479.428
58.8883 -89.1922 479.428
59.0149 -88.5223 480.459
59.0572 -87.7237 480.803
